ply
format ascii 1.0
element vertex 824
property float x
property float y
property float z
property float nx
property float ny
property float nz
property uchar diffuse_red
property uchar diffuse_green
property uchar diffuse_blue
property uchar class
end_header
7.7977 98.2527 -43.3883 0.372 0.313 0.874 143 133 124 0
-4.7027 105.8673 -48.5238 0.983 -0.125 -0.137 148 134 126 0
-4.5787 105.9965 -48.2695 0.981 -0.146 -0.128 149 135 126 0
11.5747 103.0196 -34.8147 0.774 -0.610 0.168 142 129 120 0
0.8359 115.6219 -33.2049 0.925 -0.181 -0.334 136 123 114 0
34.6051 49.9039 -64.5626 0.194 -0.218 0.957 218 218 218 0
34.2689 50.0608 -64.7495 0.242 -0.204 0.949 218 218 218 0
34.0503 50.2297 -64.8046 0.468 -0.608 0.642 219 219 219 0
34.0892 50.4222 -64.5731 0.703 -0.675 0.224 216 216 216 0
34.1850 50.6193 -64.2792 0.703 -0.675 0.224 215 215 215 0
33.0369 51.0898 -64.9824 0.017 -0.269 0.963 213 215 213 0
31.1734 52.8610 -65.1208 0.725 0.515 0.458 213 213 213 0
40.3493 61.8600 -46.8009 -0.023 0.327 0.945 197 203 201 0
40.3197 62.0168 -46.6751 -0.062 0.101 0.993 197 203 201 0
25.5911 63.5145 -60.2127 0.624 -0.757 0.196 193 199 197 0
24.2936 64.7006 -60.3559 0.534 0.475 0.700 191 196 199 0
25.8229 66.9162 -56.5902 -0.129 0.461 0.878 189 196 195 0
16.9215 68.3563 -64.2392 0.963 -0.215 0.164 185 194 195 0
25.1426 68.5732 -55.6350 -0.284 0.481 0.830 184 196 191 0
27.5179 70.5020 -51.2915 0.926 0.359 0.114 179 191 191 0
27.5582 70.6636 -51.0896 0.939 0.333 0.090 180 190 191 0
18.4993 74.8288 -56.1869 0.677 -0.624 0.391 173 184 181 0
18.0856 75.2571 -56.1827 0.639 -0.709 0.298 170 182 181 0
17.8167 75.8405 -55.8763 0.661 -0.714 0.231 170 181 181 0
17.6016 76.0576 -55.8798 0.594 -0.697 0.402 171 181 180 0
16.7991 76.3815 -56.3762 0.674 -0.644 0.362 170 180 179 0
9.0365 77.9819 -62.7037 0.495 0.374 0.784 169 179 178 0
8.9098 78.1984 -62.6175 0.881 0.299 0.366 168 178 177 0
17.5645 79.0609 -52.9282 0.733 -0.290 -0.615 165 169 173 0
17.8267 81.5760 -50.1572 0.759 0.351 -0.548 161 163 162 0
17.9839 81.7080 -49.8655 0.762 0.340 -0.551 160 161 161 0
17.4065 82.3525 -49.8132 0.833 0.390 -0.393 162 162 162 0
13.1367 84.0857 -52.4447 0.698 -0.669 0.254 159 157 158 0
18.7733 83.5113 -47.2651 0.925 0.381 0.004 157 153 154 0
18.6775 83.7002 -47.1748 0.972 0.222 -0.073 155 152 153 0
18.6445 83.8728 -47.0366 0.977 0.203 -0.067 156 155 155 0
-3.1978 105.4702 -47.8261 0.983 0.163 -0.088 147 133 125 0
-4.2283 106.0499 -48.3006 0.939 -0.329 0.106 149 135 126 0
11.0111 102.5208 -36.2638 0.733 0.588 0.341 145 131 120 0
13.4757 106.8213 -29.4686 0.905 0.124 -0.408 138 125 117 0
6.3774 111.0214 -32.5307 0.682 0.154 0.715 138 123 118 0
5.9341 111.3802 -32.6258 0.672 -0.383 0.634 138 123 118 0
5.8519 111.5680 -32.5228 0.638 -0.637 0.432 137 122 117 0
5.8359 111.7241 -32.3838 0.759 -0.372 0.535 136 121 116 0
0.7883 115.8282 -33.4491 0.925 -0.181 -0.334 135 122 113 0
33.3598 50.8576 -65.2648 0.428 -0.220 0.877 217 218 217 0
33.3800 51.0489 -65.0533 0.297 -0.228 0.927 215 217 216 0
37.0485 58.6793 -53.6852 -0.028 -0.706 0.708 202 203 207 0
40.4934 62.1229 -46.7214 0.077 0.028 0.997 196 202 200 0
37.8143 62.4256 -49.1647 -0.182 0.125 0.975 195 201 199 0
25.6396 63.6489 -60.4200 0.698 -0.716 0.003 193 199 197 0
25.8434 63.8190 -60.0414 0.703 -0.710 -0.019 192 198 198 0
25.8497 64.1828 -59.6723 0.644 -0.765 0.019 190 195 198 0
25.4682 68.6755 -55.5830 -0.284 0.481 0.830 183 194 190 0
28.2845 71.3584 -50.0219 0.573 -0.770 -0.280 179 186 189 0
23.8932 72.1833 -53.6989 0.829 -0.552 0.086 177 186 188 0
17.7699 76.1802 -55.9876 0.609 -0.680 0.409 171 181 180 0
17.1786 76.4665 -56.3079 0.592 -0.718 0.366 170 180 178 0
18.4268 76.4152 -55.0801 0.685 -0.700 -0.204 169 179 178 0
29.4647 75.6272 -44.5557 0.102 -0.129 0.986 169 175 178 0
25.6319 77.1941 -46.9204 0.537 -0.843 -0.001 166 170 173 0
17.1427 81.8917 -50.9347 0.824 0.424 -0.375 162 162 162 0
14.8278 83.3072 -51.8952 0.285 -0.591 0.754 160 160 160 0
13.1569 84.2421 -52.6750 0.700 -0.677 0.227 158 157 156 0
18.7465 83.6713 -47.5167 0.930 0.366 -0.013 160 157 158 0
14.8695 88.0332 -47.1396 0.333 -0.563 0.757 150 151 144 0
11.8620 99.1335 -39.1520 0.439 0.871 0.220 145 132 123 0
11.2736 102.4276 -36.4701 0.768 0.509 0.388 145 131 120 0
11.1281 102.6391 -36.4082 0.762 0.515 0.392 146 132 121 0
12.5120 103.3960 -34.2355 0.649 -0.736 0.193 141 128 119 0
5.4662 111.6290 -33.2451 0.940 -0.341 -0.018 138 123 118 0
5.4869 111.7685 -33.0847 0.961 -0.247 -0.120 137 122 117 0
5.8717 111.7338 -32.7250 0.950 -0.286 0.127 136 121 116 0
5.8063 111.9136 -32.6128 0.962 -0.242 0.123 136 121 116 0
67.5518 33.2732 -48.0306 0.422 -0.906 0.034 255 255 255 0
33.8590 51.2082 -64.7828 0.271 -0.114 0.956 216 217 216 0
37.3390 58.7954 -53.6218 0.408 -0.805 0.430 202 203 205 0
38.0674 62.5306 -49.1407 -0.166 0.270 0.948 195 198 199 0
26.4346 67.1321 -56.5139 -0.072 0.556 0.828 188 193 193 0
25.4207 67.5879 -57.1017 0.055 0.438 0.897 187 193 193 0
24.6084 69.0919 -56.4351 -0.182 0.172 0.968 182 192 189 0
24.0012 72.3099 -53.8450 0.828 -0.555 0.078 178 186 189 0
26.9758 72.1909 -50.9030 0.103 0.885 0.455 176 186 188 0
26.2244 72.4752 -51.3921 0.062 0.846 0.529 175 185 187 0
20.6583 73.7054 -55.8906 0.391 0.601 0.697 176 183 186 0
18.5056 75.1308 -56.6818 0.714 -0.601 0.361 172 183 181 0
18.4785 75.3143 -56.5263 0.624 -0.688 0.371 171 183 181 0
17.5688 76.5486 -56.2293 0.610 -0.670 0.424 168 180 176 0
17.6096 76.7194 -56.0167 0.651 -0.757 -0.064 167 179 175 0
16.4561 77.1141 -56.8093 0.804 -0.585 -0.103 166 178 175 0
29.4989 76.0657 -44.4355 0.394 0.023 0.919 168 171 176 0
27.1026 77.3442 -45.6240 0.565 -0.822 -0.063 167 170 173 0
25.1881 78.0716 -46.8673 0.325 -0.719 0.614 164 168 169 0
17.3578 82.3357 -50.6649 0.954 0.262 -0.144 161 161 161 0
17.2412 82.5335 -50.5872 0.920 0.304 -0.246 162 162 162 0
17.0824 82.7417 -50.5426 0.928 0.337 -0.156 160 160 160 0
15.2334 83.3664 -51.8211 0.339 -0.627 0.702 159 159 158 0
13.0715 84.4254 -52.9878 0.893 -0.411 0.185 158 157 154 0
18.5072 83.8867 -47.9325 0.820 0.509 -0.261 157 156 155 0
15.2545 88.0807 -47.0895 0.942 -0.320 -0.103 149 150 143 0
15.1587 88.2736 -46.9954 0.944 -0.323 -0.070 149 149 143 0
12.0823 103.4501 -34.9989 0.724 -0.319 0.612 138 128 118 0
5.9722 111.8612 -32.8832 0.917 -0.399 0.004 136 121 115 0
0.7672 117.4200 -32.6856 0.805 -0.368 -0.465 255 255 255 0
69.3310 34.1952 -45.5361 0.422 -0.906 0.034 255 255 255 0
37.3262 62.8539 -49.9243 -0.114 0.413 0.904 193 196 199 0
32.4494 67.3170 -50.4966 0.860 -0.413 0.300 186 190 190 0
27.6902 77.6709 -45.0513 0.888 -0.428 0.172 164 169 166 0
28.3979 77.6718 -44.3190 0.537 -0.557 0.633 164 168 166 0
15.5870 82.5752 -52.6496 0.181 -0.769 0.613 163 163 165 0
16.0046 82.9914 -51.8015 0.589 -0.759 0.277 160 160 160 0
15.2215 83.3556 -52.2462 0.372 -0.583 0.722 159 160 159 0
15.5281 83.4522 -51.8327 0.336 -0.567 0.752 158 159 156 0
15.0990 83.7309 -51.9970 0.488 -0.189 0.852 159 159 155 0
13.0836 84.5845 -53.2253 0.904 -0.403 0.143 157 158 152 0
17.5112 86.4425 -46.7903 0.586 0.810 -0.001 151 152 147 0
16.3416 87.2665 -47.1742 0.753 0.543 -0.373 150 151 145 0
15.0707 88.6242 -47.1286 0.952 -0.296 0.081 148 145 141 0
13.8078 89.3319 -47.7253 -0.020 -0.151 0.988 151 146 142 0
13.3007 96.7449 -40.8296 0.836 0.414 -0.360 142 131 126 0
70.9939 35.0569 -43.2048 0.422 -0.906 0.034 254 254 254 0
57.4932 53.6826 -38.5377 -0.348 0.397 0.850 214 214 214 0
36.7088 58.7030 -55.0722 0.668 -0.734 -0.125 201 203 202 0
35.5533 62.5896 -52.3739 0.995 0.033 -0.096 196 196 200 0
28.1910 64.4287 -58.1700 0.766 -0.182 -0.617 191 195 192 0
26.3977 67.5878 -56.8630 0.046 0.645 0.763 188 192 191 0
32.4990 67.2776 -50.8425 0.807 -0.581 -0.108 186 191 188 0
28.5581 71.8902 -50.3067 0.036 0.851 0.524 178 183 187 0
19.3212 75.8238 -55.9478 -0.344 0.340 0.875 171 181 180 0
18.6002 76.1315 -56.3874 -0.262 0.315 0.912 170 182 179 0
27.6252 77.8244 -45.3242 0.957 -0.111 0.269 164 169 164 0
27.7480 77.9533 -45.0675 0.869 -0.453 0.197 163 168 162 0
27.6056 78.1405 -45.0276 0.765 -0.613 0.199 163 168 162 0
16.6654 82.9866 -51.5211 0.480 -0.770 0.420 160 160 160 0
15.3384 83.4857 -52.3977 0.350 -0.686 0.638 159 161 159 0
15.4471 83.6310 -52.1392 0.348 -0.570 0.744 157 159 156 0
15.1193 88.7699 -47.3262 0.837 0.177 -0.518 146 142 139 0
15.0987 89.1049 -47.0117 0.912 -0.410 -0.010 149 144 142 0
-5.3885 110.4480 -46.8699 0.509 -0.599 0.618 140 128 119 0
13.2429 107.7267 -30.2641 0.767 0.507 -0.393 140 124 117 0
0.8616 117.7398 -33.0718 0.814 -0.353 -0.462 255 255 255 0
72.5514 35.8641 -41.0212 0.422 -0.906 0.034 254 254 254 0
63.9736 49.8494 -35.9101 -0.083 0.430 0.899 227 224 223 0
33.8099 62.1355 -55.0013 0.725 -0.678 0.121 196 200 200 0
26.5792 64.5005 -60.1606 0.769 -0.128 -0.626 192 196 195 0
26.5214 67.7133 -56.9933 0.051 0.650 0.758 187 191 190 0
32.4290 67.4148 -51.1367 0.909 -0.329 -0.257 186 190 189 0
19.0875 76.1947 -56.2195 -0.254 0.437 0.863 171 181 179 0
29.2275 78.0701 -43.7682 0.284 -0.397 0.873 162 167 163 0
16.3324 82.7115 -52.5436 0.325 -0.852 0.411 164 162 164 0
16.7149 82.7899 -52.0662 0.348 -0.837 0.422 162 161 162 0
16.7489 82.9525 -51.8675 0.412 -0.818 0.401 160 160 161 0
16.9503 83.0732 -51.5363 0.482 -0.766 0.426 160 160 160 0
15.7981 83.5304 -52.2778 0.944 -0.269 0.190 158 160 158 0
15.7195 83.7217 -52.1674 0.939 -0.230 0.256 158 160 156 0
15.5783 83.9289 -52.1065 0.343 -0.473 0.811 159 160 154 0
14.3823 88.9855 -48.2728 0.750 0.515 -0.415 149 148 143 0
14.7372 89.0450 -47.8431 0.837 0.178 -0.517 148 144 141 0
14.7583 89.5333 -47.3307 0.885 0.325 -0.333 148 143 143 0
14.3284 89.9940 -47.3157 0.590 0.750 0.297 149 143 142 0
13.7750 90.3298 -47.5551 0.856 0.405 0.321 149 143 140 0
14.4682 96.0199 -41.1162 0.836 0.457 -0.303 139 128 123 0
-5.0557 110.5002 -46.9150 0.506 -0.599 0.620 143 130 121 0
11.3810 103.8038 -36.5133 0.890 -0.371 -0.264 143 130 121 0
14.5821 105.2981 -31.6763 0.527 0.677 0.514 136 126 117 0
14.0702 105.9564 -31.5484 0.987 -0.020 0.161 135 124 116 0
12.6322 108.1816 -30.8114 0.775 0.498 -0.388 138 123 116 0
12.3895 108.4382 -30.8066 0.704 0.698 -0.134 137 122 115 0
74.0133 36.6216 -38.9717 0.422 -0.906 0.034 254 254 254 0
57.9626 54.5573 -37.7166 0.054 -0.835 0.548 213 213 213 0
57.9910 54.6918 -37.5515 -0.031 -0.753 0.657 212 212 212 0
34.0461 62.2495 -55.0035 0.846 -0.521 0.110 197 198 202 0
34.5289 63.0639 -53.6785 0.909 -0.417 -0.022 194 196 197 0
26.5759 67.8461 -57.1882 0.113 0.694 0.711 186 192 190 0
33.1229 67.4673 -50.7178 0.653 -0.749 -0.116 186 192 189 0
34.2065 69.0940 -47.9465 0.991 -0.117 -0.064 182 188 190 0
19.5159 79.5623 -52.7842 -0.119 0.668 0.735 167 171 168 0
20.6671 79.8158 -51.3242 0.261 0.052 0.964 164 169 165 0
29.4933 78.1473 -43.7668 0.439 -0.253 0.862 163 168 164 0
16.6146 82.9718 -52.3887 0.412 -0.745 0.524 161 161 161 0
16.6513 83.1339 -52.1871 0.412 -0.745 0.524 160 160 160 0
16.6880 83.2955 -51.9860 0.412 -0.745 0.524 160 160 160 0
16.9581 83.3983 -51.6000 0.972 0.144 -0.186 158 160 157 0
15.9541 83.8214 -52.2247 0.938 -0.199 0.282 158 160 156 0
26.4627 82.8447 -42.2103 0.403 0.224 0.887 158 157 153 0
12.7579 88.1052 -51.2579 0.902 -0.412 0.131 152 150 148 0
14.3432 90.1516 -47.5392 0.622 0.726 0.292 147 143 142 0
14.2199 90.3544 -47.4641 0.840 0.427 0.335 147 142 139 0
10.4498 104.2210 -37.4527 0.914 -0.362 -0.182 145 132 123 0
10.5359 104.3352 -37.2476 0.914 -0.362 -0.182 144 131 122 0
14.2070 105.7744 -31.9571 0.522 0.260 0.813 138 128 117 0
14.1587 105.9381 -31.8430 0.533 0.159 0.831 138 128 116 0
13.9322 106.1839 -31.8325 0.536 0.180 0.825 136 126 117 0
12.4228 108.1645 -31.4187 0.786 0.492 -0.374 139 125 116 0
11.9020 108.8376 -31.2862 0.704 0.698 -0.134 134 120 112 0
75.3428 37.3123 -37.1138 0.420 -0.907 0.037 254 254 254 0
80.2662 40.1421 -29.0860 -0.307 0.260 0.916 233 227 224 0
79.6962 40.1085 -29.7189 -0.315 0.185 0.931 232 227 221 0
58.3304 54.5326 -37.6278 -0.005 -0.764 0.645 214 214 214 0
58.4177 54.9335 -37.1319 0.007 -0.791 0.611 210 210 211 0
51.9382 55.1853 -43.6875 -0.246 0.556 0.794 208 209 213 0
33.9451 63.0573 -54.6592 0.817 0.249 -0.520 195 198 198 0
26.6876 67.9728 -57.3295 0.113 0.694 0.711 186 192 190 0
34.4480 69.0326 -48.1052 0.997 0.036 0.075 182 188 190 0
34.0635 69.2411 -48.2990 0.854 -0.058 0.516 183 187 190 0
13.7278 74.2843 -64.5850 0.614 -0.198 0.764 180 186 183 0
20.8774 79.9194 -51.3888 0.225 0.012 0.974 163 168 164 0
16.8467 83.0722 -52.4456 0.640 -0.684 0.351 161 161 161 0
26.1099 83.2352 -42.5462 0.186 0.572 0.799 156 155 152 0
10.6864 104.2889 -37.5248 0.943 -0.288 -0.168 145 132 123 0
11.0838 104.2683 -37.1279 0.977 -0.215 -0.014 144 131 122 0
11.6470 104.3238 -36.4801 0.929 -0.368 0.043 142 128 119 0
11.4221 109.2352 -31.7638 0.698 0.703 -0.133 135 122 113 0
11.0393 109.5616 -31.8370 0.650 0.759 -0.034 137 124 115 0
76.5767 37.9541 -35.3925 0.420 -0.907 0.037 254 254 254 0
80.2221 40.0506 -29.4273 -0.327 0.175 0.929 230 224 223 0
80.3693 40.2350 -29.0856 -0.308 0.133 0.942 233 227 223 0
58.6204 54.8992 -37.2237 -0.001 -0.773 0.634 212 212 212 0
58.6989 55.0344 -37.0044 0.007 -0.791 0.611 210 210 210 0
38.1707 63.8792 -49.7334 -0.069 0.487 0.871 192 197 193 0
31.1964 67.6132 -53.3214 0.347 -0.519 0.781 186 190 190 0
30.0480 67.9090 -54.2346 0.083 -0.527 0.846 186 190 190 0
34.7397 68.6501 -48.5343 0.485 0.253 0.837 183 191 188 0
34.4742 68.8419 -48.6208 0.803 -0.257 0.538 183 191 189 0
24.8123 73.3835 -54.2294 0.483 -0.844 0.231 176 181 184 0
16.2144 89.4056 -47.1165 0.270 0.505 0.820 151 144 144 0
-1.0626 100.4728 -54.1691 0.982 0.109 0.151 142 131 128 0
11.2573 104.2120 -37.3894 0.991 -0.044 -0.127 144 131 122 0
10.9657 104.4885 -37.4178 0.945 0.072 -0.320 143 130 121 0
11.0185 104.6159 -37.2333 0.945 0.072 -0.320 141 128 119 0
11.1092 104.7264 -37.0260 0.950 0.285 -0.132 142 128 119 0
10.6334 105.0842 -37.1666 0.863 0.296 0.410 141 127 118 0
77.7446 38.5616 -33.7633 0.420 -0.907 0.037 254 254 254 0
80.5276 40.1238 -29.2327 -0.266 -0.084 0.960 70 70 68 0
80.3119 40.1376 -29.4472 -0.329 0.181 0.927 230 224 224 0
80.5159 40.3481 -29.0181 -0.302 0.128 0.945 234 226 224 0
57.9380 55.2174 -37.8961 0.002 -0.567 0.823 211 209 210 0
31.3974 67.7231 -53.3662 0.368 -0.565 0.739 186 190 191 0
34.2899 68.6771 -49.3350 0.307 -0.166 0.937 182 191 191 0
25.0819 71.7684 -55.9649 0.358 -0.734 0.577 181 186 184 0
25.5502 72.7257 -54.4995 0.290 -0.895 0.339 178 182 181 0
25.0256 73.4917 -54.2803 0.483 -0.844 0.231 177 181 180 0
23.3399 75.3185 -54.2177 0.020 0.384 0.923 174 178 181 0
26.0685 82.4678 -44.0896 0.807 -0.337 -0.486 158 157 155 0
25.6837 82.7237 -44.2385 0.928 0.251 0.276 157 156 154 0
25.6081 82.8975 -44.1426 0.928 0.251 0.276 157 156 154 0
16.7030 89.2526 -47.1479 0.260 0.581 0.771 153 145 143 0
14.8558 90.3146 -48.0305 0.951 0.200 -0.235 150 142 140 0
13.8870 90.7830 -48.5833 0.897 -0.236 -0.373 150 141 141 0
14.9291 92.0809 -46.1652 0.886 -0.461 0.036 145 141 134 0
-0.8189 100.5735 -54.2590 0.869 -0.209 0.449 141 129 125 0
-1.2630 101.2753 -54.0193 -0.228 0.239 0.944 140 130 124 0
11.2216 104.3965 -37.6288 0.992 -0.058 -0.111 143 131 119 0
11.1274 104.7378 -37.3831 0.927 0.226 -0.300 141 129 117 0
11.2887 104.8172 -37.1319 0.982 0.165 -0.093 142 128 117 0
0.7198 118.7372 -34.2434 0.886 -0.267 -0.379 254 255 255 0
78.8782 39.1502 -32.1780 0.423 -0.906 0.034 254 254 254 0
80.8457 40.2037 -29.0156 -0.348 0.018 0.937 130 131 130 0
80.6663 40.2337 -29.1761 -0.262 -0.088 0.961 70 69 69 0
80.4190 40.2326 -29.4404 -0.332 0.183 0.925 229 225 224 0
35.9873 66.5421 -50.0480 0.362 0.873 0.328 188 192 191 0
26.0488 73.1265 -53.9482 0.553 -0.511 0.658 178 182 180 0
25.9433 73.3127 -53.8717 0.387 -0.758 0.526 177 181 179 0
11.9298 80.9548 -61.0362 0.092 0.698 0.710 167 171 173 0
3.6150 115.4903 -34.8638 0.678 -0.731 0.079 132 121 115 0
0.6983 118.9343 -34.4755 0.883 -0.267 -0.385 255 255 255 0
79.9520 39.7077 -30.6762 0.423 -0.906 0.034 254 254 254 0
81.5467 40.5794 -28.0863 0.327 -0.935 0.137 130 130 130 0
67.7943 47.7652 -35.4835 -0.210 0.298 0.931 231 228 227 0
66.7031 48.4416 -35.9625 -0.128 0.465 0.876 233 227 227 0
66.5400 48.5389 -36.0380 -0.128 0.465 0.876 231 227 226 0
66.3761 48.6368 -36.1138 -0.128 0.465 0.876 230 228 226 0
64.0484 49.9292 -37.2883 -0.314 0.194 0.929 228 221 219 0
63.6797 50.1358 -37.4725 -0.288 0.230 0.929 226 222 219 0
63.5137 50.2426 -37.5414 -0.287 0.228 0.930 225 223 219 0
61.0474 51.9112 -38.4820 0.252 0.831 0.495 221 220 218 0
59.5716 52.5661 -39.3939 -0.240 0.337 0.911 219 218 216 0
57.4592 53.7512 -40.4474 -0.336 0.205 0.919 215 215 215 0
57.2443 53.8733 -40.5531 -0.336 0.205 0.919 215 215 215 0
57.0430 53.9970 -40.6426 -0.334 0.207 0.920 214 214 212 0
56.8260 54.1204 -40.7491 -0.334 0.207 0.920 214 213 211 0
56.6131 54.2448 -40.8503 -0.329 0.184 0.926 213 212 210 0
56.4013 54.3698 -40.9496 -0.325 0.178 0.929 213 212 210 0
56.3144 54.5026 -40.9076 -0.173 0.417 0.892 211 210 208 0
56.1005 54.6287 -41.0081 -0.173 0.417 0.892 212 211 209 0
55.8855 54.7554 -41.1091 -0.173 0.417 0.892 213 211 210 0
55.6695 54.8828 -41.2106 -0.173 0.417 0.892 212 210 211 0
55.3259 55.0048 -41.4538 -0.330 0.212 0.920 212 210 211 0
53.5006 56.0536 -42.3390 -0.326 0.272 0.905 210 210 210 0
53.2519 56.1874 -42.4688 -0.326 0.272 0.905 209 209 209 0
52.9844 56.3216 -42.6184 -0.327 0.220 0.919 207 209 208 0
52.7637 56.4578 -42.7159 -0.329 0.219 0.919 205 207 206 0
52.4407 56.7345 -42.7799 -0.176 0.401 0.899 205 207 204 0
52.2035 56.8722 -42.8936 -0.180 0.387 0.904 203 205 202 0
51.9667 57.0107 -43.0059 -0.180 0.387 0.904 204 206 203 0
51.7314 57.1500 -43.1159 -0.172 0.357 0.918 205 206 204 0
51.4725 57.2898 -43.2505 -0.182 0.352 0.918 206 206 206 0
51.2442 57.4307 -43.3515 -0.182 0.330 0.926 207 207 207 0
51.0301 57.5724 -43.4363 -0.183 0.343 0.922 207 207 206 0
50.0786 58.1458 -43.8706 -0.193 0.415 0.889 206 206 204 0
49.8391 58.2911 -43.9790 -0.194 0.413 0.890 206 206 205 0
49.5702 58.4373 -44.1178 -0.198 0.429 0.881 205 206 205 0
49.3084 58.5843 -44.2483 -0.198 0.429 0.881 204 204 204 0
49.0483 58.7321 -44.3761 -0.199 0.412 0.889 204 204 204 0
48.7881 58.8807 -44.5031 -0.199 0.412 0.889 203 204 204 0
48.4990 59.0306 -44.6599 -0.219 0.360 0.907 203 204 203 0
48.2460 59.1809 -44.7776 -0.219 0.356 0.909 201 204 203 0
47.9897 59.3320 -44.8979 -0.217 0.351 0.911 201 203 202 0
47.7316 59.4839 -45.0194 -0.224 0.353 0.908 202 204 203 0
47.4635 59.6369 -45.1505 -0.218 0.366 0.905 203 203 203 0
43.7345 61.8658 -46.8715 -0.199 0.461 0.865 198 200 199 0
43.4016 62.0347 -47.0555 -0.222 0.421 0.879 198 200 199 0
43.1022 62.2029 -47.2046 -0.223 0.417 0.881 198 200 199 0
42.8306 62.3704 -47.3248 -0.250 0.269 0.930 198 200 199 0
42.5702 62.5380 -47.4327 -0.262 0.196 0.945 198 200 199 0
42.2588 62.7096 -47.5912 -0.262 0.290 0.920 197 199 198 0
41.9393 62.8827 -47.7569 -0.276 0.338 0.900 197 199 198 0
41.6298 63.0562 -47.9114 -0.278 0.336 0.900 194 196 195 0
40.0259 63.9422 -48.7254 -0.287 0.243 0.927 192 198 196 0
39.7347 64.1201 -48.8559 -0.281 0.319 0.905 192 196 195 0
38.6116 65.3058 -48.8515 0.453 0.887 0.086 190 194 193 0
36.7127 66.2750 -49.8962 0.380 0.877 0.295 188 192 193 0
36.4376 66.4616 -50.0007 0.371 0.885 0.283 188 192 192 0
36.0377 66.6622 -50.2243 0.347 0.868 0.356 188 192 191 0
36.2613 67.4280 -49.2072 0.174 0.851 0.495 187 188 191 0
35.8118 67.6377 -49.4745 0.165 0.856 0.490 187 188 192 0
34.4488 68.1175 -50.4438 0.183 0.866 0.465 187 188 192 0
34.0464 68.3267 -50.6614 0.184 0.864 0.468 185 188 192 0
33.6091 68.5414 -50.9106 0.188 0.868 0.461 184 188 191 0
33.2153 68.7520 -51.1175 0.202 0.872 0.446 184 189 192 0
32.7952 68.9672 -51.3478 0.202 0.872 0.446 184 189 192 0
33.5826 69.1863 -50.2837 0.511 0.849 -0.135 181 188 190 0
30.0186 70.6521 -52.6035 0.439 0.897 0.047 181 186 189 0
29.1191 70.9477 -53.2646 0.253 0.908 0.333 181 187 188 0
28.5582 71.1964 -53.6113 0.235 0.906 0.352 181 187 187 0
26.9452 71.9428 -54.5769 -0.051 0.740 0.670 181 185 185 0
26.3268 72.5470 -54.6239 0.032 0.759 0.650 178 182 185 0
24.4692 73.1864 -55.9596 0.107 0.805 0.584 178 182 183 0
24.0134 73.4333 -56.1959 0.104 0.801 0.589 178 182 183 0
23.4932 73.6922 -56.4888 0.104 0.795 0.598 178 182 183 0
23.0453 73.9406 -56.7151 0.106 0.800 0.590 177 181 182 0
22.5635 74.1961 -56.9705 0.113 0.801 0.588 177 181 182 0
23.2126 74.2595 -56.2123 0.307 0.849 0.429 177 181 183 0
22.7831 74.5068 -56.4201 0.285 0.827 0.485 177 181 184 0
22.0523 74.8081 -56.8950 0.279 0.826 0.490 176 180 183 0
22.8111 75.1941 -55.6918 0.356 0.894 0.274 174 179 182 0
22.3120 75.4573 -55.9579 0.364 0.893 0.263 174 178 181 0
19.4282 77.0466 -57.4253 0.560 0.811 -0.169 171 175 178 0
19.0131 77.3037 -57.6077 0.557 0.813 -0.170 172 175 178 0
18.4717 77.5868 -57.8987 0.550 0.825 -0.129 173 174 178 0
18.0229 77.8532 -58.1077 0.550 0.825 -0.129 173 174 177 0
16.4106 78.8942 -58.7731 0.401 0.902 0.162 170 176 176 0
10.8781 81.5361 -62.0019 0.158 0.761 0.630 166 170 171 0
9.9068 81.9377 -62.6319 0.106 0.704 0.703 165 169 169 0
9.3188 82.2570 -62.9360 0.186 0.774 0.605 164 168 166 0
8.4886 82.6323 -63.4419 0.062 0.672 0.738 164 169 166 0
6.3179 83.3134 -65.0698 0.478 0.878 -0.019 165 170 166 0
5.6754 83.6535 -65.4111 0.470 0.883 -0.012 167 169 166 0
4.8814 84.0302 -65.8769 0.459 0.888 -0.003 165 167 164 0
4.9680 84.5952 -65.2102 0.570 0.751 -0.332 165 167 164 0
4.0995 84.9950 -65.7324 0.572 0.751 -0.330 165 167 163 0
1.0972 117.8544 -35.5565 0.411 0.681 0.606 135 117 110 0
0.5242 118.4521 -35.5616 0.946 -0.292 -0.139 91 79 76 0
0.5653 118.5832 -35.3845 0.944 -0.303 -0.130 47 46 47 0
1.1334 118.7439 -34.6141 0.910 -0.207 -0.360 254 255 255 0
80.9715 40.2370 -29.2506 0.423 -0.906 0.034 254 254 254 0
82.1706 40.9172 -27.2713 0.327 -0.935 0.137 130 130 130 0
81.8555 40.8800 -27.6474 -0.190 0.659 0.728 72 72 70 0
80.2653 40.5977 -29.6413 -0.324 0.153 0.934 236 226 225 0
80.1575 40.6639 -29.6896 -0.324 0.153 0.934 235 227 227 0
80.0436 40.7278 -29.7468 -0.324 0.124 0.938 234 228 228 0
79.9650 40.8079 -29.7497 -0.328 0.122 0.937 234 228 228 0
80.0236 40.9493 -29.5429 -0.322 0.158 0.934 233 228 227 0
79.4065 41.2560 -29.8930 -0.300 0.328 0.896 232 228 227 0
79.2773 41.3164 -29.9702 -0.310 0.256 0.916 232 228 227 0
79.1461 41.3764 -30.0500 -0.313 0.235 0.920 232 228 227 0
79.0032 41.4320 -30.1467 -0.299 0.230 0.926 232 227 227 0
78.8658 41.4905 -30.2346 -0.299 0.231 0.926 233 227 227 0
78.8068 41.5821 -30.2046 -0.310 0.227 0.923 233 228 227 0
78.6108 41.6174 -30.3791 -0.319 0.208 0.925 233 229 228 0
78.4959 41.6868 -30.4318 -0.319 0.209 0.924 232 228 227 0
78.3990 41.7638 -30.4573 -0.318 0.204 0.926 232 229 228 0
78.2551 41.8223 -30.5522 -0.345 0.189 0.919 231 229 227 0
78.1769 41.9076 -30.5494 -0.312 0.242 0.919 232 229 227 0
78.0566 41.9765 -30.6084 -0.312 0.242 0.919 232 228 227 0
77.9216 42.0399 -30.6887 -0.306 0.208 0.929 233 228 227 0
77.8046 42.1110 -30.7419 -0.305 0.209 0.929 234 228 228 0
77.7973 42.2251 -30.6337 -0.252 0.205 0.946 233 227 227 0
77.7154 42.3102 -30.6349 -0.281 0.186 0.942 231 229 227 0
77.6113 42.3871 -30.6683 -0.271 0.191 0.944 230 229 227 0
77.3777 42.4151 -30.8906 -0.299 0.214 0.930 230 228 225 0
77.2524 42.4850 -30.9538 -0.317 0.206 0.926 231 229 225 0
77.2004 42.5828 -30.9101 -0.327 0.260 0.909 231 229 225 0
75.9648 43.1979 -31.6101 -0.309 0.234 0.922 233 229 230 0
75.8774 43.2861 -31.6141 -0.314 0.226 0.922 233 229 230 0
75.6475 43.3257 -31.8205 -0.322 0.182 0.929 233 229 230 0
75.5209 43.4014 -31.8793 -0.322 0.182 0.929 233 229 230 0
75.3951 43.4779 -31.9364 -0.293 0.226 0.929 234 228 230 0
75.2633 43.5529 -32.0016 -0.279 0.230 0.932 233 229 230 0
75.1286 43.6273 -32.0705 -0.290 0.217 0.932 233 229 230 0
74.9966 43.7032 -32.1349 -0.290 0.217 0.932 234 228 229 0
74.8719 43.7819 -32.1885 -0.291 0.218 0.932 234 227 227 0
74.7578 43.8645 -32.2270 -0.284 0.203 0.937 235 226 227 0
74.2692 44.3085 -32.2994 -0.182 0.426 0.886 233 227 227 0
73.9734 44.3373 -32.5876 -0.308 0.254 0.917 232 228 227 0
73.8357 44.4156 -32.6556 -0.308 0.254 0.917 232 228 227 0
73.6952 44.4935 -32.7271 -0.308 0.251 0.918 230 229 227 0
73.7193 44.6213 -32.5712 -0.147 0.523 0.840 230 229 227 0
73.6328 44.7159 -32.5677 -0.159 0.482 0.862 230 229 227 0
73.3938 44.7658 -32.7735 -0.209 0.395 0.895 232 228 227 0
73.1412 44.8128 -32.9966 -0.205 0.304 0.930 234 228 228 0
73.0018 44.8936 -33.0640 -0.204 0.303 0.931 235 228 228 0
72.9199 44.9914 -33.0524 -0.139 0.369 0.919 235 228 228 0
72.7959 45.0774 -33.0980 -0.152 0.376 0.914 235 228 228 0
72.5848 45.3822 -33.0142 -0.214 0.378 0.901 236 227 228 0
72.3819 45.4480 -33.1651 -0.170 0.448 0.878 235 227 228 0
72.2686 45.5387 -33.1943 -0.219 0.393 0.893 234 228 228 0
71.6312 45.7351 -33.6785 -0.240 0.348 0.906 231 230 228 0
71.4849 45.8195 -33.7496 -0.240 0.348 0.906 230 230 228 0
71.3274 45.9015 -33.8352 -0.239 0.346 0.907 231 230 228 0
70.8893 46.1595 -34.0427 -0.193 0.398 0.897 230 230 228 0
70.6978 46.2354 -34.1710 -0.250 0.313 0.916 231 229 227 0
70.5498 46.3225 -34.2412 -0.250 0.313 0.916 232 228 227 0
70.4859 46.4306 -34.1998 -0.230 0.316 0.920 233 227 227 0
70.4202 46.5382 -34.1606 -0.226 0.367 0.902 233 227 227 0
69.9525 46.7992 -34.3970 -0.129 0.477 0.869 233 226 226 0
69.7661 46.8804 -34.5144 -0.197 0.313 0.929 233 227 225 0
69.4712 46.9377 -34.7725 -0.217 0.221 0.951 234 228 225 0
69.3285 47.0303 -34.8314 -0.219 0.218 0.951 235 228 226 0
68.8789 47.3063 -35.0330 -0.270 0.286 0.920 235 227 225 0
68.7182 47.3971 -35.1131 -0.273 0.284 0.919 233 228 225 0
68.5546 47.4877 -35.1964 -0.279 0.258 0.925 233 227 227 0
68.3904 47.5788 -35.2799 -0.279 0.255 0.926 233 227 227 0
68.2369 47.6727 -35.3490 -0.279 0.260 0.924 232 228 227 0
68.1682 47.7844 -35.3092 -0.216 0.273 0.937 233 228 225 0
68.0053 47.8773 -35.3894 -0.225 0.303 0.926 234 228 225 0
67.8512 47.9724 -35.4580 -0.225 0.303 0.926 234 228 225 0
67.7624 48.0809 -35.4429 -0.197 0.389 0.900 233 228 225 0
67.5875 48.1729 -35.5369 -0.231 0.405 0.885 233 228 225 0
67.3693 48.2573 -35.6852 -0.216 0.412 0.885 233 228 225 0
67.2003 48.3518 -35.7703 -0.216 0.412 0.885 235 226 227 0
67.0021 48.4414 -35.8918 -0.233 0.321 0.918 234 226 227 0
66.8029 48.5316 -36.0138 -0.225 0.342 0.913 233 227 227 0
66.6269 48.6268 -36.1058 -0.218 0.302 0.928 231 227 226 0
66.4611 48.7243 -36.1845 -0.218 0.305 0.927 229 228 226 0
66.3326 48.8290 -36.2159 -0.129 0.466 0.875 228 228 226 0
66.2460 48.9414 -36.1944 -0.128 0.488 0.863 228 227 225 0
66.0869 49.0415 -36.2633 -0.124 0.483 0.867 228 227 224 0
65.9196 49.1408 -36.3418 -0.119 0.484 0.867 229 227 224 0
65.7515 49.2405 -36.4206 -0.119 0.484 0.867 230 226 223 0
65.6904 49.3583 -36.3663 -0.138 0.534 0.834 230 226 223 0
65.5178 49.4581 -36.4500 -0.143 0.529 0.836 230 226 223 0
65.2198 49.5386 -36.6878 -0.219 0.359 0.907 230 226 223 0
64.7067 49.9740 -36.7954 -0.304 0.199 0.932 229 222 220 0
64.5055 50.0730 -36.9105 -0.306 0.195 0.932 229 222 219 0
64.2621 50.1667 -37.0764 -0.295 0.179 0.938 228 222 219 0
63.8901 50.2430 -37.3980 -0.279 0.235 0.931 227 222 218 0
63.7873 50.3584 -37.3908 -0.283 0.244 0.928 227 222 219 0
63.7969 50.4895 -37.2470 -0.234 0.342 0.910 227 222 219 0
63.6169 50.5948 -37.3331 -0.221 0.341 0.914 228 221 220 0
63.1044 50.9176 -37.5545 -0.199 0.429 0.881 228 219 220 0
62.7425 51.0024 -37.8566 -0.225 0.419 0.880 226 220 220 0
62.4678 51.0994 -38.0527 -0.223 0.401 0.888 226 220 220 0
61.0249 51.9911 -38.6937 -0.240 0.378 0.894 221 220 218 0
60.7387 52.0944 -38.8956 -0.233 0.338 0.912 221 220 218 0
60.5456 52.2080 -38.9871 -0.233 0.338 0.912 221 220 218 0
60.3522 52.3223 -39.0785 -0.239 0.304 0.922 221 220 218 0
60.1377 52.4352 -39.1938 -0.244 0.322 0.915 221 220 218 0
59.9403 52.5504 -39.2883 -0.242 0.329 0.913 220 219 217 0
59.7428 52.6663 -39.3823 -0.242 0.329 0.913 220 219 216 0
59.5484 52.7831 -39.4720 -0.241 0.329 0.913 218 217 213 0
58.4630 53.5033 -39.9039 -0.141 0.430 0.892 216 216 214 0
58.2884 53.6258 -39.9666 -0.172 0.374 0.911 216 216 214 0
57.9785 53.7393 -40.1836 -0.175 0.383 0.907 216 216 215 0
57.8038 53.8631 -40.2451 -0.208 0.436 0.876 215 215 215 0
57.4616 53.9765 -40.4970 -0.335 0.207 0.919 215 215 214 0
57.2609 54.1001 -40.5866 -0.334 0.207 0.920 214 213 211 0
57.0450 54.2234 -40.6927 -0.334 0.207 0.920 214 213 211 0
56.8352 54.3478 -40.7913 -0.331 0.183 0.926 213 212 210 0
56.6280 54.4731 -40.8861 -0.330 0.197 0.923 213 212 210 0
56.4081 54.5983 -40.9947 -0.331 0.179 0.926 211 210 208 0
56.1982 54.7247 -41.0913 -0.331 0.183 0.926 212 211 209 0
55.9827 54.8516 -41.1934 -0.331 0.183 0.926 212 210 210 0
55.7673 54.9791 -41.2947 -0.330 0.186 0.925 212 210 211 0
55.5492 55.1073 -41.3984 -0.330 0.186 0.925 211 209 210 0
55.3204 55.2356 -41.5133 -0.331 0.212 0.920 211 209 210 0
55.0944 55.3649 -41.6242 -0.331 0.212 0.920 211 208 209 0
54.7343 55.6290 -41.7419 -0.271 0.333 0.903 209 208 209 0
54.4366 55.7577 -41.9304 -0.330 0.182 0.926 208 208 210 0
54.1925 55.8893 -42.0585 -0.332 0.192 0.924 209 209 211 0
53.9824 56.0227 -42.1482 -0.327 0.266 0.907 209 209 209 0
53.7377 56.1557 -42.2753 -0.327 0.266 0.907 208 208 208 0
53.4917 56.2896 -42.4031 -0.327 0.266 0.907 207 208 207 0
53.2442 56.4242 -42.5317 -0.327 0.266 0.907 206 208 207 0
52.7844 56.8378 -42.6042 -0.232 0.346 0.909 205 207 204 0
52.4037 56.9730 -42.8751 -0.189 0.374 0.908 204 206 203 0
52.1636 57.1115 -42.9919 -0.179 0.388 0.904 205 207 204 0
51.9241 57.2507 -43.1072 -0.171 0.353 0.920 205 207 204 0
51.6801 57.3906 -43.2266 -0.177 0.358 0.917 206 206 205 0
51.4413 57.5314 -43.3396 -0.183 0.343 0.922 207 207 206 0
51.2164 57.6730 -43.4368 -0.183 0.343 0.922 207 207 205 0
50.9774 57.8153 -43.5485 -0.181 0.344 0.921 207 208 203 0
51.0187 57.9584 -43.3586 -0.150 0.434 0.888 207 208 202 0
50.6388 58.1018 -43.6203 -0.189 0.416 0.889 207 208 203 0
50.3434 58.2462 -43.7903 -0.179 0.439 0.880 206 206 204 0
50.1082 58.3913 -43.8951 -0.185 0.433 0.882 206 206 203 0
49.7509 58.5381 -44.1290 -0.199 0.412 0.889 206 206 203 0
49.4947 58.6851 -44.2544 -0.199 0.412 0.889 205 204 203 0
49.2442 58.8329 -44.3729 -0.199 0.407 0.891 204 204 204 0
48.9777 58.9817 -44.5074 -0.199 0.412 0.889 204 204 204 0
48.7051 59.1314 -44.6475 -0.219 0.356 0.909 204 204 204 0
48.4506 59.2817 -44.7677 -0.219 0.356 0.909 203 204 203 0
48.1947 59.4328 -44.8886 -0.219 0.356 0.909 203 203 203 0
47.9447 59.5846 -45.0024 -0.220 0.353 0.909 203 203 203 0
47.6812 59.7375 -45.1296 -0.218 0.363 0.906 204 202 203 0
47.4096 59.8914 -45.2643 -0.220 0.359 0.907 203 201 202 0
47.1535 60.0458 -45.3821 -0.207 0.348 0.914 203 201 202 0
46.8912 60.2011 -45.5055 -0.204 0.353 0.913 203 201 202 0
46.6181 60.3576 -45.6392 -0.210 0.306 0.929 202 200 201 0
46.6381 60.5047 -45.4681 0.043 0.624 0.780 201 201 201 0
46.3783 60.6618 -45.5870 0.040 0.620 0.784 201 202 201 0
46.0715 60.8216 -45.7536 0.040 0.647 0.762 199 201 200 0
45.7959 60.9811 -45.8870 0.035 0.657 0.753 200 202 201 0
45.5328 61.1410 -46.0067 0.034 0.657 0.753 200 202 201 0
45.2292 61.4525 -46.0154 -0.016 0.651 0.759 200 202 201 0
44.6619 61.6294 -46.4442 -0.099 0.559 0.823 199 201 200 0
44.2248 61.8016 -46.7380 -0.196 0.432 0.880 198 200 199 0
43.9359 61.9674 -46.8794 -0.199 0.461 0.865 198 200 199 0
43.6238 62.1353 -47.0433 -0.221 0.423 0.879 198 200 199 0
43.3208 62.3037 -47.1971 -0.223 0.417 0.881 197 199 198 0
43.1306 62.4664 -47.2357 -0.251 0.304 0.919 196 198 197 0
42.7943 62.6386 -47.4213 -0.249 0.272 0.930 196 198 197 0
42.4836 62.8102 -47.5801 -0.264 0.283 0.922 195 197 196 0
42.2269 62.9793 -47.6835 -0.280 0.330 0.901 195 197 196 0
41.9011 63.1538 -47.8555 -0.279 0.332 0.901 194 196 195 0
41.5944 63.3280 -48.0074 -0.283 0.307 0.908 194 196 195 0
41.2957 63.5025 -48.1502 -0.283 0.311 0.907 193 196 195 0
40.9751 63.6797 -48.3140 -0.285 0.318 0.904 192 196 195 0
40.6605 63.8573 -48.4708 -0.285 0.315 0.905 192 196 195 0
40.3240 64.0377 -48.6484 -0.288 0.245 0.926 191 195 194 0
40.0307 64.2157 -48.7820 -0.287 0.312 0.906 191 195 194 0
39.7578 64.3929 -48.8945 -0.251 0.302 0.920 192 195 194 0
39.2021 64.9063 -48.9683 0.056 0.716 0.696 191 194 193 0
39.0421 65.0761 -48.9672 0.135 0.783 0.608 191 194 193 0
38.7716 65.2564 -49.0739 0.135 0.770 0.624 191 194 193 0
38.4465 65.4425 -49.2334 0.135 0.770 0.624 190 193 192 0
37.8968 65.6511 -49.6110 0.031 0.702 0.712 190 193 193 0
37.4022 65.8562 -49.9331 -0.023 0.581 0.813 190 192 194 0
37.0893 66.0449 -50.0769 -0.023 0.581 0.813 189 191 196 0
36.7999 66.2322 -50.1968 -0.012 0.602 0.799 189 192 195 0
36.4176 66.4299 -50.4059 -0.023 0.590 0.807 188 191 193 0
35.9851 66.6341 -50.6622 -0.192 0.397 0.898 187 190 190 0
35.6311 66.8313 -50.8414 -0.191 0.397 0.898 187 190 189 0
35.1360 67.2053 -50.9921 -0.014 0.618 0.786 187 191 188 0
34.7841 67.4051 -51.1663 -0.020 0.593 0.805 187 190 189 0
34.4743 67.6012 -51.2992 -0.018 0.624 0.781 188 190 190 0
35.7521 67.7710 -49.7550 0.184 0.857 0.482 189 190 193 0
34.7624 68.2076 -50.3728 0.171 0.854 0.491 188 189 193 0
30.6407 69.8753 -53.0988 0.030 0.638 0.770 182 186 189 0
30.3298 70.0831 -53.2209 0.019 0.630 0.777 182 187 189 0
29.8291 70.8154 -53.0129 0.255 0.892 0.374 179 188 186 0
29.3278 71.0542 -53.3079 0.197 0.886 0.419 181 189 187 0
28.9410 71.2776 -53.4956 0.218 0.891 0.397 182 188 186 0
25.1727 73.0449 -55.7409 0.013 0.755 0.655 178 182 185 0
24.5855 73.3122 -56.0990 -0.022 0.721 0.693 178 182 185 0
24.2685 73.5367 -56.2108 0.088 0.790 0.607 178 182 185 0
23.7733 73.7918 -56.4825 0.095 0.792 0.603 178 181 185 0
23.2961 74.0454 -56.7366 0.093 0.793 0.602 177 181 184 0
22.8009 74.3035 -57.0053 0.088 0.790 0.606 177 181 184 0
23.1753 74.4130 -56.4921 0.295 0.843 0.450 177 181 184 0
22.7564 74.6592 -56.6910 0.306 0.833 0.460 176 180 183 0
21.7939 75.0026 -57.3745 -0.019 0.604 0.797 175 180 183 0
21.4239 75.2436 -57.5263 -0.028 0.569 0.822 174 179 182 0
20.2548 75.6294 -58.3882 0.093 0.795 0.599 174 179 182 0
19.7365 75.9009 -58.6681 0.093 0.795 0.599 174 179 182 0
19.2358 76.1707 -58.9308 0.084 0.796 0.600 174 179 181 0
18.6172 76.4639 -59.2963 0.058 0.786 0.616 174 180 180 0
18.1646 76.7280 -59.5132 0.079 0.792 0.605 173 178 178 0
17.5269 77.0283 -59.8919 0.074 0.781 0.620 172 176 176 0
16.9843 77.3126 -60.1850 0.080 0.779 0.622 172 176 176 0
16.4147 77.6036 -60.5001 0.079 0.772 0.630 171 175 176 0
17.7791 77.5205 -59.1203 0.185 0.801 0.569 172 176 176 0
17.3652 77.7810 -59.2993 0.191 0.801 0.568 172 175 175 0
18.5279 77.7307 -58.1027 0.180 0.838 0.515 173 174 175 0
18.0034 78.0129 -58.3784 0.180 0.838 0.515 172 174 175 0
17.4991 78.2925 -58.6350 0.212 0.846 0.489 170 174 174 0
16.9813 78.5764 -58.9017 0.212 0.846 0.489 170 176 175 0
16.4590 78.8628 -59.1708 0.212 0.846 0.489 169 176 175 0
15.9322 79.1516 -59.4422 0.212 0.846 0.489 170 176 175 0
15.4008 79.4429 -59.7159 0.212 0.846 0.489 170 174 173 0
14.8311 79.7439 -60.0210 0.213 0.843 0.494 170 174 173 0
14.3704 80.0235 -60.2309 0.177 0.837 0.518 169 173 172 0
12.4593 80.6145 -61.6803 0.178 0.788 0.589 169 173 172 0
11.9561 80.9084 -61.9213 0.178 0.788 0.589 168 172 171 0
11.4488 81.2046 -62.1641 0.178 0.788 0.589 167 171 170 0
10.9376 81.5032 -62.4089 0.178 0.788 0.589 167 171 171 0
10.4222 81.8042 -62.6556 0.178 0.788 0.589 166 170 169 0
9.9028 82.1075 -62.9043 0.178 0.788 0.589 164 169 166 0
9.4049 82.4076 -63.1333 0.184 0.787 0.588 164 169 166 0
8.6374 82.7700 -63.5882 0.060 0.672 0.738 166 171 167 0
1.0184 118.9897 -34.8973 0.907 -0.223 -0.357 255 254 254 0
81.6227 40.5896 -28.3915 0.394 -0.918 0.050 254 254 254 0
82.7753 41.2446 -26.4814 0.327 -0.935 0.137 130 130 130 0
80.5269 40.5327 -29.6306 -0.298 0.268 0.916 232 226 225 0
80.6164 40.6887 -29.3750 -0.316 0.223 0.922 234 226 224 0
80.5026 40.7513 -29.4339 -0.316 0.206 0.926 234 226 225 0
80.3930 40.8162 -29.4858 -0.316 0.206 0.926 235 226 227 0
80.2830 40.8814 -29.5378 -0.316 0.206 0.926 235 227 228 0
80.1726 40.9468 -29.5901 -0.316 0.206 0.926 235 228 228 0
80.0619 41.0124 -29.6425 -0.317 0.209 0.925 233 227 227 0
79.9511 41.0785 -29.6945 -0.316 0.209 0.925 232 226 226 0
79.8432 41.1463 -29.7416 -0.313 0.232 0.921 232 226 226 0
79.7303 41.2122 -29.7961 -0.312 0.233 0.921 234 227 227 0
79.6177 41.2787 -29.8497 -0.311 0.234 0.921 233 227 227 0
79.5023 41.3445 -29.9069 -0.312 0.234 0.921 233 227 227 0
79.3911 41.4125 -29.9574 -0.311 0.236 0.921 233 227 227 0
79.2716 41.4773 -30.0201 -0.313 0.235 0.920 233 227 227 0
79.1569 41.5447 -30.0750 -0.312 0.235 0.921 234 228 228 0
79.0368 41.6102 -30.1377 -0.308 0.226 0.924 234 228 228 0
78.9213 41.6782 -30.1928 -0.308 0.226 0.924 233 229 228 0
78.8038 41.7457 -30.2506 -0.308 0.227 0.924 232 229 228 0
78.6715 41.8076 -30.3301 -0.326 0.202 0.923 230 228 226 0
78.5675 41.8815 -30.3668 -0.308 0.228 0.924 230 229 227 0
78.4548 41.9523 -30.4160 -0.305 0.234 0.923 229 229 227 0
78.3185 42.0140 -30.5000 -0.324 0.202 0.924 230 229 227 0
78.2028 42.0845 -30.5528 -0.317 0.199 0.927 231 228 227 0
78.0814 42.1531 -30.6137 -0.324 0.202 0.924 232 227 227 0
77.9615 42.2228 -30.6718 -0.324 0.200 0.925 232 226 226 0
77.8421 42.2932 -30.7288 -0.324 0.200 0.925 232 227 226 0
77.7236 42.3643 -30.7840 -0.323 0.202 0.924 231 229 227 0
77.6074 42.4367 -30.8353 -0.315 0.220 0.923 229 228 226 0
77.4862 42.5077 -30.8936 -0.315 0.220 0.923 230 228 225 0
77.3595 42.5770 -30.9593 -0.316 0.218 0.923 232 228 225 0
77.2374 42.6486 -31.0180 -0.316 0.218 0.923 232 228 225 0
77.1148 42.7204 -31.0769 -0.316 0.218 0.923 231 228 225 0
76.9912 42.7923 -31.1367 -0.312 0.209 0.927 229 228 224 0
76.8671 42.8645 -31.1969 -0.312 0.205 0.928 229 228 223 0
76.7446 42.9376 -31.2543 -0.312 0.205 0.928 229 228 225 0
76.6219 43.0112 -31.3115 -0.312 0.201 0.928 231 229 227 0
76.4981 43.0849 -31.3699 -0.312 0.205 0.928 233 229 230 0
76.3803 43.1611 -31.4190 -0.307 0.213 0.928 233 229 230 0
76.2560 43.2354 -31.4773 -0.307 0.213 0.928 233 229 230 0
76.1287 43.3092 -31.5392 -0.307 0.213 0.927 233 229 230 0
76.0056 43.3848 -31.5947 -0.314 0.226 0.922 233 229 230 0
75.8778 43.4593 -31.6564 -0.314 0.226 0.922 233 229 230 0
75.7496 43.5342 -31.7184 -0.314 0.226 0.922 233 229 230 0
75.6208 43.6093 -31.7806 -0.314 0.226 0.922 233 228 231 0
75.4915 43.6847 -31.8430 -0.314 0.226 0.922 233 229 230 0
75.3537 43.7577 -31.9170 -0.316 0.197 0.928 233 229 230 0
75.2271 43.8350 -31.9747 -0.316 0.198 0.928 233 229 229 0
75.0988 43.9122 -32.0342 -0.316 0.196 0.928 232 228 227 0
74.9761 43.9916 -32.0855 -0.307 0.207 0.929 232 227 227 0
74.8372 44.0663 -32.1590 -0.319 0.198 0.927 232 228 227 0
74.7152 44.1468 -32.2084 -0.309 0.206 0.928 232 228 227 0
74.5891 44.2265 -32.2630 -0.308 0.212 0.928 233 227 227 0
74.4561 44.3045 -32.3268 -0.305 0.213 0.928 232 227 227 0
74.3125 44.3796 -32.4049 -0.320 0.200 0.926 232 228 227 0
74.1793 44.4585 -32.4680 -0.320 0.200 0.926 232 228 227 0
74.0456 44.5378 -32.5313 -0.320 0.200 0.926 231 228 227 0
73.9113 44.6173 -32.5949 -0.320 0.200 0.926 230 229 227 0
73.8658 44.7238 -32.5354 -0.216 0.360 0.908 230 229 227 0
73.7309 44.8038 -32.5991 -0.216 0.360 0.908 230 229 227 0
73.5954 44.8842 -32.6632 -0.216 0.360 0.908 232 229 227 0
73.4594 44.9649 -32.7275 -0.216 0.360 0.908 235 229 229 0
73.3245 45.0465 -32.7897 -0.214 0.361 0.908 235 228 229 0
73.1875 45.1278 -32.8544 -0.214 0.361 0.908 235 228 229 0
73.0475 45.2089 -32.9226 -0.216 0.357 0.909 235 228 228 0
72.9069 45.2903 -32.9911 -0.217 0.349 0.912 235 228 228 0
72.7690 45.3729 -33.0555 -0.217 0.349 0.912 235 228 228 0
72.6313 45.4560 -33.1191 -0.220 0.351 0.910 235 228 228 0
72.4917 45.5392 -33.1848 -0.220 0.351 0.910 235 228 228 0
72.3546 45.6235 -33.2466 -0.219 0.351 0.911 234 228 228 0
72.2135 45.7072 -33.3133 -0.217 0.359 0.908 233 229 228 0
72.0738 45.7918 -33.3775 -0.217 0.365 0.905 231 230 228 0
71.9295 45.8756 -33.4476 -0.217 0.355 0.909 232 230 229 0
71.7869 45.9604 -33.5148 -0.217 0.355 0.909 232 229 229 0
71.6439 46.0457 -33.5820 -0.221 0.357 0.908 233 230 230 0
71.4995 46.1311 -33.6504 -0.222 0.357 0.907 233 230 230 0
71.3539 46.2166 -33.7201 -0.226 0.355 0.907 233 230 230 0
71.2077 46.3026 -33.7901 -0.226 0.355 0.907 232 229 229 0
71.0608 46.3889 -33.8604 -0.226 0.355 0.907 232 230 229 0
70.9168 46.4764 -33.9264 -0.224 0.351 0.909 233 229 228 0
70.7695 46.5636 -33.9962 -0.224 0.351 0.909 232 228 227 0
70.6215 46.6511 -34.0664 -0.224 0.351 0.909 233 227 227 0
70.4729 46.7391 -34.1368 -0.224 0.351 0.909 233 227 227 0
70.3267 46.8281 -34.2036 -0.222 0.353 0.909 231 226 226 0
70.1768 46.9168 -34.2748 -0.222 0.353 0.909 233 226 226 0
70.0328 47.0073 -34.3376 -0.220 0.355 0.909 233 227 225 0
69.8781 47.0959 -34.4139 -0.228 0.343 0.911 234 228 225 0
69.7266 47.1858 -34.4855 -0.228 0.343 0.911 234 228 226 0
69.5745 47.2761 -34.5575 -0.228 0.343 0.911 235 229 226 0
69.4217 47.3667 -34.6297 -0.228 0.343 0.911 235 229 226 0
69.2682 47.4577 -34.7022 -0.228 0.343 0.911 234 228 226 0
69.1145 47.5492 -34.7747 -0.226 0.353 0.908 233 228 225 0
68.9697 47.6432 -34.8348 -0.213 0.362 0.907 233 227 227 0
68.8145 47.7354 -34.9081 -0.213 0.362 0.907 233 227 227 0
68.6586 47.8280 -34.9817 -0.213 0.362 0.907 233 228 225 0
68.5020 47.9211 -35.0556 -0.213 0.362 0.907 234 228 225 0
68.3436 48.0143 -35.1311 -0.213 0.359 0.909 234 228 225 0
68.1830 48.1076 -35.2091 -0.213 0.355 0.910 234 228 225 0
68.0251 48.2020 -35.2830 -0.213 0.355 0.910 233 228 225 0
67.8509 48.2938 -35.3771 -0.230 0.343 0.911 233 228 225 0
67.6941 48.3896 -35.4484 -0.229 0.343 0.911 233 228 225 0
67.5356 48.4855 -35.5215 -0.228 0.345 0.911 234 227 227 0
67.3735 48.5814 -35.5984 -0.228 0.345 0.911 234 227 227 0
67.2074 48.6770 -35.6798 -0.227 0.343 0.911 233 227 227 0
67.0446 48.7738 -35.7566 -0.229 0.343 0.911 231 228 226 0
66.8770 48.8704 -35.8388 -0.232 0.340 0.911 229 228 226 0
66.7119 48.9679 -35.9173 -0.232 0.340 0.911 229 228 226 0
66.5465 49.0660 -35.9955 -0.229 0.341 0.912 229 228 226 0
66.3833 49.1650 -36.0704 -0.229 0.345 0.910 228 227 224 0
66.2135 49.2634 -36.1530 -0.229 0.341 0.912 228 227 223 0
66.0460 49.3628 -36.2322 -0.229 0.341 0.912 229 227 223 0
65.8796 49.4629 -36.3094 -0.229 0.343 0.911 230 228 224 0
65.7156 49.5640 -36.3830 -0.228 0.347 0.910 230 228 224 0
65.5436 49.6644 -36.4661 -0.229 0.344 0.911 230 228 224 0
65.3662 49.7645 -36.5551 -0.229 0.348 0.909 230 226 225 0
65.1938 49.8660 -36.6374 -0.229 0.348 0.909 230 225 225 0
65.0206 49.9680 -36.7201 -0.229 0.345 0.910 230 224 222 0
64.8306 50.0681 -36.8229 -0.233 0.343 0.910 229 223 220 0
64.6556 50.1710 -36.9064 -0.233 0.343 0.910 229 223 220 0
64.4712 50.2731 -37.0011 -0.234 0.341 0.910 228 223 220 0
64.2930 50.3768 -37.0873 -0.231 0.343 0.911 227 222 219 0
64.1158 50.4812 -37.1718 -0.232 0.340 0.911 227 222 219 0
63.9414 50.5866 -37.2523 -0.231 0.345 0.910 227 222 219 0
63.7555 50.6910 -37.3462 -0.232 0.343 0.910 228 221 220 0
63.5772 50.7971 -37.4301 -0.233 0.343 0.910 227 221 221 0
63.4010 50.9040 -37.5110 -0.232 0.345 0.910 226 220 220 0
63.2195 51.0109 -37.5977 -0.232 0.345 0.910 227 220 220 0
63.0374 51.1183 -37.6844 -0.231 0.344 0.910 226 220 220 0
62.8576 51.2266 -37.7677 -0.233 0.344 0.910 224 220 219 0
62.6733 51.3349 -37.8559 -0.233 0.344 0.910 223 221 219 0
62.4904 51.4440 -37.9418 -0.230 0.346 0.910 222 221 219 0
62.3145 51.5545 -38.0186 -0.226 0.368 0.902 222 221 219 0
62.1252 51.6641 -38.1109 -0.226 0.368 0.902 222 221 219 0
61.9349 51.7742 -38.2036 -0.226 0.368 0.902 222 221 219 0
61.7438 51.8849 -38.2968 -0.226 0.368 0.902 221 220 218 0
61.5500 51.9959 -38.3924 -0.226 0.365 0.903 221 220 218 0
61.3495 52.1069 -38.4953 -0.226 0.344 0.911 221 220 218 0
61.1616 52.2198 -38.5826 -0.225 0.343 0.912 221 220 218 0
60.9656 52.3326 -38.6789 -0.225 0.343 0.912 221 220 218 0
60.7677 52.4458 -38.7767 -0.224 0.342 0.913 221 220 218 0
60.5759 52.5603 -38.8667 -0.224 0.342 0.913 221 220 218 0
60.3812 52.6751 -38.9594 -0.223 0.345 0.912 221 220 218 0
60.1631 52.7885 -39.0789 -0.236 0.336 0.912 220 219 216 0
59.9776 52.9054 -39.1595 -0.226 0.354 0.908 218 217 213 0
59.7636 53.0206 -39.2727 -0.229 0.340 0.912 218 217 212 0
59.5694 53.1381 -39.3622 -0.225 0.346 0.911 217 218 212 0
59.3484 53.2541 -39.4820 -0.232 0.339 0.912 216 217 211 0
59.1463 53.3723 -39.5794 -0.233 0.333 0.914 216 217 211 0
58.9440 53.4912 -39.6761 -0.233 0.335 0.913 216 217 212 0
58.7348 53.6102 -39.7801 -0.233 0.335 0.913 216 217 213 0
58.5323 53.7304 -39.8759 -0.233 0.335 0.913 216 216 214 0
58.3310 53.8513 -39.9695 -0.233 0.340 0.911 216 216 215 0
57.9679 53.9622 -40.2478 -0.335 0.188 0.924 216 216 216 0
57.7591 54.0843 -40.3483 -0.335 0.188 0.924 216 216 215 0
57.5462 54.2069 -40.4527 -0.336 0.188 0.923 215 214 212 0
57.3227 54.3295 -40.5685 -0.334 0.187 0.924 214 213 211 0
57.1109 54.4535 -40.6703 -0.334 0.187 0.924 213 212 210 0
56.8932 54.5779 -40.7781 -0.335 0.184 0.924 213 212 210 0
56.6820 54.7034 -40.8778 -0.331 0.193 0.924 213 211 211 0
56.4668 54.8294 -40.9812 -0.331 0.193 0.924 214 212 212 0
56.2600 54.9564 -41.0744 -0.330 0.195 0.924 213 211 212 0
56.0312 55.0831 -41.1918 -0.330 0.192 0.924 213 211 212 0
55.8134 55.2111 -41.2961 -0.331 0.192 0.924 211 209 210 0
55.5940 55.3397 -41.4014 -0.330 0.192 0.924 210 208 209 0
55.3637 55.4685 -41.5182 -0.331 0.200 0.922 210 208 209 0
55.1309 55.5981 -41.6370 -0.329 0.190 0.925 210 208 209 0
54.9093 55.7287 -41.7426 -0.329 0.190 0.925 209 208 209 0
54.6699 55.8596 -41.8672 -0.330 0.182 0.926 208 208 209 0
54.4469 55.9917 -41.9728 -0.330 0.182 0.926 209 210 210 0
54.2210 56.1244 -42.0809 -0.330 0.184 0.926 209 210 210 0
53.9932 56.2578 -42.1904 -0.331 0.208 0.920 207 209 208 0
53.7607 56.3919 -42.3042 -0.331 0.208 0.920 206 208 207 0
53.5299 56.5267 -42.4154 -0.329 0.214 0.920 207 209 208 0
53.4418 56.6652 -42.3691 -0.232 0.345 0.909 206 208 207 0
53.2104 56.8012 -42.4798 -0.232 0.345 0.909 206 208 207 0
52.9757 56.9379 -42.5934 -0.232 0.346 0.909 206 208 205 0
52.7309 57.0752 -42.7172 -0.234 0.341 0.910 205 207 204 0
52.4976 57.2134 -42.8277 -0.235 0.334 0.913 205 207 204 0
52.2670 57.3524 -42.9344 -0.239 0.333 0.912 205 207 204 0
52.1069 57.4927 -42.9640 -0.201 0.390 0.898 206 207 206 0
51.8734 57.6330 -43.0726 -0.209 0.384 0.899 206 206 205 0
51.6513 57.7741 -43.1680 -0.204 0.384 0.901 206 206 204 0
51.4106 57.9158 -43.2828 -0.204 0.384 0.901 207 208 203 0
51.1686 58.0583 -43.3984 -0.204 0.384 0.901 207 208 202 0
50.9253 58.2016 -43.5145 -0.204 0.384 0.901 206 207 202 0
50.6761 58.3457 -43.6360 -0.203 0.389 0.899 205 205 203 0
50.4246 58.4906 -43.7593 -0.202 0.385 0.901 206 205 202 0
50.1776 58.6363 -43.8769 -0.202 0.385 0.901 206 205 202 0
49.9168 58.7829 -44.0085 -0.202 0.393 0.897 205 204 203 0
49.6691 58.9301 -44.1253 -0.201 0.390 0.899 205 203 204 0
49.4044 59.0785 -44.2594 -0.201 0.383 0.902 205 203 204 0
49.1527 59.2274 -44.3787 -0.201 0.383 0.902 204 202 203 0
48.8928 59.3773 -44.5060 -0.202 0.391 0.898 203 203 203 0
48.6309 59.5280 -44.6345 -0.200 0.389 0.899 203 203 203 0
48.3776 59.6794 -44.7531 -0.195 0.392 0.899 204 202 203 0
48.1116 59.8319 -44.8842 -0.199 0.381 0.903 204 202 203 0
47.6835 59.9899 -45.1845 -0.297 0.255 0.920 203 201 202 0
47.4182 60.1444 -45.3128 -0.297 0.255 0.920 203 201 202 0
47.3406 60.2937 -45.2443 -0.195 0.388 0.901 202 200 201 0
47.0759 60.4494 -45.3707 -0.195 0.392 0.899 202 200 201 0
46.8115 60.6060 -45.4960 -0.194 0.393 0.899 201 201 201 0
46.5539 60.7632 -45.6134 -0.194 0.398 0.897 201 202 201 0
46.2735 60.9221 -45.7535 -0.199 0.382 0.902 199 201 200 0
46.0142 61.0809 -45.8710 -0.194 0.398 0.897 199 201 200 0
45.7420 61.2412 -46.0009 -0.194 0.398 0.897 200 202 201 0
45.4744 61.4021 -46.1253 -0.196 0.398 0.896 199 201 200 0
45.1874 61.5647 -46.2687 -0.202 0.389 0.899 199 201 200 0
44.9097 61.7278 -46.4017 -0.202 0.389 0.899 199 201 200 0
44.6303 61.8919 -46.5354 -0.202 0.389 0.899 198 200 199 0
44.3493 62.0569 -46.6700 -0.202 0.389 0.899 198 200 199 0
44.0467 62.2240 -46.8257 -0.201 0.389 0.899 199 201 200 0
43.7625 62.3910 -46.9617 -0.201 0.389 0.899 196 198 197 0
43.3753 62.5651 -47.2014 -0.251 0.304 0.919 195 197 196 0
43.1711 62.7290 -47.2543 -0.196 0.392 0.899 195 197 196 0
42.8706 62.8997 -47.4041 -0.201 0.395 0.896 197 199 198 0
42.5500 63.0728 -47.5731 -0.200 0.393 0.897 198 200 199 0
42.2523 63.2452 -47.7181 -0.198 0.392 0.898 195 197 196 0
41.9581 63.4184 -47.8587 -0.198 0.392 0.898 194 196 195 0
41.6553 63.5930 -48.0068 -0.196 0.395 0.898 193 195 194 0
41.3522 63.7687 -48.1544 -0.198 0.391 0.899 192 195 194 0
41.0580 63.9445 -48.2921 -0.196 0.395 0.898 192 196 195 0
40.6196 64.1327 -48.5726 -0.255 0.302 0.919 192 195 194 0
