ply
format ascii 1.0
element vertex 820
property float x
property float y
property float z
property float nx
property float ny
property float nz
property uchar diffuse_red
property uchar diffuse_green
property uchar diffuse_blue
property uchar class
end_header
-10.7837 27.5944 -43.4087 -0.143 -0.009 0.990 83 20 31 0
-9.4745 26.1104 -43.6616 0.455 -0.851 0.263 80 25 31 0
-7.8974 27.0197 -44.8303 -0.535 -0.767 -0.354 73 28 32 0
-8.1661 25.7724 -44.2813 0.174 -0.943 -0.283 73 29 34 0
-6.5911 27.6890 -45.7715 0.506 -0.829 0.237 74 32 41 0
-6.0508 28.5258 -46.3402 0.421 -0.889 -0.178 73 33 41 0
-4.7885 30.6263 -47.7154 -0.611 -0.767 -0.194 72 40 44 0
-4.6359 30.4609 -47.7473 -0.560 -0.798 -0.223 72 40 43 0
-1.8126 34.6651 -50.6649 0.447 -0.870 -0.208 80 60 58 0
5.1808 43.7213 -57.4569 0.004 -0.139 0.990 153 142 122 0
5.5364 43.9500 -57.7280 0.049 -0.105 0.993 152 142 119 0
5.5082 43.3111 -57.5077 0.633 -0.468 0.617 155 145 120 0
5.6194 42.9899 -57.4666 0.256 -0.462 0.849 156 145 120 0
7.8770 45.7104 -59.5942 0.660 -0.466 0.589 150 141 112 0
8.0034 44.8453 -59.3874 0.361 -0.293 0.885 147 137 108 0
21.8081 40.5338 -65.6864 0.780 -0.543 0.310 191 184 174 0
22.8962 41.4136 -66.5736 0.712 -0.610 0.348 191 184 173 0
28.5701 19.2573 -62.6321 -0.972 -0.236 -0.008 50 50 51 0
-32.4394 61.5211 -42.5318 -0.884 -0.460 -0.086 229 224 218 0
-29.9472 55.3196 -41.9202 -0.217 -0.260 0.941 222 209 208 0
-29.8169 54.5559 -41.7464 -0.191 -0.230 0.954 221 207 205 0
-29.3785 54.5308 -41.9826 -0.090 -0.557 0.825 216 204 200 0
-29.1377 54.6884 -42.1676 0.131 -0.509 0.851 217 203 199 0
-27.6959 53.8386 -42.6969 -0.988 -0.043 -0.148 207 186 181 0
-27.1918 36.4525 -37.3694 -0.889 -0.449 -0.092 144 68 79 0
-24.5033 31.1210 -37.1477 -0.389 -0.914 -0.118 132 44 60 0
-24.2892 29.3812 -36.7058 -0.488 -0.681 0.546 130 39 56 0
-22.9516 29.4560 -37.4753 -0.681 -0.610 -0.405 128 40 52 0
-22.7999 29.2830 -37.5040 -0.654 -0.636 -0.410 124 36 48 0
-21.8944 26.6545 -37.1607 -0.518 -0.850 0.095 120 32 48 0
-21.7347 26.5399 -37.2127 -0.529 -0.840 0.122 117 29 46 0
-20.7084 26.1395 -37.6555 -0.862 -0.290 0.416 109 28 42 0
-19.1005 27.2259 -38.9020 0.124 -0.940 -0.317 107 25 37 0
-19.5508 24.8098 -37.8716 -0.290 -0.940 -0.178 107 25 37 0
-18.4031 25.5620 -38.7538 -0.631 -0.746 0.212 105 23 36 0
-18.2721 25.3485 -38.7580 -0.836 -0.531 -0.138 103 23 36 0
-18.1311 25.1725 -38.7798 -0.726 -0.530 0.438 102 23 36 0
-18.0466 24.7974 -38.7058 -0.692 -0.559 0.457 101 23 36 0
-17.9391 24.5080 -38.6724 -0.406 -0.680 0.611 102 24 37 0
-17.8188 24.2662 -38.6614 0.032 -0.992 0.118 109 32 45 0
-17.6262 24.2781 -38.7726 0.197 -0.974 0.110 103 25 38 0
-17.4794 24.1311 -38.8070 -0.338 -0.796 0.503 94 20 32 0
-16.9786 23.8998 -39.0114 -0.313 -0.667 0.677 92 20 33 0
-17.0085 23.1624 -38.7569 -0.245 -0.676 0.695 91 19 33 0
-16.7121 23.5215 -39.0379 -0.225 -0.718 0.658 92 20 34 0
-16.4639 23.7156 -39.2389 -0.497 -0.713 0.494 92 20 34 0
-10.9826 27.2502 -43.4336 -0.144 -0.010 0.990 83 20 30 0
-10.7730 26.6845 -43.3679 0.572 -0.074 0.817 80 18 29 0
-9.8376 25.8876 -43.6320 0.486 -0.874 -0.013 80 24 30 0
-7.2898 27.1752 -45.4672 0.753 -0.583 0.305 72 30 35 0
-7.0268 27.3128 -45.6581 0.673 -0.737 0.063 72 31 38 0
-6.7151 27.5729 -45.9157 0.520 -0.824 0.226 72 32 40 0
-6.2529 28.2128 -46.3797 0.475 -0.880 0.007 73 33 41 0
-4.4833 32.1583 -48.6386 -0.740 -0.650 0.174 74 38 44 0
-4.6043 31.2945 -48.2925 -0.756 -0.655 0.004 73 40 45 0
-2.2055 35.0332 -50.8353 -0.040 -0.981 -0.191 76 53 53 0
-1.9514 35.0929 -50.9961 0.304 -0.940 -0.158 80 59 58 0
-1.3614 35.4064 -51.4261 -0.662 -0.319 0.678 86 70 66 0
-1.2755 35.0546 -51.3605 -0.695 -0.340 0.634 102 89 82 0
4.8083 43.0791 -57.3393 -0.005 -0.191 0.982 158 150 133 0
5.0270 43.0009 -57.4359 0.011 -0.215 0.977 160 150 131 0
5.2010 42.8216 -57.4751 0.640 -0.475 0.603 161 153 131 0
5.7419 42.8968 -57.8007 0.611 -0.480 0.630 169 158 136 0
6.1518 43.2424 -58.1406 0.478 -0.531 0.700 168 158 134 0
6.0274 42.4021 -57.8002 -0.285 -0.664 0.691 169 159 135 0
6.0826 41.9647 -57.6899 -0.323 -0.556 0.766 169 159 134 0
6.0291 41.2927 -57.4433 -0.078 -0.778 0.623 167 158 131 0
6.0463 40.7805 -57.2877 -0.217 -0.516 0.828 167 159 132 0
5.3493 38.7244 -56.2360 -0.587 -0.258 0.767 166 159 130 0
22.5911 41.0510 -66.5946 0.715 -0.609 0.343 185 181 170 0
21.9041 39.0182 -65.5561 -0.630 -0.739 0.237 187 182 172 0
18.0797 23.7489 -58.4993 0.844 -0.291 0.451 185 173 168 0
12.7198 13.1614 -52.0971 0.856 -0.434 0.282 183 170 164 0
20.8406 13.9901 -56.8898 0.738 -0.673 -0.042 173 160 151 0
26.6513 19.1662 -61.7976 -0.243 -0.372 0.896 170 156 145 0
28.6156 19.0777 -62.8636 -0.972 -0.236 -0.008 246 247 244 0
-68.4081 64.8624 -23.8435 -0.247 -0.877 -0.412 255 255 255 0
-30.7631 54.8949 -41.6181 0.620 -0.784 0.037 224 215 210 0
-30.5219 55.0818 -41.8135 0.601 -0.727 0.332 223 213 209 0
-29.5347 54.1092 -42.0485 0.273 -0.753 0.599 215 204 199 0
-29.3161 54.0949 -42.1659 0.273 -0.753 0.599 216 204 198 0
-28.8740 54.0983 -42.4138 -0.845 -0.448 -0.291 212 198 191 0
-27.2348 36.7332 -37.6885 -0.882 -0.464 -0.075 146 70 82 0
-22.9795 29.7068 -37.7814 -0.629 -0.629 -0.456 125 37 50 0
-22.8361 29.4931 -37.7920 -0.751 -0.608 -0.257 121 32 47 0
-22.6139 29.6363 -37.9626 -0.668 -0.682 -0.297 122 32 48 0
-20.2123 27.6821 -38.6683 -0.950 -0.256 0.180 109 26 42 0
-19.6431 25.4678 -38.2668 0.073 -0.910 0.407 109 27 40 0
-18.7393 26.0141 -38.9487 0.503 -0.775 -0.384 104 22 36 0
-18.0332 24.4500 -38.8348 -0.313 -0.938 -0.152 102 24 37 0
-16.8192 24.7010 -39.5940 0.321 -0.806 0.498 91 21 32 0
-16.6580 24.5992 -39.6509 0.402 -0.893 0.202 91 20 32 0
-16.4708 23.9477 -39.5438 -0.108 -0.764 0.636 91 20 34 0
-11.6702 27.8559 -43.4927 0.553 -0.683 -0.478 85 19 29 0
-8.8673 31.1246 -46.1189 -0.218 -0.877 -0.428 79 21 30 0
-7.1092 27.3028 -45.8589 0.610 -0.756 0.238 71 32 39 0
-4.1977 32.5274 -49.1809 -0.536 -0.790 -0.299 73 42 46 0
-1.9940 35.7645 -51.4624 -0.264 -0.900 -0.347 78 56 56 0
-1.8417 35.5700 -51.4842 0.015 -0.938 -0.347 81 60 59 0
-1.6034 35.5870 -51.6227 -0.689 -0.324 0.648 82 63 60 0
-1.1495 35.0041 -51.6867 0.301 -0.954 0.004 123 110 104 0
4.6952 45.9788 -58.5138 0.754 -0.634 0.172 144 134 125 0
3.8130 42.1568 -56.7799 0.175 -0.259 0.950 154 147 132 0
4.1085 42.2604 -56.9785 -0.203 -0.148 0.968 157 150 136 0
4.6336 42.8861 -57.4748 0.004 -0.193 0.981 161 154 137 0
4.9770 43.0920 -57.7334 0.032 -0.314 0.949 165 157 138 0
5.2001 43.0229 -57.8355 0.612 -0.462 0.642 167 159 139 0
5.3082 42.6948 -57.7892 0.619 -0.489 0.615 170 162 142 0
5.5105 42.5802 -57.8650 0.595 -0.489 0.638 174 164 143 0
5.6286 41.1604 -57.4697 0.249 -0.752 0.611 176 168 146 0
5.5192 40.3686 -57.1515 0.325 -0.702 0.633 178 170 148 0
5.0231 38.7398 -56.3455 -0.415 -0.371 0.831 179 172 149 0
5.1972 38.5815 -56.3912 -0.411 -0.364 0.836 180 173 148 0
13.5590 44.1272 -62.8598 -0.476 -0.201 0.856 184 181 164 0
13.7042 43.8866 -62.8627 -0.470 -0.201 0.859 184 182 165 0
24.0515 37.7456 -66.6436 0.028 -0.918 -0.396 189 178 174 0
16.7380 12.6260 -54.4025 0.719 -0.230 0.656 177 164 156 0
28.7031 23.4506 -64.5968 0.796 -0.487 0.359 171 157 148 0
28.9248 22.7359 -64.4885 -0.209 -0.938 -0.276 170 156 147 0
29.2745 22.8452 -64.7192 -0.169 -0.953 -0.250 169 155 146 0
30.9147 24.2289 -66.0841 0.563 -0.736 0.375 168 154 143 0
-56.1968 44.1962 -24.1899 0.543 -0.794 0.273 231 222 217 0
-30.7834 55.6598 -42.1470 0.573 -0.814 0.093 224 216 210 0
-29.9422 53.4162 -41.8835 0.362 -0.763 0.535 216 206 200 0
-22.8107 29.9854 -38.2080 -0.619 -0.599 -0.507 120 32 48 0
-20.2718 27.7674 -38.9021 -0.950 -0.261 0.171 110 27 43 0
-19.5856 25.9880 -38.7038 0.024 -0.624 0.781 108 26 40 0
-19.5913 25.2485 -38.4587 0.519 -0.769 -0.373 107 25 37 0
-16.9787 24.4234 -39.6496 0.297 -0.803 0.517 91 22 32 0
-16.8171 24.3244 -39.7075 0.405 -0.857 0.318 91 21 32 0
-16.5607 24.5434 -39.9225 0.402 -0.891 0.212 91 21 33 0
-15.9505 25.9365 -40.7192 0.091 -0.499 0.862 91 21 32 0
-10.8182 29.3866 -44.7169 0.650 -0.692 -0.313 84 21 29 0
-9.9586 27.6941 -44.6440 -0.245 -0.836 -0.491 78 23 31 0
-7.8695 29.4064 -46.3719 0.333 -0.889 -0.316 75 27 35 0
-5.5484 33.8596 -49.1259 0.219 -0.975 -0.035 75 31 36 0
-7.6611 26.0780 -45.3999 0.626 -0.750 -0.212 72 35 42 0
-1.9460 36.0939 -51.8707 -0.470 -0.833 -0.291 82 61 63 0
-1.7595 35.9816 -51.9382 -0.471 -0.838 -0.277 84 64 63 0
-1.4611 34.4562 -51.6061 0.207 -0.849 0.487 124 114 105 0
4.0845 41.2662 -56.9337 0.505 -0.803 -0.316 165 160 142 0
6.3553 44.0984 -59.1295 0.526 -0.815 0.242 177 169 150 0
6.6760 44.2384 -59.3545 0.526 -0.815 0.242 178 170 151 0
5.5201 40.5632 -57.5064 0.202 -0.735 0.647 181 175 153 0
5.0564 38.4630 -56.5603 -0.446 -0.290 0.847 184 178 156 0
22.9335 37.4122 -66.2114 0.253 -0.852 -0.459 188 180 171 0
24.0062 37.8022 -66.9386 0.032 -0.916 -0.400 188 177 171 0
24.5220 38.1753 -67.3490 -0.767 -0.636 0.087 187 176 170 0
10.9644 8.0863 -49.9292 0.718 -0.660 0.219 178 168 159 0
11.4488 8.4684 -50.3249 0.713 -0.666 0.218 177 167 159 0
13.5563 9.6031 -51.8743 0.776 -0.241 0.583 176 166 157 0
27.4479 22.2699 -63.7832 0.770 -0.600 0.215 170 158 147 0
30.5573 23.8675 -66.0441 0.544 -0.722 0.428 169 153 143 0
-31.3182 53.7396 -41.5074 0.033 -0.932 0.360 224 218 212 0
-31.1043 53.7053 -41.6159 0.033 -0.932 0.360 223 217 209 0
-28.5000 55.1762 -43.5586 -0.878 -0.367 -0.308 211 198 191 0
-27.1251 39.7495 -39.2491 -0.951 -0.154 -0.269 151 79 89 0
-27.0897 38.7289 -38.9329 -0.556 -0.822 -0.121 148 75 86 0
-23.2472 30.1180 -38.2494 -0.846 -0.523 -0.099 125 36 53 0
-23.1057 29.8897 -38.2535 -0.839 -0.536 -0.099 124 36 52 0
-22.9394 29.7770 -38.3095 -0.731 -0.623 -0.278 122 34 50 0
-22.5633 28.0566 -37.9537 -0.877 -0.458 -0.144 116 32 47 0
-19.7807 25.5449 -38.6849 -0.271 -0.960 -0.073 108 25 39 0
-18.7001 26.0392 -39.4528 0.571 -0.792 -0.218 105 24 35 0
-17.5522 23.3761 -39.2188 -0.061 -0.783 0.619 93 25 34 0
-17.2297 23.8325 -39.5496 0.209 -0.621 0.755 93 24 34 0
-11.0037 29.0803 -44.7640 0.714 -0.700 -0.019 87 24 32 0
-8.5441 29.5211 -46.2865 -0.109 -0.918 -0.382 75 27 35 0
-8.5041 29.0518 -46.1544 -0.112 -0.838 -0.533 75 28 36 0
-3.0231 35.9255 -51.4869 -0.690 -0.598 -0.407 74 47 49 0
-2.2525 36.7017 -52.1741 0.132 -0.719 0.683 78 55 57 0
-2.0002 36.7502 -52.3313 -0.005 -0.470 0.883 83 61 63 0
-1.9688 36.2494 -52.1840 -0.671 -0.386 0.632 85 65 66 0
-1.8532 35.9609 -52.1538 -0.672 -0.403 0.622 89 71 70 0
-0.9256 33.7370 -51.9409 0.403 -0.903 0.150 143 138 124 0
0.4294 36.3825 -53.5708 0.492 -0.854 0.171 148 142 130 0
1.1965 37.0663 -54.2254 0.484 -0.856 0.181 157 150 138 0
4.9803 40.1180 -57.3492 0.163 -0.866 0.472 180 174 153 0
5.1540 39.9514 -57.3916 0.224 -0.878 0.422 183 178 156 0
4.9737 39.0102 -56.9807 -0.433 -0.671 0.602 186 181 159 0
5.1428 38.8391 -57.0191 -0.323 -0.680 0.658 187 182 161 0
4.5130 36.9367 -56.0400 -0.522 -0.339 0.783 188 182 162 0
18.2375 25.7905 -60.0556 0.248 -0.563 0.789 189 177 171 0
18.3705 25.6151 -60.0723 0.096 -0.414 0.905 189 174 169 0
17.5137 23.9498 -59.0442 0.547 -0.506 0.667 188 173 168 0
11.9290 13.8863 -52.6033 0.585 -0.247 0.772 184 171 163 0
11.3356 11.1125 -51.3577 0.836 -0.488 0.252 179 171 158 0
11.2142 8.2216 -50.3379 0.733 -0.652 0.192 178 167 161 0
14.2990 9.5106 -52.4897 0.749 -0.351 0.562 173 163 154 0
17.0388 11.9798 -54.8370 0.778 -0.397 0.486 173 163 151 0
26.2833 20.8675 -62.9402 0.779 -0.525 0.343 168 158 146 0
28.0613 22.4729 -64.4645 0.765 -0.540 0.351 168 156 144 0
29.5844 23.7322 -65.7320 0.730 -0.497 0.470 171 157 146 0
30.3508 23.6933 -66.1484 0.542 -0.730 0.416 169 153 144 0
-31.7298 54.9644 -41.9704 0.472 -0.782 -0.407 227 218 219 0
-31.6624 53.5268 -41.5317 0.549 -0.831 -0.088 226 219 216 0
-31.3911 54.0326 -41.8515 0.638 -0.768 0.058 224 219 213 0
-31.2556 53.2750 -41.6764 -0.176 -0.666 0.725 223 219 211 0
-28.5532 55.5810 -43.9566 -0.852 -0.390 -0.348 213 200 195 0
-28.2824 52.5686 -43.1099 -0.958 -0.284 0.049 205 190 185 0
-26.7095 36.7859 -38.7603 -0.996 -0.080 -0.043 143 67 79 0
-20.8087 27.7964 -39.0901 0.318 -0.945 -0.069 110 27 43 0
-20.5954 27.8869 -39.2397 0.210 -0.973 -0.096 110 27 43 0
-18.6437 25.8356 -39.6544 -0.215 -0.963 0.161 104 26 37 0
-18.4516 25.8397 -39.7636 -0.178 -0.978 0.106 101 23 35 0
-17.7588 23.5791 -39.4028 -0.511 -0.763 0.395 92 23 33 0
-11.4523 28.6050 -44.6062 0.668 -0.732 -0.132 86 24 34 0
-5.7849 33.6781 -49.4667 0.728 -0.255 0.637 74 32 39 0
-2.7803 36.1728 -51.9790 -0.294 -0.900 0.322 75 53 55 0
-2.4475 36.4277 -52.2502 0.059 -0.448 0.892 79 58 60 0
-0.6473 34.5933 -52.6518 0.643 -0.719 0.265 144 140 127 0
0.2829 36.2383 -53.7189 0.629 -0.751 0.201 149 145 133 0
0.5269 36.2566 -53.8618 0.604 -0.759 0.244 154 148 138 0
2.6860 40.1669 -56.3691 0.724 -0.637 0.263 158 154 142 0
1.9827 33.6709 -53.8213 -0.356 -0.458 0.814 180 175 156 0
3.8088 35.0718 -55.3099 -0.455 -0.374 0.809 188 182 162 0
3.9786 34.9212 -55.3553 -0.457 -0.372 0.808 189 183 164 0
4.1430 29.8326 -53.7606 -0.264 -0.749 0.607 188 186 164 0
3.7829 28.1664 -53.0063 -0.884 -0.433 0.175 186 184 165 0
23.0390 37.8384 -67.0133 0.265 -0.867 -0.421 187 178 169 0
18.1266 25.7313 -60.2445 0.323 -0.567 0.758 188 176 168 0
18.2106 25.4817 -60.2089 0.103 -0.426 0.899 189 174 167 0
17.4092 11.9486 -55.2732 0.813 -0.466 0.349 173 162 150 0
14.8257 5.4959 -51.6851 -0.212 -0.431 0.877 170 158 146 0
30.1085 23.4745 -66.2171 0.542 -0.730 0.416 171 155 146 0
-28.3837 52.5821 -43.3459 -0.960 -0.277 0.037 206 192 185 0
-26.3885 38.0438 -39.6150 -0.920 -0.146 -0.363 144 67 79 0
-26.3338 37.1993 -39.3639 -0.921 -0.146 -0.362 141 63 75 0
-26.3010 36.2453 -39.0639 -0.921 -0.146 -0.362 140 61 73 0
-20.7379 27.6379 -39.3169 0.227 -0.973 0.034 109 26 42 0
-19.5107 24.3170 -38.8981 -0.250 -0.861 0.443 105 25 36 0
-18.7264 25.8227 -39.8412 -0.215 -0.963 0.161 103 25 38 0
-17.3788 23.8508 -39.9402 -0.048 -0.757 0.651 92 22 33 0
-15.5077 29.5729 -42.9011 0.031 -0.888 0.458 91 21 33 0
-15.7023 25.6044 -41.4674 -0.283 -0.913 0.294 89 23 33 0
-13.4365 26.5318 -43.0498 0.302 -0.853 -0.425 85 23 34 0
-11.5438 28.5725 -44.7942 0.657 -0.740 -0.143 87 24 36 0
-12.1724 23.7910 -42.8453 0.246 -0.761 0.600 80 25 32 0
-11.9781 23.7816 -42.9513 0.432 -0.671 0.603 79 25 32 0
-5.4245 33.0888 -49.7393 -0.538 -0.837 -0.098 71 37 43 0
-3.1099 35.5553 -51.8629 0.030 -0.953 0.301 76 55 57 0
-1.7667 34.8863 -52.3942 -0.801 -0.279 0.529 128 119 112 0
-0.9822 35.1029 -52.9073 0.155 -0.591 0.791 139 135 124 0
-1.1128 34.2362 -52.5447 0.534 -0.816 0.224 142 138 127 0
-0.8464 34.3202 -52.7224 0.490 -0.853 0.181 144 140 129 0
-0.1420 35.4364 -53.4906 0.568 -0.697 0.437 149 145 134 0
-0.0160 35.1819 -53.4765 0.559 -0.725 0.402 153 149 139 0
2.6856 33.8455 -54.5483 0.272 -0.495 0.825 186 181 162 0
4.9723 29.7860 -54.4782 0.317 -0.753 0.576 183 184 167 0
18.8796 38.2923 -65.1305 -0.467 -0.241 0.851 189 185 174 0
23.1796 39.5221 -67.9567 -0.459 -0.826 -0.326 187 181 170 0
14.5382 5.4698 -51.7375 -0.183 -0.378 0.908 167 156 144 0
-29.9910 52.8246 -42.8117 -0.406 -0.763 -0.503 221 209 205 0
-29.8012 52.5887 -42.8393 -0.321 -0.813 -0.486 219 207 203 0
-28.4266 53.0383 -43.7638 -0.963 -0.265 0.044 208 193 186 0
-28.0684 50.8190 -43.2198 -0.009 -0.967 -0.256 208 181 180 0
-27.8747 50.6451 -43.2704 0.445 -0.856 -0.264 207 176 174 0
-27.3515 51.2527 -43.7690 0.319 -0.868 -0.380 192 149 151 0
-27.3722 35.0495 -38.3135 -0.644 -0.483 0.593 145 72 83 0
-19.7456 26.5968 -39.7654 0.463 -0.853 0.239 108 25 40 0
-19.6024 24.2658 -39.0629 -0.234 -0.873 0.428 105 25 38 0
-18.7996 25.8450 -40.0452 -0.311 -0.916 0.252 103 25 38 0
-15.8103 25.5075 -41.6140 -0.289 -0.929 0.233 89 23 33 0
-15.6350 25.4431 -41.6911 -0.394 -0.894 0.215 88 23 33 0
-13.8340 25.5483 -42.7399 -0.461 -0.878 0.132 85 23 35 0
-12.9795 27.5628 -43.8975 -0.325 -0.703 -0.633 84 21 31 0
-12.3950 28.1060 -44.4089 -0.851 -0.524 -0.038 86 22 35 0
-7.9866 31.7337 -48.1085 -0.076 -0.992 -0.101 76 29 39 0
-5.4643 33.2037 -50.0218 0.098 -0.995 -0.006 72 39 46 0
-1.5768 35.5566 -52.9999 -0.728 -0.458 0.511 131 123 115 0
-0.3468 36.2680 -53.9311 -0.044 -0.360 0.932 144 140 129 0
-0.4617 34.8806 -53.4003 0.559 -0.725 0.402 151 147 136 0
-0.1816 34.9908 -53.5949 0.562 -0.717 0.414 156 150 139 0
20.2627 23.2201 -61.1451 0.815 -0.570 0.107 179 170 161 0
20.0721 14.0721 -57.9644 0.735 -0.677 -0.036 168 157 148 0
29.1236 22.7404 -65.9703 0.555 -0.641 0.530 168 154 143 0
33.1246 26.7170 -69.5578 -0.874 -0.454 0.173 167 154 144 0
28.3272 20.4500 -64.7526 -0.969 -0.244 -0.042 167 155 142 0
-69.2713 65.8160 -25.3533 -0.245 -0.887 -0.390 255 255 255 0
-29.4273 52.9115 -43.4471 -0.270 -0.844 -0.463 218 204 201 0
-29.1369 53.4724 -43.8005 -0.013 -0.997 -0.074 217 203 200 0
-28.1608 50.8880 -43.4766 -0.009 -0.967 -0.256 208 184 181 0
-27.4543 51.2476 -43.9964 0.165 -0.869 -0.467 205 168 168 0
-27.1796 51.6294 -44.2805 0.175 -0.865 -0.470 182 141 142 0
-25.1866 31.6288 -38.6394 -0.710 -0.699 0.092 135 48 64 0
-25.0276 31.4629 -38.6729 -0.710 -0.699 0.092 137 49 65 0
-24.8334 31.4782 -38.7875 -0.917 -0.391 -0.082 138 51 64 0
-21.9728 28.7508 -39.4775 -0.287 -0.690 -0.665 113 34 47 0
-21.7649 28.8224 -39.6189 -0.286 -0.693 -0.661 111 33 46 0
-21.3138 27.5027 -39.4268 0.197 -0.972 -0.130 110 30 44 0
-19.7438 24.0274 -39.1364 -0.357 -0.889 0.286 106 24 38 0
-18.7572 25.5898 -40.2209 -0.073 -0.951 0.301 101 23 37 0
-18.2462 25.3651 -40.4329 0.044 -0.953 0.299 97 22 38 0
-18.3237 23.7328 -39.8372 0.262 -0.923 0.282 96 20 36 0
-17.0829 26.0734 -41.3282 -0.153 -0.975 0.163 95 24 38 0
-14.4195 27.0795 -43.1697 -0.381 -0.902 -0.202 87 26 38 0
-14.0608 27.5845 -43.5426 -0.737 -0.636 0.229 88 26 38 0
-13.9089 27.4295 -43.5759 -0.740 -0.611 0.282 88 26 39 0
-13.5750 27.2161 -43.6919 -0.738 -0.618 0.270 86 24 37 0
-13.4332 27.0321 -43.7096 -0.039 -0.937 0.348 86 24 37 0
-5.4777 33.3888 -50.3436 0.461 -0.886 0.055 74 42 48 0
1.1113 41.1434 -56.6802 -0.027 -0.388 0.921 139 135 125 0
-0.5640 35.9527 -53.9804 -0.064 -0.367 0.928 147 143 132 0
-0.4900 34.4628 -53.5182 0.440 -0.721 0.536 157 151 141 0
1.4063 31.9104 -53.7238 0.339 -0.549 0.764 184 181 165 0
16.6627 33.0476 -62.7078 -0.082 -0.791 0.606 188 184 173 0
17.6605 19.9349 -58.8353 0.815 -0.570 0.107 181 170 164 0
12.4585 8.7925 -52.1347 0.459 -0.775 0.435 177 166 160 0
33.0742 26.7399 -69.8249 -0.869 -0.468 0.164 166 153 143 0
-69.4179 65.9831 -25.6092 -0.275 -0.891 -0.360 255 255 255 0
-66.6113 58.4328 -24.6232 -0.925 -0.177 0.337 233 224 216 0
-31.0122 53.3413 -42.9881 0.500 -0.621 -0.604 223 217 211 0
-29.7120 53.2273 -43.6833 -0.341 -0.819 -0.461 221 208 207 0
-29.4776 53.3442 -43.8555 -0.342 -0.782 -0.521 219 205 203 0
-29.2270 53.5853 -44.0790 -0.329 -0.783 -0.527 218 204 201 0
-28.1270 53.5201 -44.6779 -0.959 -0.275 -0.073 208 190 186 0
-27.2833 51.6207 -44.5075 0.143 -0.846 -0.513 199 161 163 0
-27.0164 51.9391 -44.7666 0.141 -0.844 -0.517 175 130 134 0
-27.2366 35.7664 -39.1362 -0.987 -0.075 -0.143 147 75 87 0
-25.2635 31.6719 -38.8562 -0.701 -0.707 0.098 136 47 63 0
-25.1038 31.5087 -38.8908 -0.701 -0.707 0.098 136 46 61 0
-24.9336 31.4002 -38.9499 -0.805 -0.585 0.101 136 47 61 0
-22.1613 29.1229 -39.7397 -0.159 -0.767 -0.622 113 34 44 0
-21.9597 29.1662 -39.8683 -0.160 -0.768 -0.620 112 34 45 0
-19.7804 24.1832 -39.4022 -0.313 -0.949 0.030 108 25 40 0
-19.5680 24.2776 -39.5543 -0.488 -0.866 -0.110 106 27 40 0
-18.9834 25.7518 -40.3862 -0.228 -0.783 0.579 102 24 37 0
-18.8590 25.5063 -40.3729 -0.074 -0.958 0.277 101 23 37 0
-18.1006 24.8017 -40.5612 0.041 -0.993 -0.108 97 21 37 0
-15.8128 26.6748 -42.4905 -0.004 -0.732 -0.681 88 25 34 0
-15.4758 27.1384 -42.8386 -0.291 -0.903 -0.317 88 25 34 0
-14.4999 27.7215 -43.5881 -0.394 -0.852 0.346 87 25 38 0
-14.3311 27.6190 -43.6485 -0.394 -0.852 0.346 87 25 37 0
-14.1666 27.5030 -43.7019 -0.385 -0.862 0.329 88 26 37 0
-14.0011 27.3911 -43.7572 -0.403 -0.858 0.319 88 26 37 0
-13.8221 27.3218 -43.8346 -0.404 -0.862 0.306 88 25 37 0
-13.6533 27.2209 -43.8956 -0.404 -0.862 0.306 87 25 38 0
-13.5244 26.9964 -43.8920 -0.041 -0.939 0.340 88 26 39 0
-13.3601 26.8828 -43.9461 0.021 -0.958 0.285 87 25 37 0
-6.8235 37.9706 -51.4113 0.590 -0.679 0.437 79 28 37 0
-6.4732 38.3144 -51.7261 0.245 -0.962 0.123 78 28 38 0
-6.6524 32.2550 -49.5620 0.265 -0.631 -0.729 77 38 45 0
-1.0243 35.6142 -53.8832 0.321 -0.788 0.526 146 141 134 0
-0.7720 35.6583 -54.0406 -0.042 -0.451 0.891 148 143 136 0
-0.6646 34.2490 -53.6215 0.463 -0.709 0.532 156 154 143 0
-1.9002 30.7999 -51.7496 0.555 -0.824 0.113 158 158 146 0
1.0285 31.2556 -53.5582 -0.021 -0.293 0.956 183 181 167 0
1.8119 4.4823 -44.8854 0.402 -0.335 0.852 186 177 167 0
21.8296 31.4222 -65.3587 0.663 -0.631 0.403 183 177 164 0
22.2692 31.6876 -65.6972 0.688 -0.621 0.376 182 176 163 0
16.6532 21.0124 -58.8922 0.412 -0.578 0.705 182 173 164 0
15.2490 18.5893 -57.2744 0.727 -0.557 0.401 182 173 164 0
15.8005 19.0554 -57.7445 0.724 -0.582 0.370 181 172 163 0
11.2277 8.6444 -51.6183 0.194 -0.962 -0.192 178 169 160 0
22.3479 16.5510 -60.5883 0.593 -0.771 -0.232 167 155 147 0
33.0986 26.8558 -70.1662 -0.887 -0.455 0.074 163 151 139 0
28.4862 19.8485 -65.1765 -0.969 -0.248 -0.012 51 50 50 0
-69.5586 66.1160 -25.8576 -0.261 -0.891 -0.372 255 255 255 0
-28.5388 52.8730 -44.5157 -0.412 -0.315 0.855 209 194 189 0
-28.1762 53.9324 -45.0838 -0.136 -0.221 0.966 208 192 187 0
-27.4006 51.5174 -44.6947 0.555 -0.788 -0.267 202 167 169 0
-26.8599 52.1973 -45.2335 0.589 -0.782 -0.205 171 122 127 0
-25.3565 31.6313 -39.0356 -0.401 -0.864 0.305 138 50 64 0
-25.1848 31.5295 -39.0978 -0.401 -0.864 0.305 137 47 62 0
-25.0080 31.4546 -39.1721 -0.416 -0.858 0.303 136 46 61 0
-24.8370 31.3501 -39.2330 -0.416 -0.858 0.303 134 46 60 0
-24.6662 31.2458 -39.2939 -0.416 -0.858 0.303 133 46 60 0
-22.3116 29.6733 -40.0865 -0.819 -0.300 -0.489 115 35 47 0
-22.1795 29.4073 -40.0700 -0.463 -0.769 -0.442 112 34 44 0
-21.5183 28.1270 -40.0052 -0.708 -0.706 0.033 112 34 46 0
-21.2224 28.5655 -40.3227 -0.619 -0.775 -0.125 113 34 47 0
-19.0833 25.6752 -40.5419 -0.131 -0.803 0.582 103 25 38 0
-17.5648 26.9924 -41.8520 -0.445 -0.830 -0.336 98 22 38 0
-15.5245 27.2428 -43.0916 -0.291 -0.903 -0.317 88 25 35 0
-14.5348 27.8691 -43.8659 -0.214 -0.784 0.583 87 25 38 0
-14.4347 27.5443 -43.8112 -0.469 -0.839 0.277 90 28 38 0
-14.2628 27.4523 -43.8769 -0.495 -0.857 0.145 91 28 38 0
-14.0938 27.3512 -43.9378 -0.486 -0.860 0.156 88 25 35 0
-13.9262 27.2459 -43.9964 -0.486 -0.860 0.156 89 26 37 0
-13.4783 26.7636 -44.0845 -0.050 -0.965 0.259 88 26 37 0
-12.0510 29.2619 -45.7478 -0.644 -0.764 -0.036 86 26 38 0
-11.7825 29.4468 -45.9630 -0.826 -0.555 0.099 86 28 40 0
-10.6646 29.6687 -46.6712 0.329 -0.925 -0.192 81 28 36 0
-10.4153 29.7834 -46.8515 -0.494 -0.870 -0.017 80 28 36 0
-7.3119 38.1331 -51.4679 0.217 -0.965 -0.147 80 29 38 0
-7.3698 37.3118 -51.1537 0.532 -0.783 -0.322 80 29 39 0
-6.7323 38.4824 -51.9154 0.483 -0.763 0.430 80 28 39 0
-6.5587 38.3230 -51.9589 0.279 -0.951 0.130 79 29 40 0
-6.3658 33.2490 -50.3291 0.265 -0.632 -0.728 76 38 45 0
-0.9642 36.5350 -54.5098 0.265 -0.660 0.703 145 140 135 0
-0.7701 36.4347 -54.5852 0.326 -0.858 0.397 149 144 140 0
-0.7255 35.4129 -54.2603 0.016 -0.441 0.897 154 150 145 0
9.6685 19.6736 -54.7441 -0.731 -0.672 -0.119 188 181 170 0
21.5499 31.1129 -65.3832 0.663 -0.631 0.403 182 174 164 0
22.2659 31.3971 -65.8856 -0.190 -0.789 0.584 180 173 163 0
16.5605 20.9760 -59.0878 0.290 -0.698 0.655 182 173 163 0
18.7335 20.9735 -60.3157 0.797 -0.558 0.229 177 166 161 0
29.7827 23.8181 -67.5389 0.752 -0.656 0.058 166 154 144 0
28.4900 19.9313 -65.4759 -0.975 -0.223 0.026 52 51 51 0
-69.7016 66.2593 -26.1091 -0.243 -0.887 -0.391 255 255 255 0
-26.9772 52.0993 -45.4243 0.562 -0.780 -0.276 184 139 143 0
-26.0505 36.8468 -40.6878 -0.985 -0.169 -0.034 145 63 77 0
-24.7198 31.4042 -39.5640 -0.463 -0.863 0.201 131 46 59 0
-23.5734 31.3579 -40.1974 -0.462 -0.810 -0.361 122 39 53 0
-18.6430 29.0926 -42.2086 0.665 -0.722 -0.190 108 28 41 0
-17.7463 26.6307 -41.8673 -0.388 -0.921 -0.032 100 24 40 0
-17.6446 26.3012 -41.8112 -0.226 -0.968 -0.107 99 26 40 0
-15.5991 27.2618 -43.3012 -0.362 -0.874 -0.324 87 25 36 0
-14.6424 27.7819 -44.0225 -0.214 -0.784 0.583 89 26 37 0
-12.8995 26.9295 -44.7157 -0.384 -0.909 -0.163 84 26 38 0
-10.6587 29.9254 -47.0184 -0.701 -0.683 0.208 82 29 38 0
-10.1936 28.2494 -46.7037 -0.118 -0.783 0.610 79 29 40 0
-5.4101 34.8340 -51.6845 0.137 -0.693 -0.707 77 46 48 0
-1.1403 36.3158 -54.6142 0.313 -0.864 0.394 149 142 139 0
-2.2718 29.2604 -51.5394 0.428 -0.831 0.356 166 167 155 0
-2.6004 27.9816 -50.9122 0.147 -0.963 0.224 168 169 157 0
-2.2897 28.1917 -51.1606 -0.259 -0.749 0.610 171 171 159 0
-2.2667 27.7377 -51.0170 -0.201 -0.664 0.721 172 172 162 0
21.7734 31.1676 -65.8169 0.584 -0.540 0.607 181 172 163 0
30.2395 24.8159 -68.4212 0.602 -0.776 0.187 169 156 145 0
32.1746 26.2204 -70.0018 0.519 -0.840 -0.159 159 149 137 0
-28.5401 54.4613 -45.6489 -0.600 -0.079 0.796 212 199 193 0
-28.3669 50.7702 -44.4656 -0.687 -0.276 0.672 207 189 185 0
-27.0788 52.1103 -45.6617 0.562 -0.780 -0.276 200 163 166 0
-26.8072 52.4469 -45.9326 0.573 -0.781 -0.249 183 139 144 0
-27.0317 46.5521 -43.7585 -0.996 -0.016 -0.087 163 106 114 0
-26.7078 35.8455 -40.2248 -0.836 -0.513 -0.196 149 70 85 0
-26.5370 35.6969 -40.2701 -0.891 -0.450 -0.049 148 69 83 0
-26.3907 35.4084 -40.2529 -0.890 -0.454 -0.048 144 65 79 0
-18.6861 29.2421 -42.4830 0.708 -0.658 0.256 109 29 42 0
-17.7518 26.2034 -41.9580 -0.251 -0.968 0.028 102 25 43 0
-15.6776 27.2682 -43.5045 -0.414 -0.861 -0.295 88 26 38 0
-14.7329 27.7498 -44.2077 -0.202 -0.786 0.584 89 26 38 0
-14.5965 27.5411 -44.2126 -0.303 -0.920 0.250 91 29 38 0
-14.4022 27.5204 -44.3157 -0.319 -0.932 0.171 103 40 48 0
-10.8201 29.6920 -47.1020 0.161 -0.949 -0.271 82 29 41 0
-10.6863 28.2599 -46.6806 -0.107 -0.749 0.654 81 33 42 0
-10.5171 28.1491 -46.7381 -0.116 -0.758 0.642 81 33 43 0
-10.3525 28.0257 -46.7886 -0.123 -0.757 0.642 81 33 43 0
-5.9569 34.2020 -51.4270 0.268 -0.700 -0.662 77 45 50 0
-4.2564 30.5449 -51.1219 -0.387 -0.723 0.573 140 132 130 0
-2.5524 29.3106 -51.6601 0.439 -0.831 0.342 165 166 158 0
-2.3872 29.1776 -51.7077 0.416 -0.837 0.354 168 168 159 0
-2.6299 28.0964 -51.1945 0.181 -0.961 0.209 170 170 161 0
-2.2435 28.4815 -51.5475 -0.015 -1.000 0.018 173 173 164 0
19.7030 34.2673 -66.0075 0.820 -0.572 -0.027 185 178 168 0
-69.9662 66.4261 -26.5848 -0.142 -0.862 -0.487 255 255 255 0
-69.7004 72.4700 -28.8480 -0.576 -0.813 0.087 233 223 221 0
-31.5936 53.8574 -43.9982 0.490 -0.641 -0.590 228 216 216 0
-28.7931 53.3179 -45.4011 -0.575 -0.043 0.817 214 201 196 0
-27.4525 51.7683 -45.6213 0.562 -0.780 -0.275 202 174 173 0
-27.1804 52.1213 -45.8993 0.562 -0.780 -0.276 202 168 169 0
-26.9179 52.3973 -46.1449 0.562 -0.780 -0.276 199 159 163 0
-26.6081 36.9604 -40.9262 -0.977 -0.165 0.132 151 73 90 0
-18.8320 29.0002 -42.5632 0.706 -0.660 0.257 108 28 41 0
-17.7732 26.4122 -42.2605 -0.339 -0.807 -0.483 103 25 46 0
-14.8406 27.6618 -44.3637 -0.202 -0.786 0.584 88 26 38 0
-14.6760 27.5445 -44.4162 -0.317 -0.909 0.270 89 26 35 0
-14.4851 27.5125 -44.5135 -0.319 -0.932 0.171 91 28 37 0
-12.5209 27.3314 -45.5664 -0.354 -0.904 -0.241 87 27 38 0
-10.9665 30.1217 -47.4249 0.596 -0.794 -0.124 86 32 42 0
-10.8262 29.9150 -47.4324 0.149 -0.936 -0.318 85 32 43 0
-10.8197 28.1072 -46.8043 -0.275 -0.785 0.555 82 34 44 0
-10.6482 28.0037 -46.8656 -0.275 -0.785 0.555 85 37 47 0
-2.8787 35.3216 -53.8381 0.130 -0.963 -0.234 134 124 123 0
-2.8462 30.9255 -52.3202 0.156 -0.972 0.174 158 158 153 0
-2.6155 29.3506 -51.9010 0.486 -0.813 0.320 168 168 161 0
1.9584 35.6460 -56.7002 -0.729 -0.684 -0.035 178 177 172 0
8.2118 3.3277 -48.9594 -0.634 -0.695 0.339 174 162 156 0
8.3077 3.1848 -48.9640 -0.608 -0.681 0.407 176 163 155 0
28.3923 20.3665 -66.3819 -0.974 -0.220 0.048 101 96 89 0
-70.1237 66.6423 -26.8558 -0.247 -0.885 -0.394 255 255 255 0
-28.7128 51.3509 -45.0480 -0.753 -0.425 0.502 210 197 192 0
-28.2642 53.0670 -45.9070 -0.575 -0.491 0.654 207 193 188 0
-27.4539 52.4886 -46.1647 -0.872 -0.430 -0.234 204 177 176 0
-27.0198 52.4085 -46.3836 0.562 -0.780 -0.276 201 168 169 0
-26.8460 50.5689 -45.8355 -0.977 -0.075 -0.200 171 125 130 0
-27.0166 46.5432 -44.3224 -0.971 -0.060 -0.229 167 112 120 0
-26.5657 36.5732 -41.0723 -0.978 -0.164 0.127 151 73 90 0
-26.4341 36.1874 -41.0115 -0.956 -0.159 0.248 150 72 88 0
-26.3236 35.6866 -40.8982 -0.954 -0.211 0.214 146 67 82 0
-21.0692 27.3770 -40.9662 -0.385 -0.829 0.405 119 37 49 0
-20.5478 27.9382 -41.4604 -0.778 -0.572 -0.260 116 33 47 0
-17.5461 28.2212 -43.2684 -0.824 -0.558 0.098 102 25 45 0
-17.2117 28.0028 -43.3820 -0.642 -0.576 0.507 104 28 46 0
-17.0727 27.7945 -43.3878 -0.636 -0.587 0.500 102 28 46 0
-14.9723 27.4947 -44.4779 -0.109 -0.815 0.569 89 27 38 0
-14.7577 27.5408 -44.6163 -0.329 -0.928 0.174 89 26 36 0
-12.5935 27.3539 -45.7824 -0.335 -0.914 -0.229 87 30 41 0
-11.0635 30.0781 -47.6115 0.596 -0.794 -0.124 88 34 43 0
-10.8525 30.0795 -47.7320 0.268 -0.927 -0.261 86 33 43 0
-10.9251 28.0353 -46.9717 -0.267 -0.789 0.554 88 38 49 0
-7.1886 33.1325 -50.8913 0.156 -0.913 -0.378 80 41 50 0
-4.4921 36.7454 -53.6969 -0.099 -0.815 -0.570 85 61 65 0
-3.9953 36.8348 -54.0112 -0.146 -0.872 -0.468 95 76 76 0
9.2488 31.4325 -59.6494 -0.509 -0.170 0.844 185 180 173 0
9.1023 19.9428 -55.5247 -0.570 -0.805 -0.165 183 179 167 0
8.1433 3.3078 -49.1278 -0.634 -0.695 0.339 174 163 156 0
8.2745 3.2133 -49.1692 -0.635 -0.699 0.329 176 163 155 0
-70.2670 66.7808 -27.1085 -0.256 -0.881 -0.398 255 255 255 0
-29.1299 54.0657 -46.0604 -0.478 -0.448 0.755 219 206 205 0
-28.8041 51.4389 -45.3163 -0.079 -0.393 0.916 212 198 195 0
-28.0678 53.6475 -46.5179 -0.433 -0.723 0.539 208 193 188 0
-27.8462 53.6310 -46.6384 -0.485 -0.695 0.531 208 190 186 0
-27.5014 52.8905 -46.5728 -0.891 -0.400 -0.213 204 180 178 0
-26.6503 55.6991 -48.0523 -0.987 -0.041 -0.158 199 173 172 0
-26.7700 53.3029 -47.1358 -0.977 -0.087 -0.193 197 166 166 0
-26.7028 50.7351 -46.2651 -0.969 -0.099 -0.225 175 130 135 0
-26.8411 48.3570 -45.3444 -0.957 -0.077 -0.281 173 123 130 0
-27.0237 45.7437 -44.3152 -0.949 -0.075 -0.307 169 114 120 0
-26.6461 37.8100 -41.7220 -0.979 -0.094 -0.178 153 76 94 0
-26.6310 36.7184 -41.3441 -0.977 -0.167 0.129 156 79 97 0
-26.5160 36.2319 -41.2375 -0.952 -0.191 0.239 165 88 104 0
-26.4078 35.7155 -41.1164 -0.887 -0.412 0.206 157 80 94 0
-22.9981 29.3207 -40.7965 -0.701 -0.550 0.455 120 40 55 0
-21.3265 27.4396 -41.0836 -0.384 -0.829 0.406 119 41 52 0
-21.1490 27.3833 -41.1649 -0.312 -0.886 0.342 115 37 49 0
-20.6307 27.9336 -41.6552 -0.756 -0.628 -0.183 114 33 47 0
-19.4283 28.8511 -42.6655 -0.692 -0.632 0.348 113 33 46 0
-18.8786 27.2210 -42.4018 -0.328 -0.907 -0.263 102 25 41 0
-17.6120 28.2781 -43.4981 -0.824 -0.558 0.098 103 26 42 0
-17.4750 28.0595 -43.4989 -0.651 -0.589 0.478 103 28 44 0
-17.3160 27.9211 -43.5405 -0.654 -0.589 0.475 106 32 47 0
-17.1673 27.7471 -43.5637 -0.636 -0.587 0.500 105 33 47 0
-17.0273 27.5442 -43.5717 -0.629 -0.586 0.511 98 29 41 0
-15.2521 27.4985 -44.5676 -0.078 -0.801 0.593 89 27 40 0
-15.0762 27.4186 -44.6396 -0.162 -0.801 0.577 91 29 41 0
-14.8636 27.4588 -44.7750 -0.275 -0.942 0.194 92 29 41 0
-14.5819 27.7208 -45.0284 -0.067 -0.932 -0.356 93 30 41 0
-14.3692 27.7569 -45.1624 -0.067 -0.932 -0.356 92 29 40 0
-14.1559 27.7930 -45.2968 -0.067 -0.932 -0.356 90 28 40 0
-12.7192 27.2159 -45.9116 -0.055 -0.993 -0.100 87 31 43 0
-11.0733 30.2938 -47.9395 0.269 -0.824 -0.498 88 35 43 0
-10.8043 30.4653 -48.1536 0.137 -0.867 -0.478 85 33 42 0
-11.1639 28.1779 -47.1389 -0.594 -0.765 0.249 86 34 46 0
-7.2336 33.2410 -51.1719 0.156 -0.913 -0.378 81 45 53 0
-7.1990 32.7299 -51.0107 0.053 -0.913 -0.403 81 49 55 0
-7.1078 32.3780 -50.9382 -0.034 -0.819 -0.573 83 53 60 0
-6.1482 34.3748 -52.1921 0.269 -0.783 -0.561 84 56 63 0
-4.1706 37.2137 -54.3246 -0.084 -0.847 -0.525 93 73 75 0
-3.5797 36.9337 -54.5623 -0.568 -0.781 -0.262 114 100 99 0
-2.4427 35.6814 -54.7672 0.027 -0.996 -0.080 148 140 138 0
-2.7230 31.0748 -52.9766 -0.091 -0.974 0.207 163 162 158 0
-1.1480 33.1995 -54.6267 0.653 -0.728 -0.207 170 170 164 0
-0.3638 34.5007 -55.5345 0.531 -0.662 -0.529 172 173 165 0
9.0062 31.5859 -59.8446 -0.384 -0.088 0.919 183 180 173 0
9.0269 31.1655 -59.7076 -0.485 -0.134 0.864 183 179 172 0
8.0748 3.2880 -49.2962 -0.634 -0.695 0.339 174 164 155 0
-49.8197 57.6276 -35.8099 -0.626 -0.549 0.554 235 229 228 0
-49.6076 57.3382 -35.8279 -0.684 -0.504 0.527 235 230 227 0
-49.3903 56.8922 -35.7931 -0.305 -0.912 -0.273 236 233 228 0
-30.0702 52.6620 -45.3188 -0.465 -0.140 0.874 223 211 211 0
-29.6038 52.8803 -45.6628 -0.598 -0.319 0.736 223 209 209 0
-26.6842 53.0652 -47.3960 -0.944 -0.156 -0.291 193 163 164 0
-26.6338 51.8885 -47.0055 -0.956 -0.085 -0.280 182 144 147 0
-26.6621 50.2149 -46.3931 -0.955 -0.083 -0.285 174 131 136 0
-26.7804 47.9877 -45.5320 -0.951 -0.074 -0.300 172 121 126 0
-26.6477 38.3461 -42.1728 -0.982 -0.093 -0.164 153 78 95 0
-26.5915 37.4868 -41.8988 -0.975 -0.109 -0.192 152 75 91 0
-26.5571 36.5172 -41.5730 -0.976 -0.109 -0.190 155 78 94 0
-26.4848 35.7861 -41.3538 -0.887 -0.419 0.195 156 80 93 0
-26.3060 35.6804 -41.4183 -0.906 -0.421 0.053 150 72 86 0
-25.5156 35.6763 -41.8681 -0.860 -0.451 -0.239 138 57 72 0
-21.4163 27.4050 -41.2622 -0.380 -0.834 0.400 112 36 48 0
-21.2409 27.3401 -41.3392 -0.339 -0.880 0.334 112 36 50 0
-20.0930 29.6578 -42.8205 -0.808 -0.501 -0.310 113 33 46 0
-15.9001 26.9350 -44.2447 -0.587 -0.809 -0.036 89 28 43 0
-13.6016 29.1701 -46.3536 0.549 -0.831 0.090 90 30 42 0
-10.8905 30.4552 -48.3596 0.088 -0.866 -0.492 88 35 43 0
-11.2732 28.0943 -47.3000 -0.587 -0.793 0.163 87 35 47 0
-7.3609 33.7357 -51.5440 -0.015 -0.877 -0.480 81 45 53 0
-7.2301 33.4837 -51.5289 0.113 -0.915 -0.387 80 46 53 0
-7.1302 33.1490 -51.4667 0.335 -0.895 -0.296 81 51 57 0
-7.0288 32.8212 -51.4078 0.074 -0.979 -0.190 82 54 60 0
-4.3941 37.4700 -54.5685 -0.174 -0.854 -0.491 92 71 75 0
-4.0684 37.7157 -54.8421 -0.178 -0.840 -0.512 101 82 84 0
-1.1297 33.4407 -54.9972 0.674 -0.712 -0.197 171 171 166 0
1.0075 33.5326 -56.2503 -0.943 -0.147 -0.299 178 180 171 0
9.4584 43.7771 -64.7260 -0.030 -0.946 0.323 181 182 173 0
14.8484 22.6516 -60.2776 0.611 -0.748 -0.260 181 172 164 0
3.8309 1.2020 -46.3442 0.471 -0.764 -0.441 179 168 163 0
4.8453 2.4032 -47.3515 0.465 -0.765 -0.445 178 167 162 0
5.9498 3.7253 -48.4532 0.430 -0.762 -0.485 177 166 161 0
8.7790 7.2302 -51.3175 0.485 -0.753 -0.444 175 166 158 0
9.7544 4.0047 -50.7254 0.445 -0.186 0.876 170 159 154 0
-68.2031 53.7176 -24.1778 -0.393 -0.906 -0.159 255 255 255 0
-49.9299 57.6413 -36.0364 -0.628 -0.563 0.537 235 229 230 0
-49.7136 57.2535 -36.0211 -0.761 -0.501 0.413 235 230 228 0
-49.5101 57.1756 -36.1096 -0.658 -0.511 0.554 237 233 229 0
-49.2926 56.7162 -36.0693 -0.585 -0.770 -0.255 237 234 228 0
-26.6623 53.9311 -48.0147 -0.942 -0.156 -0.297 196 170 171 0
-26.6086 52.7587 -47.6251 -0.939 -0.160 -0.303 190 159 161 0
-26.5301 50.3035 -46.7897 -0.950 -0.073 -0.304 178 130 135 0
-26.0321 45.1760 -45.2361 -0.970 -0.022 -0.242 158 86 98 0
-26.6914 36.2561 -41.6609 -0.930 -0.220 0.295 151 74 88 0
-26.5075 36.1744 -41.7367 -0.795 -0.591 -0.140 148 72 84 0
-26.3551 35.9120 -41.7299 -0.836 -0.545 -0.071 147 71 83 0
-26.1991 35.6733 -41.7335 -0.836 -0.545 -0.071 145 67 82 0
-26.0282 35.5224 -41.7771 -0.957 -0.237 -0.166 144 66 82 0
-25.4803 36.3642 -42.3924 -0.929 -0.228 -0.292 141 61 75 0
-22.2372 30.0277 -41.9754 -0.685 -0.707 -0.178 119 43 56 0
-21.3396 27.2687 -41.4996 -0.370 -0.823 0.431 113 36 52 0
-20.0898 28.4326 -42.6318 0.099 -0.718 0.689 112 31 43 0
-19.9291 28.2974 -42.6752 0.185 -0.833 0.521 112 32 44 0
-19.7233 28.3408 -42.8085 -0.044 -0.360 0.932 112 34 47 0
-19.5624 28.2070 -42.8526 -0.044 -0.360 0.932 109 33 45 0
-19.3881 28.1261 -42.9232 0.449 -0.575 0.684 107 29 43 0
-17.4788 27.9214 -43.9419 -0.624 -0.538 0.566 110 42 53 0
-17.3250 27.7646 -43.9737 -0.632 -0.567 0.529 100 32 43 0
-14.3955 28.1948 -45.8035 -0.174 -0.923 -0.343 90 30 42 0
-14.1505 28.3299 -45.9921 -0.187 -0.949 -0.252 90 31 43 0
-13.9318 28.3785 -46.1346 -0.171 -0.956 -0.240 89 31 43 0
-12.9235 28.9718 -46.9241 -0.436 -0.763 -0.477 90 33 46 0
-12.8436 27.3254 -46.3795 -0.058 -0.994 -0.096 85 33 45 0
-11.3736 30.5215 -48.3662 -0.310 -0.785 -0.536 87 36 44 0
-10.9116 30.6383 -48.6723 0.086 -0.848 -0.523 88 36 45 0
-11.3111 28.2199 -47.5767 -0.230 -0.608 0.760 89 37 49 0
-7.5099 33.5581 -51.6649 -0.215 -0.954 -0.210 80 47 54 0
-7.3903 33.2754 -51.6319 -0.001 -0.928 -0.373 80 48 55 0
-7.1941 32.0004 -51.2870 0.329 -0.872 -0.362 86 61 65 0
-2.5502 31.3423 -53.7073 0.076 -0.919 -0.388 169 168 166 0
8.8971 44.4608 -64.9584 0.075 -0.994 0.077 183 180 174 0
10.9873 45.4841 -66.5209 -0.804 -0.523 -0.284 181 181 173 0
12.9856 19.5059 -58.3496 0.593 -0.740 0.318 180 171 162 0
5.2923 6.9817 -49.4587 -0.290 -0.239 0.927 180 171 162 0
4.1046 1.6808 -46.8788 0.470 -0.768 -0.436 177 166 161 0
4.9011 2.2825 -47.5501 0.437 -0.850 0.295 174 163 158 0
5.0148 2.1675 -47.5739 0.438 -0.839 0.323 174 165 158 0
-50.0431 57.7227 -36.2860 -0.624 -0.517 0.586 235 229 228 0
-49.8164 57.0904 -36.1877 -0.594 -0.136 0.793 235 230 227 0
-49.5918 56.4653 -36.0908 -0.605 -0.154 0.781 237 233 229 0
-27.6215 54.2902 -47.8930 -0.746 -0.571 -0.343 210 191 188 0
-26.6629 54.6525 -48.5729 -0.957 -0.135 -0.256 199 175 176 0
-26.5552 53.8325 -48.3388 -0.953 -0.138 -0.270 197 167 169 0
-26.3426 53.7368 -48.4260 -0.948 -0.113 -0.297 193 160 163 0
-26.2535 52.8200 -48.1463 -0.960 -0.131 -0.248 188 144 149 0
-26.2758 35.7455 -41.9727 -0.952 -0.179 -0.248 147 70 84 0
-26.0838 35.7129 -42.0710 -0.978 -0.207 0.016 145 66 83 0
-24.3427 32.4285 -41.8834 -0.380 -0.712 -0.590 129 48 62 0
-21.8266 29.6411 -42.3191 -0.802 -0.598 0.017 115 40 55 0
-21.4445 27.1710 -41.6468 -0.136 -0.922 0.362 113 34 50 0
-20.1487 30.1099 -43.4496 -0.664 -0.585 -0.466 115 34 49 0
-20.0513 28.1387 -42.7941 0.253 -0.913 0.319 113 32 46 0
-19.8158 28.3002 -42.9873 0.198 -0.816 0.543 114 33 48 0
-19.6443 28.2076 -43.0521 0.120 -0.847 0.518 112 35 48 0
-19.4568 28.1780 -43.1489 0.126 -0.844 0.521 109 32 46 0
-19.2315 28.2928 -43.3194 -0.427 -0.710 0.560 105 29 43 0
-17.6973 28.1413 -44.1437 -0.659 -0.744 0.106 101 33 46 0
-17.5261 28.0447 -44.2069 -0.585 -0.811 0.025 102 35 47 0
-17.3651 27.9121 -44.2513 -0.623 -0.779 0.073 97 31 44 0
-5.2827 37.4259 -54.6062 0.084 -0.797 -0.598 88 65 71 0
-4.4524 38.4110 -55.4373 -0.170 -0.985 -0.036 97 81 84 0
-2.6682 31.2563 -53.8780 -0.952 -0.296 0.074 174 170 168 0
-4.0451 27.4245 -51.7065 -0.296 -0.927 0.231 173 171 167 0
-2.3846 30.8552 -53.8957 -0.793 -0.276 0.543 173 173 166 0
3.3908 39.3172 -60.2577 -0.492 -0.410 -0.768 180 181 173 0
8.8563 44.5697 -65.2842 0.085 -0.992 0.094 182 182 172 0
2.0934 25.3869 -54.4881 0.209 -0.975 -0.069 179 182 170 0
4.8082 2.2263 -47.6867 0.328 -0.885 0.330 174 163 157 0
4.9832 2.2002 -47.7776 0.404 -0.869 0.285 174 164 157 0
4.5736 1.3303 -47.2290 0.190 -0.800 0.570 174 164 158 0
5.6342 2.5794 -48.2873 0.335 -0.917 0.215 174 163 157 0
8.5635 3.6339 -50.3461 -0.630 -0.769 0.111 170 160 148 0
8.6336 3.1778 -50.2216 -0.760 -0.405 0.508 171 161 152 0
8.7419 3.0513 -50.2380 -0.578 -0.800 0.158 169 158 152 0
8.9231 3.0243 -50.3321 -0.594 -0.783 0.186 167 156 150 0
11.5598 3.0127 -51.8385 -0.190 -0.539 -0.821 164 150 142 0
12.5662 4.0441 -52.7872 -0.121 -0.582 -0.804 165 151 142 0
-27.5800 53.7206 -48.0087 -0.850 -0.508 0.137 206 191 190 0
-28.0483 48.7792 -45.9457 -0.114 -0.974 0.194 204 188 188 0
-26.5785 54.3934 -48.8276 -0.973 -0.133 -0.191 199 172 174 0
-26.2178 53.7559 -48.8031 -0.960 -0.132 -0.248 195 156 160 0
-25.9996 45.2638 -45.8449 -0.932 -0.114 -0.344 160 88 100 0
-26.4112 37.7984 -42.8980 -0.976 -0.099 -0.192 152 77 88 0
-25.3870 36.7682 -43.1117 -0.974 -0.182 -0.133 143 62 77 0
-22.3417 30.3125 -42.5152 -0.696 -0.694 -0.186 120 44 57 0
-21.7931 30.1521 -42.7717 -0.701 -0.671 0.240 116 40 56 0
-20.4958 30.6538 -43.6983 -0.390 -0.759 -0.521 114 33 49 0
-19.6968 29.8790 -43.8755 -0.577 -0.728 -0.369 113 31 46 0
-19.7604 28.0745 -43.1838 -0.388 -0.867 0.313 111 33 47 0
-19.6218 27.8548 -43.1836 -0.393 -0.880 0.266 112 35 48 0
-19.4352 27.8232 -43.2792 -0.698 -0.665 0.266 105 32 44 0
-19.2537 27.7710 -43.3644 -0.495 -0.782 0.379 103 30 41 0
-15.0243 28.6626 -46.1152 -0.619 -0.728 -0.296 91 31 45 0
-10.9051 31.7936 -49.6158 0.393 -0.881 0.265 88 37 48 0
-4.6190 27.8052 -51.7748 -0.357 -0.892 0.277 167 167 162 0
-4.4262 27.7452 -51.8636 -0.367 -0.903 0.223 170 169 165 0
-4.3037 27.5158 -51.8507 -0.363 -0.893 0.265 174 172 170 0
5.4993 43.1403 -63.1493 -0.137 -0.163 0.977 181 181 173 0
2.1688 26.1552 -55.0708 0.253 -0.954 0.163 177 180 169 0
2.0167 25.3857 -54.7042 0.209 -0.975 -0.069 179 181 169 0
2.3529 25.6125 -54.9794 -0.240 -0.835 -0.495 180 182 168 0
2.7517 25.5082 -55.1704 -0.671 -0.734 -0.103 180 182 170 0
2.3307 6.2410 -47.9329 -0.390 -0.879 -0.274 182 173 166 0
6.1202 6.5814 -50.2311 0.152 -0.865 -0.478 179 168 163 0
4.7356 2.1995 -47.8455 0.425 -0.872 0.242 174 163 157 0
4.9714 2.2616 -48.0034 0.416 -0.881 0.223 175 163 156 0
4.4563 1.2381 -47.3361 0.199 -0.793 0.575 175 163 156 0
8.5920 3.4708 -50.5201 -0.597 -0.799 0.070 169 158 147 0
-31.2890 42.2857 -41.9965 -0.709 -0.705 0.029 223 211 213 0
-28.1335 50.4651 -46.7988 -0.463 -0.790 0.402 208 195 194 0
-28.0959 49.1617 -46.3442 -0.169 -0.955 0.243 205 191 191 0
-27.9125 48.9215 -46.3618 -0.125 -0.976 0.177 202 186 187 0
-26.1627 54.8330 -49.5275 -0.945 -0.152 -0.291 198 164 168 0
-26.0939 53.7666 -49.1774 -0.940 -0.159 -0.300 193 153 157 0
-25.9542 51.7176 -48.5090 -0.913 -0.169 -0.372 178 129 134 0
-23.8229 32.9507 -42.8770 -0.426 -0.553 -0.716 148 68 83 0
-22.5196 30.7705 -42.8295 -0.911 -0.394 -0.124 131 55 68 0
-22.3941 30.4560 -42.7868 -0.910 -0.396 -0.119 134 58 71 0
-22.2519 30.2201 -42.7823 -0.795 -0.566 -0.220 123 45 61 0
-19.7884 32.2735 -44.9485 -0.852 -0.013 0.523 114 33 48 0
-19.6333 28.1299 -43.5237 -0.720 -0.639 0.271 106 30 44 0
-19.4791 27.9704 -43.5540 -0.708 -0.653 0.270 105 33 43 0
-19.3111 27.8651 -43.6122 -0.631 -0.687 0.362 103 31 42 0
-13.8716 29.3587 -47.2843 -0.595 -0.786 -0.168 91 33 44 0
-13.6183 29.5096 -47.4851 -0.345 -0.892 -0.293 91 33 43 0
-10.9936 31.7802 -49.8233 0.393 -0.917 0.065 88 40 51 0
-10.7976 31.7258 -49.9161 0.397 -0.917 0.026 89 42 52 0
-3.6255 43.1004 -58.1945 -0.350 -0.808 -0.475 92 71 76 0
-3.4762 42.8426 -58.1861 -0.316 -0.835 -0.451 98 79 84 0
-3.2021 42.9257 -58.3741 -0.237 -0.855 -0.461 103 87 93 0
-3.1030 40.5925 -57.5785 -0.231 -0.406 0.884 123 112 114 0
-4.8850 27.8809 -51.9097 -0.224 -0.962 0.157 168 169 163 0
-4.7792 27.6086 -51.8710 -0.451 -0.863 0.228 170 171 165 0
-4.5821 27.5599 -51.9665 -0.475 -0.877 0.075 173 172 167 0
-4.4286 27.4058 -51.9984 -0.681 -0.718 -0.144 174 174 173 0
4.1726 40.9256 -61.8821 -0.934 -0.136 0.330 181 180 174 0
2.7204 26.0540 -55.6135 -0.617 -0.738 -0.273 178 180 167 0
3.9015 5.7175 -48.8619 0.505 -0.862 -0.026 179 168 162 0
3.2603 3.2368 -47.5870 -0.298 -0.697 -0.652 179 168 163 0
3.5057 3.3174 -47.7575 -0.223 -0.724 -0.653 178 168 163 0
-11.7234 -22.0760 -29.7259 -0.054 -0.602 -0.797 175 162 154 0
-70.7368 72.7719 -30.7633 -0.629 -0.777 0.021 234 225 222 0
-28.2391 50.4422 -47.0199 -0.429 -0.893 0.137 210 197 196 0
-27.9239 51.1331 -47.4553 0.408 -0.901 0.147 208 194 194 0
-23.9830 33.5672 -43.2658 -0.301 -0.564 -0.769 141 62 75 0
-22.8389 33.3397 -43.8408 -0.652 -0.473 -0.593 125 46 63 0
-22.4664 30.5116 -43.0155 -0.933 -0.355 0.057 129 51 66 0
-22.3238 30.2759 -43.0109 -0.909 -0.414 -0.041 123 45 61 0
-21.4858 29.6752 -43.2725 -0.814 -0.565 -0.134 114 37 52 0
-19.3930 27.8652 -43.8119 -0.727 -0.626 0.281 103 32 43 0
-13.9695 29.3089 -47.4651 -0.452 -0.879 -0.153 92 35 44 0
-13.6815 29.5717 -47.7275 0.007 -1.000 -0.015 90 32 44 0
-11.0650 31.8189 -50.0600 0.461 -0.866 0.193 89 42 52 0
-10.9031 31.6614 -50.0953 0.395 -0.917 0.060 89 42 52 0
-3.3270 42.8381 -58.5663 -0.353 -0.936 -0.021 107 93 101 0
-4.4720 35.3630 -55.1588 -0.284 -0.430 0.857 140 136 135 0
-4.9288 33.5779 -54.2395 0.265 -0.964 -0.023 145 141 141 0
-5.2130 32.2581 -53.5907 -0.467 -0.850 0.244 151 146 147 0
-5.6464 30.5689 -52.7200 -0.689 -0.669 0.278 153 149 150 0
-5.6296 30.0478 -52.5381 -0.603 -0.667 0.438 156 152 153 0
-4.6323 27.6309 -52.2237 -0.405 -0.884 0.232 174 174 169 0
-0.0486 6.3353 -47.0329 -0.249 -0.964 0.093 180 175 167 0
3.6593 3.6349 -48.1747 -0.224 -0.729 -0.647 175 167 160 0
32.9314 26.9923 -73.6148 -0.940 -0.338 -0.046 152 138 125 0
-38.7818 23.5318 -31.2754 0.061 -0.997 0.047 230 226 227 0
-31.3644 33.7551 -39.3348 0.034 -0.355 0.934 220 206 206 0
-28.3812 50.1516 -47.1210 -0.346 -0.916 0.202 213 199 198 0
-27.7950 51.2125 -47.8516 0.180 -0.976 -0.122 206 192 192 0
-25.3280 36.3737 -43.7844 -0.959 -0.237 -0.152 143 65 81 0
-24.5738 34.0268 -43.3511 -0.588 -0.523 -0.617 139 58 72 0
-24.1448 34.1920 -43.6595 -0.423 -0.567 -0.707 134 54 68 0
-23.9295 34.2743 -43.8142 -0.341 -0.559 -0.756 133 55 69 0
-23.7099 34.3744 -43.9779 -0.348 -0.560 -0.752 133 55 69 0
-23.5514 34.1709 -43.9939 -0.461 -0.544 -0.701 132 54 68 0
-23.0986 33.4667 -43.9945 -0.640 -0.443 -0.627 128 47 64 0
-22.8273 33.8078 -44.2772 -0.665 -0.465 -0.585 128 47 63 0
-22.7546 30.4725 -43.0852 -0.818 -0.544 -0.188 123 43 59 0
-22.5036 30.7266 -43.3239 -0.932 -0.357 0.063 121 41 58 0
-22.3244 30.6523 -43.3998 -0.843 -0.474 -0.254 120 40 57 0
-22.1864 30.3953 -43.3843 -0.812 -0.548 -0.201 121 40 57 0
-22.0215 30.2595 -43.4291 -0.645 -0.741 -0.188 119 38 55 0
-21.4498 28.5285 -43.1184 -0.556 -0.774 -0.304 116 38 52 0
-19.6544 27.9267 -43.9311 -0.458 -0.820 0.344 105 35 46 0
-15.1872 28.9411 -46.8824 -0.433 -0.854 -0.288 94 36 46 0
-14.8812 29.2811 -47.1846 -0.313 -0.722 -0.617 94 37 46 0
-14.0517 29.3101 -47.6737 -0.461 -0.855 -0.240 94 37 46 0
-3.4849 42.6605 -58.7061 -0.224 -0.963 0.149 111 99 107 0
-3.2263 42.7014 -58.8703 -0.358 -0.918 0.171 116 105 113 0
-5.4357 33.6577 -54.2506 -0.113 -0.993 0.012 139 135 134 0
-5.5703 32.1283 -53.6071 -0.474 -0.850 0.227 148 144 144 0
-5.3603 32.0934 -53.7153 -0.485 -0.843 0.230 153 150 151 0
-4.8719 32.7747 -54.2490 0.167 -0.975 0.147 154 152 153 0
-5.0628 27.8362 -52.3119 -0.425 -0.627 0.653 173 172 168 0
2.1934 37.3892 -60.0303 -0.859 -0.281 0.428 180 177 174 0
8.5796 45.3399 -66.6543 -0.350 -0.633 0.690 179 179 171 0
8.5932 44.7958 -66.4609 -0.494 -0.573 0.654 178 180 171 0
-0.0546 5.7766 -47.0388 -0.364 -0.861 0.355 182 172 166 0
5.1690 11.1301 -52.0315 -0.225 -0.956 -0.191 180 172 161 0
4.7351 6.2660 -49.9818 0.627 -0.719 0.300 174 166 155 0
4.9967 6.3608 -50.1677 0.625 -0.717 0.309 176 167 158 0
6.2200 6.9942 -51.1075 -0.141 -0.546 -0.826 172 163 154 0
23.7666 18.4859 -65.4771 -0.397 -0.497 -0.772 158 146 135 0
24.7113 17.7698 -65.7570 -0.080 -0.667 -0.741 151 139 127 0
32.9382 27.0879 -73.9483 -0.944 -0.329 -0.032 154 137 126 0
-31.0935 33.6281 -39.6938 0.120 -0.578 0.807 219 205 203 0
-28.0200 48.7717 -47.1061 0.426 -0.724 0.542 206 189 191 0
-27.8500 48.4397 -47.0808 0.434 -0.597 0.674 204 185 187 0
-26.3765 53.9909 -49.9982 -0.819 -0.574 0.008 199 171 176 0
-26.0212 39.8716 -44.9476 -0.926 -0.109 -0.363 156 84 98 0
-26.0006 37.6251 -44.1232 -0.484 -0.571 -0.663 150 75 91 0
-24.8772 34.9781 -43.7868 -0.646 -0.555 -0.524 146 66 80 0
-24.7215 34.7498 -43.7917 -0.646 -0.561 -0.518 143 63 78 0
-24.5426 34.6450 -43.8560 -0.439 -0.600 -0.669 140 61 75 0
-24.3490 34.6160 -43.9570 -0.456 -0.595 -0.662 136 57 71 0
-24.1684 34.5202 -44.0257 -0.671 -0.535 -0.513 133 56 69 0
-24.0132 34.2965 -44.0320 -0.666 -0.535 -0.519 133 56 69 0
-23.8490 34.1208 -44.0615 -0.666 -0.535 -0.519 133 55 69 0
-23.6763 33.9890 -44.1122 -0.673 -0.531 -0.515 132 54 68 0
-22.5596 33.5956 -44.6108 -0.852 -0.319 -0.415 127 46 62 0
-22.9750 30.7454 -43.3098 -0.801 -0.559 -0.213 125 44 60 0
-22.8136 30.5908 -43.3455 -0.802 -0.558 -0.212 125 44 61 0
-22.6642 30.3826 -43.3543 -0.804 -0.554 -0.215 123 42 58 0
-22.5162 30.1705 -43.3608 -0.804 -0.554 -0.215 121 40 57 0
-22.3671 29.9661 -43.3709 -0.844 -0.495 -0.208 120 39 56 0
-21.6136 30.6984 -44.0787 -0.750 -0.661 -0.010 117 40 55 0
-21.5154 28.6018 -43.3549 -0.536 -0.762 -0.364 118 40 54 0
-19.7657 27.8126 -44.0717 -0.510 -0.829 0.231 106 35 48 0
-16.9732 29.3557 -46.2591 -0.918 -0.282 0.278 95 32 46 0
-16.9549 28.7043 -46.0272 -0.668 -0.734 -0.121 94 32 47 0
