ply
format ascii 1.0
element vertex 813
property float x
property float y
property float z
property float nx
property float ny
property float nz
property uchar diffuse_red
property uchar diffuse_green
property uchar diffuse_blue
property uchar class
end_header
-5.0698 34.6296 -53.0979 -0.528 -0.631 0.569 111 97 98 0
-4.6326 34.5689 -53.3548 -0.715 -0.624 0.315 124 113 114 0
-4.5900 34.1583 -53.2503 -0.740 -0.673 0.014 129 120 119 0
-1.8428 32.5798 -54.4816 0.768 -0.482 0.421 168 169 163 0
-1.8815 32.0331 -54.2820 0.766 -0.576 0.283 171 172 166 0
0.4712 28.4736 -54.6294 0.190 -0.870 0.455 179 179 169 0
-0.2122 26.3788 -53.5265 0.704 -0.710 0.033 181 181 171 0
12.6200 31.4063 -63.2495 0.851 -0.415 0.320 182 178 171 0
18.4188 29.0179 -66.1507 0.403 -0.796 -0.452 182 175 163 0
16.7683 26.0351 -64.1519 -0.430 -0.493 0.757 181 173 161 0
14.5284 22.6424 -61.6492 -0.436 -0.587 0.682 181 172 162 0
20.8962 25.1511 -66.4785 0.568 -0.813 0.131 175 165 155 0
21.5746 25.6672 -67.0727 0.622 -0.765 0.166 175 167 155 0
22.0810 25.9618 -67.4872 0.619 -0.769 0.160 176 167 156 0
8.6118 7.3067 -52.9969 -0.904 -0.237 0.356 174 165 154 0
14.9187 11.5719 -58.3503 0.296 -0.303 0.906 173 161 155 0
30.3384 24.7204 -72.3102 -0.954 -0.268 -0.135 164 151 142 0
30.5989 23.4035 -72.0531 -0.868 -0.463 -0.178 246 247 246 0
30.7438 23.2452 -72.0940 -0.766 -0.604 -0.219 255 255 255 0
31.9027 24.1940 -73.1305 -0.829 -0.560 0.014 255 255 255 0
-68.0807 63.7427 -22.8605 -0.470 -0.882 -0.038 255 255 255 0
-67.8465 63.2681 -22.8558 -0.792 -0.539 0.287 255 255 255 0
-67.7057 63.5333 -23.0305 -0.478 -0.878 -0.025 255 255 255 0
-66.9667 63.2025 -23.3918 -0.483 -0.875 -0.047 234 221 218 0
-66.7669 62.9936 -23.4510 -0.644 -0.765 0.023 234 224 219 0
-66.6174 63.2121 -23.6161 -0.574 -0.818 0.046 235 224 218 0
-31.5203 42.8887 -39.2898 -0.457 -0.867 0.196 219 205 202 0
-31.2351 43.3616 -39.6230 0.175 -0.764 0.621 217 204 199 0
-28.0474 51.3473 -44.2175 -0.285 -0.416 0.864 202 179 177 0
-27.8718 51.1400 -44.2618 -0.314 -0.416 0.853 204 179 175 0
-27.6981 50.9253 -44.3025 -0.314 -0.416 0.853 203 174 171 0
-27.1626 36.3695 -39.9470 -0.839 -0.238 0.490 145 69 82 0
-26.6531 36.0404 -40.1636 -0.803 -0.394 -0.447 144 61 76 0
-25.3678 32.6370 -39.8799 0.072 -0.992 0.100 133 45 59 0
-25.2499 32.3515 -39.8626 -0.211 -0.951 -0.226 133 45 59 0
-24.6933 33.7168 -40.6554 0.279 -0.565 0.777 132 44 60 0
-24.5707 33.4423 -40.6445 0.168 -0.523 0.835 131 43 59 0
-24.5988 32.6128 -40.3592 -0.492 -0.870 -0.027 131 43 59 0
-24.4309 32.5144 -40.4338 -0.514 -0.857 -0.023 131 43 59 0
-24.2365 32.5127 -40.5563 -0.534 -0.844 0.052 131 42 58 0
-23.7214 31.5635 -40.5764 -0.425 -0.844 0.328 119 36 51 0
-23.5767 31.3879 -40.6115 -0.428 -0.846 0.317 118 36 50 0
-18.8360 28.9265 -42.8201 -0.650 -0.729 -0.216 103 27 39 0
-18.6679 28.8358 -42.8973 -0.657 -0.692 -0.299 103 27 39 0
-16.8598 27.1826 -43.5093 0.098 -0.971 -0.218 90 26 37 0
-12.4945 29.4369 -47.0010 -0.909 -0.208 0.361 87 34 42 0
-10.7913 29.9494 -48.2450 -0.471 -0.745 -0.472 84 37 47 0
-10.5934 29.9086 -48.3573 0.381 -0.783 -0.491 86 41 49 0
-10.1406 30.4671 -48.8242 0.248 -0.815 -0.523 84 41 47 0
-5.2715 34.9032 -53.3387 -0.340 -0.656 0.674 111 97 97 0
-5.1231 34.7188 -53.3732 -0.340 -0.669 0.661 115 103 103 0
-4.9167 34.6617 -53.4856 -0.319 -0.664 0.676 123 111 113 0
-4.6129 34.8155 -53.7276 -0.337 -0.600 0.726 128 117 118 0
-4.7403 34.0359 -53.3955 -0.290 -0.697 0.656 133 123 124 0
-3.1137 31.6125 -53.6440 0.217 -0.823 0.525 165 162 159 0
-2.6721 32.0374 -54.0608 0.226 -0.843 0.488 168 164 161 0
-1.8508 31.8093 -54.5074 0.744 -0.601 0.291 173 174 169 0
-0.4669 26.0713 -53.5332 0.634 -0.771 -0.067 180 180 172 0
5.9427 16.7920 -54.5998 0.400 -0.761 -0.511 185 175 171 0
-0.5005 5.0988 -46.7477 -0.370 -0.827 0.423 184 174 167 0
16.6454 25.9818 -64.3423 -0.405 -0.488 0.773 181 173 161 0
8.1272 7.0625 -52.8453 -0.721 -0.239 0.650 176 169 154 0
8.3235 7.0323 -52.9599 -0.820 -0.233 0.523 175 167 154 0
30.6132 23.5060 -72.3902 -0.868 -0.463 -0.178 246 246 247 0
30.7589 23.3481 -72.4315 -0.766 -0.604 -0.219 255 254 255 0
-68.0251 63.7598 -23.1771 -0.465 -0.884 -0.052 255 255 255 0
-67.8351 63.6366 -23.2576 -0.464 -0.884 -0.049 255 255 255 0
-67.4648 63.4672 -23.4376 -0.478 -0.878 -0.035 70 66 65 0
-66.9003 63.1389 -23.6891 -0.553 -0.828 0.086 233 224 219 0
-27.8409 50.7572 -44.4495 -0.291 -0.262 0.920 204 177 175 0
-27.0801 36.2948 -40.2351 -0.688 -0.613 -0.388 146 68 82 0
-24.8513 33.4734 -40.7328 0.217 -0.976 -0.012 133 45 61 0
-24.7911 32.9661 -40.6063 -0.897 -0.432 0.091 132 44 60 0
-24.6132 32.9024 -40.6984 -0.895 -0.438 0.084 131 44 60 0
-24.5103 32.5615 -40.6530 -0.486 -0.865 -0.126 131 44 60 0
-24.3291 32.5115 -40.7517 -0.478 -0.878 0.035 132 44 60 0
-23.7691 31.7191 -40.8497 -0.458 -0.765 0.452 118 35 49 0
-23.6207 31.5547 -40.8904 -0.451 -0.785 0.425 118 36 50 0
-19.8447 29.7464 -42.6989 0.376 -0.742 -0.555 112 30 44 0
-19.7202 28.9212 -42.5098 -0.428 -0.864 -0.265 106 26 39 0
-19.5929 28.7097 -42.5219 -0.467 -0.847 -0.253 107 27 40 0
-19.2302 28.6116 -42.7201 -0.245 -0.922 -0.299 106 28 41 0
-19.0364 28.5987 -42.8390 -0.245 -0.922 -0.299 104 28 40 0
-18.4501 28.5685 -43.2012 -0.687 -0.668 -0.286 98 26 40 0
-18.3138 28.3867 -43.2285 -0.873 -0.483 -0.064 94 25 38 0
-12.6407 30.3502 -47.4656 -0.860 -0.429 0.277 86 32 40 0
-12.6581 29.2532 -47.0983 -0.894 -0.291 0.340 86 35 43 0
-12.5632 28.9673 -47.0657 -0.848 -0.411 0.334 86 34 42 0
-12.2450 29.2306 -47.3531 -0.494 -0.864 0.095 85 34 42 0
-11.0786 30.5084 -48.5081 -0.227 -0.793 -0.565 84 37 46 0
-10.5813 30.1502 -48.7073 0.338 -0.786 -0.517 84 41 50 0
-10.2926 30.3216 -48.9462 -0.095 -0.737 -0.670 82 41 49 0
-9.9843 30.5363 -49.2115 -0.306 -0.835 -0.457 85 44 51 0
-9.6386 30.8351 -49.5279 0.391 -0.794 -0.466 85 44 52 0
-6.0331 35.4865 -53.3262 -0.632 -0.454 0.628 85 61 67 0
-5.4486 35.2347 -53.6152 -0.615 -0.556 0.560 108 94 94 0
-4.8617 33.9756 -53.5786 -0.336 -0.739 0.584 134 124 125 0
-3.0250 30.5724 -53.6387 -0.857 -0.201 0.474 171 170 166 0
-2.9647 30.2314 -53.5662 -0.864 -0.204 0.460 173 174 168 0
-3.1029 29.0432 -53.0926 -0.229 -0.865 0.447 175 174 171 0
-2.8948 29.0031 -53.2116 -0.035 -0.889 0.457 176 175 171 0
-0.6107 25.9652 -53.6741 0.634 -0.771 -0.067 178 178 171 0
0.5076 27.1590 -54.7713 0.715 -0.696 0.068 179 178 174 0
-0.5813 5.0767 -46.9085 0.026 -0.789 0.614 184 175 166 0
13.5087 23.5550 -61.8496 -0.499 -0.491 0.714 182 173 164 0
16.6052 24.2723 -64.0472 -0.371 -0.909 -0.188 178 170 160 0
18.1907 21.5837 -64.1798 0.463 -0.469 0.752 177 167 156 0
30.6275 23.6089 -72.7284 -0.868 -0.463 -0.178 246 246 247 0
30.7775 23.4551 -72.7736 -0.760 -0.610 -0.223 255 254 255 0
-68.1477 63.8062 -23.3907 -0.464 -0.885 -0.031 255 255 255 0
-67.9637 63.7318 -23.4833 -0.486 -0.873 -0.040 255 255 255 0
-67.7767 63.6337 -23.5701 -0.472 -0.881 -0.041 135 135 135 0
-67.5900 63.5377 -23.6573 -0.472 -0.881 -0.041 69 65 64 0
-67.0529 63.4419 -23.9674 -0.558 -0.821 0.119 232 224 218 0
-30.9495 44.9429 -40.8643 -0.390 -0.875 -0.288 218 204 203 0
-28.3541 53.1399 -45.1947 -0.594 0.021 0.804 209 192 188 0
-28.4118 51.7134 -44.6915 -0.641 -0.096 0.762 207 187 184 0
-27.9775 50.6190 -44.6096 -0.384 -0.259 0.886 203 178 177 0
-24.7911 33.3143 -40.9754 0.213 -0.930 0.300 130 44 60 0
-24.6428 33.1374 -41.0118 -0.360 -0.930 -0.078 130 44 60 0
-24.5137 32.8911 -41.0133 -0.317 -0.948 -0.029 130 44 59 0
-24.3827 32.6538 -41.0190 -0.283 -0.957 -0.065 131 44 60 0
-24.0643 30.9918 -40.6778 -0.556 -0.820 0.139 119 36 52 0
-23.8560 31.0446 -40.8275 -0.294 -0.944 -0.149 118 35 51 0
-23.4613 29.0635 -40.4304 0.183 -0.982 -0.055 115 38 54 0
-21.9288 29.6648 -41.6011 -0.589 -0.774 -0.231 111 34 48 0
-19.7749 29.0253 -42.7610 -0.428 -0.864 -0.265 108 28 41 0
-18.6150 28.9270 -43.4660 -0.660 -0.694 -0.288 99 26 39 0
-18.5215 28.6187 -43.4247 -0.723 -0.631 -0.281 96 25 39 0
-13.4532 28.5383 -46.6197 -0.126 -0.469 0.874 86 33 42 0
-13.0376 29.0548 -47.0528 -0.100 -0.532 0.841 87 35 45 0
-12.7213 29.3181 -47.3399 -0.889 -0.457 -0.013 85 35 46 0
-12.3739 29.1333 -47.5003 -0.474 -0.875 0.095 85 35 46 0
-7.9847 33.8609 -51.8362 0.487 -0.869 -0.085 86 51 58 0
-7.7070 33.9791 -52.0514 0.485 -0.871 -0.077 85 53 60 0
-6.3054 35.6101 -53.4756 -0.675 -0.441 0.592 86 62 68 0
-5.0762 34.2170 -53.8013 -0.518 -0.685 0.513 133 122 125 0
-4.9180 34.0563 -53.8493 -0.533 -0.667 0.521 138 127 131 0
-4.6156 34.2072 -54.0908 -0.506 -0.660 0.555 141 131 132 0
-4.0080 33.5143 -54.2504 -0.018 -0.998 0.062 154 148 147 0
-5.0532 30.8240 -52.7062 -0.303 -0.864 0.402 156 152 149 0
-8.1714 23.3782 -48.2892 -0.606 -0.518 0.604 158 159 154 0
-3.1242 30.5544 -53.8440 -0.859 -0.212 0.466 173 172 168 0
-3.0626 30.2152 -53.7723 -0.762 -0.275 0.586 174 173 169 0
2.0092 37.3932 -59.3434 -0.695 -0.630 0.346 177 178 173 0
-2.4694 24.7774 -52.3709 -0.510 -0.731 0.454 180 177 172 0
-2.2106 24.8426 -52.5567 0.424 -0.870 -0.250 179 176 171 0
-0.8234 25.7330 -53.7296 0.702 -0.693 0.166 175 174 170 0
-0.3669 26.1483 -54.1556 0.705 -0.706 0.060 177 176 172 0
0.2216 26.7980 -54.7421 0.716 -0.697 0.045 179 178 175 0
0.6138 27.0873 -55.0860 0.714 -0.693 0.101 180 179 174 0
-4.3326 9.1189 -46.0656 -0.125 -0.627 0.769 181 176 172 0
-1.0323 5.0957 -46.8475 0.036 -0.811 0.584 183 175 165 0
-0.7869 4.8782 -46.9324 0.028 -0.897 0.442 183 175 164 0
-0.2828 5.0249 -47.3007 -0.210 -0.966 -0.153 184 174 165 0
-0.2513 4.7882 -47.2433 0.311 -0.937 -0.161 183 174 165 0
13.7952 23.3624 -62.2458 0.105 -0.714 -0.692 181 172 163 0
4.6750 5.0523 -50.4608 -0.606 -0.278 0.746 176 165 154 0
30.3530 23.7133 -72.8844 -0.894 -0.399 -0.205 51 50 51 0
33.1296 25.4726 -75.2246 -0.864 -0.444 -0.236 254 255 255 0
-68.2194 63.4566 -23.5066 -0.790 -0.533 0.303 255 255 255 0
-68.0843 63.7617 -23.6931 -0.465 -0.884 -0.042 255 255 255 0
-67.9024 63.7053 -23.7903 -0.477 -0.878 -0.037 135 136 135 0
-67.7163 63.6156 -23.8793 -0.472 -0.881 -0.041 69 65 64 0
-67.1758 63.4940 -24.1834 -0.558 -0.821 0.119 232 224 218 0
-67.1987 65.1548 -24.7158 -0.312 -0.896 0.315 234 225 218 0
-30.1699 45.3109 -41.7578 -0.284 -0.951 0.123 213 198 195 0
-28.5328 51.6562 -44.8897 -0.653 -0.124 0.747 209 190 186 0
-28.3928 51.2608 -44.8486 -0.786 -0.449 0.425 207 186 184 0
-27.0719 37.1467 -41.0418 -0.255 -0.843 -0.473 145 67 81 0
-24.8942 33.2768 -41.1539 0.300 -0.923 0.240 130 46 61 0
-24.6407 33.4932 -41.3866 0.180 -0.957 0.226 130 47 61 0
-24.4660 33.4127 -41.4713 -0.090 -0.985 -0.151 129 46 60 0
-24.3860 32.9831 -41.3808 0.210 -0.916 -0.341 129 46 61 0
-24.2134 32.8972 -41.4624 0.318 -0.888 -0.333 128 46 60 0
-22.8722 30.7249 -41.6010 -0.776 -0.623 -0.099 113 36 53 0
-22.6889 30.0254 -41.4873 -0.613 -0.751 -0.246 113 39 54 0
-22.0942 30.0584 -41.8769 0.055 -0.858 -0.511 118 43 58 0
-21.9828 29.7822 -41.8569 -0.589 -0.774 -0.231 112 36 52 0
-19.9697 29.3064 -42.9819 -0.392 -0.715 -0.578 108 29 42 0
-19.2972 29.5361 -43.4858 -0.420 -0.671 -0.611 105 28 41 0
-18.5740 29.8972 -44.0652 -0.818 -0.390 -0.423 101 27 39 0
-14.4845 30.9677 -47.0215 -0.815 -0.494 -0.304 90 31 41 0
-14.3543 28.0558 -46.1455 -0.897 -0.374 -0.235 86 34 42 0
-8.1240 33.7549 -51.9892 0.495 -0.866 -0.074 86 52 61 0
-5.0608 34.4554 -54.1702 -0.596 -0.803 0.016 137 127 131 0
-4.9828 34.1190 -54.1091 -0.735 -0.676 0.043 140 132 135 0
-4.6025 34.4381 -54.4564 -0.647 -0.738 0.192 143 135 138 0
-5.0634 30.9937 -53.0287 -0.585 -0.806 -0.093 158 155 153 0
1.7520 37.5678 -59.5330 -0.554 -0.575 0.602 177 178 173 0
1.9050 37.3780 -59.5679 -0.713 -0.598 0.365 178 179 174 0
-10.9392 10.4821 -42.5328 0.024 -0.789 0.614 178 178 170 0
-10.6549 10.6661 -42.7744 -0.332 -0.774 0.539 177 177 169 0
-10.5676 10.4753 -42.7671 -0.306 -0.795 0.523 179 178 171 0
-2.5624 24.7619 -52.5689 -0.543 -0.719 0.433 181 178 170 0
-2.1916 25.0361 -52.8953 0.134 -0.988 -0.077 177 176 171 0
-4.8472 8.7185 -45.8309 -0.704 -0.466 0.535 181 176 173 0
-0.3413 5.0343 -47.4866 -0.305 -0.942 -0.140 181 173 162 0
0.0708 5.3300 -47.8464 0.230 -0.854 -0.467 181 172 163 0
19.6270 28.9131 -68.0642 0.224 -0.711 -0.666 178 169 160 0
21.7072 17.4738 -65.6216 -0.156 -0.599 -0.786 164 154 145 0
21.7377 16.6057 -65.3552 -0.181 -0.597 -0.781 164 153 142 0
30.3808 23.8321 -73.2381 -0.894 -0.399 -0.205 51 50 50 0
-68.3367 63.4622 -23.7100 -0.786 -0.546 0.290 255 255 255 0
-68.2165 63.8817 -23.9257 -0.477 -0.878 -0.037 255 255 255 0
-68.0292 63.7835 -24.0126 -0.477 -0.878 -0.037 135 135 136 0
-67.8419 63.6852 -24.0995 -0.477 -0.878 -0.037 68 65 64 0
-67.6536 63.5797 -24.1846 -0.477 -0.878 -0.038 230 219 217 0
-67.2909 63.4804 -24.3831 -0.561 -0.818 0.126 233 224 219 0
-30.5076 45.1548 -41.7686 -0.017 -0.998 0.066 217 203 200 0
-25.5828 33.2360 -40.9579 0.122 -0.989 -0.083 132 48 61 0
-25.3981 33.1980 -41.0631 -0.292 -0.928 0.233 130 46 59 0
-25.1806 33.2848 -41.2306 -0.416 -0.835 0.359 129 45 60 0
-23.0873 31.6457 -42.0223 -0.404 -0.774 -0.488 113 36 52 0
-22.7412 30.1534 -41.7483 -0.613 -0.751 -0.246 111 36 51 0
-21.9110 29.0375 -41.9078 -0.638 -0.767 -0.063 109 33 47 0
-21.7141 27.8029 -41.6240 -0.793 -0.498 0.352 109 32 45 0
-19.9751 28.9594 -43.1167 -0.238 -0.824 -0.513 107 30 40 0
-18.8152 30.0460 -44.2168 -0.724 -0.490 -0.486 102 29 40 0
-18.6899 29.8209 -44.2221 -0.728 -0.484 -0.485 100 28 40 0
-18.4899 29.8167 -44.3483 -0.646 -0.575 -0.502 99 27 39 0
-17.9717 28.9836 -44.4026 -0.584 -0.762 -0.280 96 28 41 0
-14.4929 31.1867 -47.3520 -0.816 -0.522 -0.249 89 32 40 0
-13.7228 29.3645 -47.2390 -0.115 -0.966 -0.234 87 36 42 0
-13.1078 29.3263 -47.6186 0.159 -0.987 -0.007 88 35 49 0
-12.9462 29.2036 -47.6810 0.201 -0.978 0.048 87 37 51 0
-9.3538 33.1954 -51.2959 0.364 -0.724 -0.586 88 48 57 0
-8.6457 34.3410 -52.1275 0.392 -0.724 -0.567 88 50 61 0
-8.1182 33.9861 -52.3463 0.428 -0.890 -0.160 87 54 64 0
-6.7536 35.5503 -53.7353 -0.075 -0.977 -0.202 92 67 74 0
1.7859 37.8246 -59.9362 -0.267 -0.794 0.545 175 176 171 0
1.8714 37.5013 -59.8836 -0.699 -0.610 0.374 176 177 172 0
2.1737 37.1152 -59.9484 -0.699 -0.610 0.374 176 177 171 0
-11.0314 10.4427 -42.6817 -0.089 -0.785 0.613 176 178 168 0
-10.7502 10.6212 -42.9202 0.314 -0.747 0.586 176 178 168 0
-10.5609 10.6235 -43.0417 -0.276 -0.507 0.816 179 180 171 0
-2.6741 24.7113 -52.7434 -0.718 -0.658 0.226 179 177 169 0
-2.2898 25.0115 -53.0881 0.219 -0.966 -0.141 178 177 172 0
0.4016 27.0173 -55.4699 0.699 -0.710 0.078 176 176 169 0
8.9258 26.0153 -60.5747 0.509 -0.520 0.686 183 176 170 0
9.2026 26.0590 -60.7657 0.489 -0.513 0.705 183 177 171 0
6.8606 17.5643 -56.4553 0.124 -0.880 -0.459 183 173 166 0
-0.3631 5.3789 -47.8073 0.575 -0.809 0.118 182 174 161 0
16.4064 26.8400 -65.6196 0.087 -0.698 -0.711 178 169 160 0
20.7773 30.9569 -69.7726 0.129 -0.710 -0.693 179 170 161 0
2.4246 -0.9390 -47.4906 0.243 -0.684 0.687 170 159 147 0
21.0739 15.9326 -64.9801 -0.099 -0.537 0.838 160 149 138 0
21.3024 15.8962 -65.1137 -0.104 -0.737 0.668 161 148 139 0
-68.5362 64.0967 -24.0709 -0.468 -0.884 0.001 255 255 255 0
-68.3480 63.9933 -24.1567 -0.479 -0.876 -0.055 255 255 255 0
-68.1562 63.8618 -24.2353 -0.477 -0.878 -0.037 135 135 135 0
-67.9687 63.7635 -24.3223 -0.477 -0.878 -0.037 68 66 64 0
-67.7745 63.6121 -24.3958 -0.476 -0.879 -0.041 230 222 217 0
-33.7833 32.9731 -35.8865 -0.361 -0.926 -0.106 221 211 210 0
-30.0394 44.9383 -42.2733 -0.131 -0.991 0.018 212 197 192 0
-29.7329 45.4642 -42.6447 -0.132 -0.991 0.005 211 195 191 0
-25.6148 35.0067 -41.7848 -0.747 -0.385 0.542 136 52 67 0
-25.5655 33.6646 -41.3682 -0.473 -0.878 0.078 135 50 65 0
-25.4423 33.3867 -41.3542 -0.443 -0.892 0.090 133 48 63 0
-25.2217 33.4842 -41.5277 -0.426 -0.897 0.120 131 47 62 0
-25.0745 32.5628 -41.3142 -0.178 -0.611 0.771 131 47 62 0
-24.7260 31.6920 -41.2461 -0.078 -0.678 0.731 128 46 60 0
-23.0689 31.3473 -42.1899 -0.926 -0.346 -0.154 115 37 53 0
-22.7738 30.3494 -42.0453 -0.636 -0.731 -0.248 111 34 51 0
-22.6136 30.2315 -42.1083 -0.636 -0.731 -0.248 111 34 50 0
-22.3076 29.9493 -42.2096 -0.585 -0.784 -0.208 112 35 51 0
-22.1325 29.8821 -42.2990 -0.573 -0.795 -0.200 112 35 51 0
-21.9190 29.9406 -42.4550 -0.694 -0.704 -0.155 112 35 51 0
-22.1815 28.4481 -41.7890 -0.825 -0.549 0.132 110 33 48 0
-20.4011 29.1389 -43.1573 -0.167 -0.924 0.345 110 32 44 0
-19.8055 30.3611 -43.9459 -0.820 -0.294 0.492 107 29 42 0
-20.0797 28.9125 -43.2870 -0.301 -0.739 0.603 107 29 42 0
-19.6038 29.7560 -43.8727 -0.824 -0.549 -0.137 108 30 43 0
-19.4794 29.5283 -43.8762 -0.907 -0.396 0.142 108 31 43 0
-19.3170 29.4165 -43.9427 -0.362 -0.644 0.674 104 29 42 0
-19.2484 29.0255 -43.8560 0.128 -0.732 0.669 100 28 41 0
-18.9848 29.2154 -44.0878 -0.022 -0.649 0.760 99 28 42 0
-18.5212 29.9895 -44.6424 -0.799 -0.287 -0.529 100 28 42 0
-18.2326 29.0689 -44.5195 -0.530 -0.722 -0.444 96 28 41 0
-17.9564 29.2836 -44.7677 -0.550 -0.767 -0.330 96 28 42 0
-14.5154 31.3700 -47.6629 -0.816 -0.522 -0.249 89 33 42 0
-13.4920 29.6458 -47.7412 0.179 -0.931 -0.319 88 34 46 0
-10.5190 32.2167 -50.4992 0.014 -0.673 -0.740 89 46 56 0
-9.8312 32.8093 -51.1365 0.283 -0.705 -0.650 90 48 60 0
-9.2066 33.7676 -51.8555 0.261 -0.704 -0.661 92 52 63 0
-7.3275 35.5113 -53.6383 0.069 -0.951 -0.300 87 60 69 0
-6.9566 35.8349 -53.9833 -0.130 -0.918 -0.374 91 66 75 0
-6.5708 35.6568 -54.1704 -0.071 -0.983 -0.172 102 85 88 0
-3.3084 29.8016 -54.3002 0.041 -0.738 -0.673 176 175 173 0
-10.8638 10.5416 -43.0427 0.403 -0.782 0.476 176 178 168 0
-10.6649 10.5624 -43.1767 0.403 -0.782 0.476 179 180 171 0
10.2596 36.5333 -65.2171 -0.294 -0.520 -0.802 179 175 171 0
8.4428 25.4028 -60.3404 0.558 -0.589 0.584 182 174 171 0
9.0515 25.9579 -60.9146 0.591 -0.677 0.438 184 176 173 0
-0.6866 1.2049 -46.4286 0.779 -0.612 0.133 174 163 157 0
3.9980 6.9110 -51.3269 0.299 -0.932 0.207 176 166 157 0
8.8656 10.3920 -55.5992 -0.753 -0.445 0.486 173 163 153 0
21.3209 19.3593 -66.5515 -0.929 -0.348 -0.124 165 155 145 0
21.3278 16.6053 -65.6365 -0.226 -0.714 0.662 161 151 138 0
-68.8390 64.1788 -24.1830 -0.253 -0.945 -0.208 255 255 255 0
-68.6622 64.1632 -24.2908 -0.468 -0.884 0.001 255 255 255 0
-68.4791 64.1001 -24.3869 -0.496 -0.868 -0.012 255 255 255 0
-68.2834 63.9403 -24.4584 -0.477 -0.878 -0.037 135 135 135 0
-68.0957 63.8419 -24.5455 -0.477 -0.878 -0.037 68 65 64 0
-67.9047 63.7168 -24.6257 -0.472 -0.881 -0.040 230 221 216 0
-33.5961 32.5204 -36.1009 -0.100 -0.916 0.390 221 211 210 0
-31.0233 44.5882 -41.8040 -0.455 -0.527 0.718 217 206 204 0
-30.3856 44.7379 -42.2625 -0.165 -0.964 0.210 217 202 201 0
-30.1034 45.1476 -42.5809 -0.174 -0.979 0.105 214 199 197 0
-29.8785 45.2499 -42.7592 -0.142 -0.990 -0.023 211 196 195 0
-29.7516 44.8444 -42.7041 -0.201 -0.959 0.201 211 195 196 0
-28.7687 48.8094 -44.6660 -0.564 -0.566 0.601 210 191 192 0
-26.5762 37.9547 -42.4210 -0.733 -0.299 -0.611 147 69 82 0
-26.4692 37.5651 -42.3585 -0.733 -0.299 -0.611 146 66 81 0
-25.8252 36.9273 -42.5563 -0.714 -0.310 -0.628 142 58 73 0
-25.6571 36.0015 -42.3528 -0.920 -0.338 -0.196 138 54 69 0
-25.4561 33.6945 -41.7060 -0.476 -0.830 0.289 137 49 66 0
-25.2789 33.6234 -41.7955 -0.644 -0.741 0.192 133 48 64 0
-22.6282 30.4880 -42.4384 -0.822 -0.544 -0.165 115 37 53 0
-22.4893 30.2971 -42.4631 -0.815 -0.566 -0.126 117 41 55 0
-22.1703 30.0557 -42.5861 -0.539 -0.827 -0.161 115 38 54 0
-21.9186 30.2388 -42.8088 -0.707 -0.695 -0.135 111 34 50 0
-21.4304 28.6526 -42.5882 -0.303 -0.924 0.234 110 35 46 0
-20.1297 30.8797 -44.1693 -0.566 -0.714 -0.413 111 34 44 0
-19.5179 29.0829 -43.9570 -0.308 -0.622 0.720 104 29 42 0
-18.5068 27.9583 -44.2262 -0.804 -0.536 0.257 98 30 44 0
-18.3811 27.7479 -44.2360 -0.695 -0.514 0.504 97 31 43 0
-13.5532 29.7190 -47.9888 0.179 -0.931 -0.319 89 35 48 0
-9.0040 34.4747 -52.4992 0.209 -0.653 -0.728 89 51 62 0
-9.0459 33.8384 -52.2585 -0.207 -0.908 -0.365 87 52 62 0
-8.5997 34.3604 -52.7196 -0.055 -0.810 -0.584 87 55 63 0
-7.2429 35.9295 -54.1155 -0.367 -0.879 -0.303 90 66 74 0
-6.9276 36.1231 -54.3824 -0.702 -0.698 -0.141 94 73 80 0
-6.7702 35.9508 -54.4252 -0.273 -0.916 -0.295 100 79 85 0
-6.6042 35.7986 -54.4803 0.115 -0.989 -0.095 106 89 94 0
-4.7489 38.4036 -56.5435 -0.078 -0.972 0.223 117 108 109 0
-11.0508 10.6802 -43.1913 -0.475 -0.348 0.809 175 176 168 0
-10.8037 10.7932 -43.3874 0.376 -0.828 0.416 175 176 168 0
0.0236 26.6463 -55.6465 0.665 -0.727 -0.169 178 176 171 0
10.5597 38.0981 -66.2398 -0.292 -0.553 -0.780 181 177 174 0
10.5406 37.6136 -66.0648 -0.314 -0.515 -0.798 179 175 172 0
11.0080 37.9481 -66.4764 -0.317 -0.513 -0.797 177 175 170 0
11.4670 38.2648 -66.8766 -0.322 -0.510 -0.798 178 176 171 0
-4.0269 8.4676 -46.9436 -0.679 -0.663 -0.316 180 175 168 0
-1.8587 4.2868 -46.9262 -0.282 -0.891 -0.357 181 174 163 0
17.8383 15.9258 -63.4463 0.327 -0.914 -0.242 169 156 146 0
20.5998 17.9758 -65.9030 -0.737 -0.672 -0.069 166 154 141 0
20.0079 16.9745 -65.1876 -0.722 -0.562 0.404 165 154 141 0
18.6296 14.4705 -63.4637 0.183 -0.946 0.268 160 150 140 0
-68.7860 64.2110 -24.5064 -0.501 -0.866 0.001 255 255 255 0
-68.6064 64.1759 -24.6097 -0.496 -0.868 -0.012 255 255 255 0
-68.4100 64.0123 -24.6803 -0.477 -0.878 -0.038 135 135 135 0
-68.2222 63.9140 -24.7675 -0.477 -0.878 -0.038 69 66 64 0
-30.4832 44.7709 -42.4889 -0.164 -0.960 0.225 216 202 202 0
-30.2463 44.9434 -42.6992 -0.195 -0.909 0.370 214 200 199 0
-29.1357 46.4117 -43.9082 -0.059 -0.977 0.205 209 189 190 0
-26.4923 36.2198 -42.1544 -0.891 -0.351 -0.287 148 65 80 0
-26.3449 36.0124 -42.1787 -0.917 -0.292 -0.272 147 64 77 0
-26.2019 35.7896 -42.1950 -0.904 -0.288 -0.315 145 61 75 0
-26.3440 34.4188 -41.6400 -0.936 -0.269 -0.228 142 58 73 0
-25.5326 36.8837 -42.9944 -0.901 -0.313 -0.300 142 55 71 0
-25.3704 35.1605 -42.5153 -0.407 -0.795 -0.451 140 52 70 0
-25.1836 35.1160 -42.6200 -0.416 -0.789 -0.452 140 51 69 0
-25.0352 34.9229 -42.6498 -0.459 -0.787 -0.411 137 50 67 0
-24.8664 34.8094 -42.7196 -0.463 -0.791 -0.401 135 50 66 0
-23.0775 31.9551 -42.9008 -0.851 -0.484 -0.206 119 38 55 0
-20.0301 31.4768 -44.6931 -0.610 -0.793 0.005 111 34 44 0
-19.4440 28.9757 -44.2225 -0.532 -0.834 0.147 100 28 42 0
-19.3501 28.6622 -44.1767 -0.582 -0.797 0.159 101 28 42 0
-18.4202 30.8225 -45.5040 -0.909 -0.269 -0.318 101 29 43 0
-16.8485 30.6258 -46.4452 -0.546 -0.811 0.210 94 31 45 0
-9.8932 34.1866 -52.1102 0.043 -0.882 -0.469 92 50 60 0
-8.9640 34.2568 -52.7298 -0.283 -0.793 -0.540 87 55 63 0
-7.5951 35.8704 -54.1536 -0.800 -0.538 -0.264 91 68 75 0
-7.1593 36.3475 -54.5945 -0.861 -0.463 -0.211 95 75 82 0
-6.8199 36.5951 -54.8959 -0.953 -0.299 -0.050 100 82 88 0
-6.8106 36.0786 -54.7272 -0.727 -0.685 -0.042 104 86 93 0
-5.8789 35.5476 -55.1448 -0.296 -0.716 0.632 128 120 121 0
-11.0517 10.4568 -43.3372 0.299 -0.777 0.554 176 177 169 0
-10.9881 10.2205 -43.2980 -0.087 -0.659 0.747 177 177 170 0
11.2654 39.4579 -67.4616 -0.320 -0.540 -0.779 177 176 172 0
11.8580 39.9985 -68.0246 -0.563 -0.512 -0.649 176 175 171 0
-4.0552 8.5327 -47.1725 -0.551 -0.717 -0.428 179 174 167 0
20.5706 32.5717 -71.0981 -0.065 -0.666 -0.743 177 168 160 0
0.2127 2.0458 -47.7140 0.746 -0.661 0.085 173 164 155 0
9.6941 10.4610 -56.6415 -0.401 -0.135 0.906 169 158 151 0
24.3578 22.8161 -70.2253 0.541 -0.826 0.157 167 155 143 0
24.7731 22.9791 -70.5468 0.532 -0.833 0.149 167 155 142 0
19.8090 16.8286 -65.2823 -0.740 -0.671 0.047 165 153 141 0
19.9436 16.6826 -65.3192 -0.861 -0.506 0.052 162 151 139 0
19.9788 16.4212 -65.2533 -0.867 -0.496 0.041 162 150 140 0
33.3083 30.5295 -78.5749 0.687 -0.660 0.303 158 146 134 0
-68.9103 64.2623 -24.7231 -0.479 -0.877 -0.026 255 255 255 0
-68.7192 64.1404 -24.8044 -0.450 -0.892 -0.040 255 255 255 0
-68.5374 64.0893 -24.9037 -0.470 -0.883 -0.020 135 135 135 0
-68.3482 63.9816 -24.9886 -0.477 -0.879 -0.027 68 65 64 0
-68.1524 63.8217 -25.0599 -0.487 -0.873 -0.034 228 219 214 0
-29.5238 46.0299 -43.8123 0.180 -0.898 0.401 212 196 195 0
-29.3318 45.9492 -43.9082 -0.338 -0.684 0.647 210 194 192 0
-28.5200 47.9286 -45.1040 -0.473 -0.828 0.302 206 186 185 0
-25.6726 38.3397 -43.6663 -0.893 -0.344 -0.290 147 64 78 0
-25.5111 38.1728 -43.7132 -0.773 -0.448 -0.449 144 60 75 0
-26.0100 33.0239 -41.6386 -0.929 -0.354 0.109 141 54 72 0
-25.9089 32.6613 -41.5800 -0.935 -0.327 0.141 140 53 70 0
-23.2332 31.7339 -42.9829 -0.596 -0.595 0.539 121 40 56 0
-23.0929 31.5372 -43.0060 -0.591 -0.684 0.428 120 39 56 0
-20.5626 30.7222 -44.3537 -0.163 -0.738 -0.655 112 35 45 0
-20.1133 31.5041 -44.9087 -0.576 -0.815 -0.058 111 34 44 0
-19.4571 29.2052 -44.5470 -0.614 -0.754 0.235 103 31 44 0
-19.3041 29.0657 -44.5978 -0.615 -0.753 0.233 103 31 45 0
-18.2671 31.5469 -46.1092 0.278 -0.941 -0.191 102 30 44 0
-18.4863 29.7010 -45.3395 0.626 -0.767 -0.139 101 33 46 0
-18.0941 29.0807 -45.3801 -0.273 -0.962 -0.025 101 34 47 0
-13.0183 31.0027 -49.2955 -0.188 -0.765 -0.616 92 42 53 0
-10.5534 34.4454 -52.0517 0.244 -0.663 -0.708 90 45 56 0
-7.6903 36.4161 -54.5623 -0.994 -0.105 0.032 90 68 74 0
-7.4220 36.5016 -54.7637 -0.993 -0.108 0.042 94 75 81 0
-6.0050 35.4789 -55.3256 -0.241 -0.798 0.552 133 127 127 0
7.4575 38.1207 -64.8735 0.298 -0.244 0.923 177 176 171 0
11.6981 41.7687 -68.8402 -0.302 -0.314 0.900 177 176 171 0
12.0968 40.5687 -68.6876 -0.244 -0.725 -0.644 176 175 170 0
8.9377 33.0583 -64.0996 -0.153 -0.820 -0.552 178 175 167 0
-4.1341 9.1534 -47.5588 -0.662 -0.503 -0.555 179 174 165 0
-3.8722 9.2529 -47.7609 -0.687 -0.496 -0.531 180 173 165 0
-3.1339 9.1506 -48.2003 -0.365 -0.913 -0.184 178 172 166 0
19.3055 17.8577 -65.5810 0.496 -0.846 -0.197 166 153 144 0
25.3963 23.8081 -71.5207 0.569 -0.811 0.135 167 154 144 0
26.6783 24.6509 -72.6313 0.520 -0.851 0.074 162 150 138 0
19.5591 15.7183 -65.0150 -0.725 -0.677 -0.128 157 144 136 0
-69.0364 64.3250 -24.9431 -0.481 -0.877 -0.016 255 255 255 0
-68.7445 63.4468 -24.8297 -0.792 -0.541 0.284 255 255 255 0
-68.6645 64.1619 -25.1264 -0.470 -0.883 -0.020 135 135 135 0
-68.4764 64.0638 -25.2138 -0.470 -0.883 -0.020 69 66 64 0
-68.2810 63.9092 -25.2866 -0.506 -0.862 -0.008 228 219 215 0
-32.0308 36.5494 -39.2302 0.454 -0.620 0.640 217 205 205 0
-31.8192 36.6664 -39.4065 0.411 -0.869 0.275 216 204 203 0
-27.1747 34.9928 -41.8213 -0.705 -0.708 -0.042 148 71 87 0
-26.9952 34.9274 -41.9144 -0.736 -0.675 -0.044 148 70 84 0
-26.7954 34.9455 -42.0492 -0.814 -0.580 0.007 147 68 82 0
-26.2593 34.7343 -42.3217 -0.902 -0.267 0.341 144 61 77 0
-25.4624 36.3371 -43.3842 -0.875 -0.374 -0.306 143 58 74 0
-24.8030 31.3340 -42.0926 -0.251 -0.957 -0.144 130 47 63 0
-24.1600 30.8540 -42.3418 0.505 -0.860 0.074 124 43 59 0
-23.8623 31.2217 -42.6595 0.446 -0.895 -0.032 122 41 57 0
-23.5340 31.6913 -43.0318 0.156 -0.964 -0.216 122 41 56 0
-23.1808 31.5513 -43.2110 -0.599 -0.696 0.396 119 38 53 0
-21.8479 30.0719 -43.5614 -0.684 -0.720 -0.117 113 35 51 0
-21.2535 30.7176 -44.1653 -0.659 -0.640 -0.395 114 36 50 0
-20.5782 30.9619 -44.6837 -0.128 -0.732 -0.669 112 35 45 0
-20.1874 31.5601 -45.1403 -0.560 -0.825 -0.080 111 35 45 0
-19.4503 29.4959 -44.9067 -0.353 -0.892 0.282 104 33 45 0
-19.2905 29.3744 -44.9678 -0.449 -0.658 0.604 104 32 45 0
-18.1365 29.2172 -45.6566 -0.247 -0.969 0.026 102 36 48 0
-17.3496 30.8921 -46.7374 -0.218 -0.951 -0.219 100 35 47 0
-17.0646 31.1161 -46.9976 -0.305 -0.932 -0.193 97 33 47 0
-16.8047 31.2657 -47.2161 -0.593 -0.790 -0.158 95 33 48 0
-16.5411 31.4228 -47.4397 -0.688 -0.600 -0.409 93 33 48 0
-16.3968 31.2432 -47.4709 -0.561 -0.732 -0.386 92 33 48 0
-19.3750 22.3821 -42.5154 0.397 -0.911 0.108 93 34 50 0
-5.2900 38.9344 -57.2560 0.163 -0.985 -0.063 124 114 120 0
11.4471 41.0369 -68.7475 -0.290 -0.323 0.901 176 176 168 0
12.0825 41.1806 -69.2057 -0.152 -0.766 -0.624 177 177 170 0
9.1252 33.0928 -64.5287 -0.140 -0.779 -0.612 176 175 165 0
3.3999 16.0513 -54.9999 0.616 -0.729 -0.299 180 171 163 0
11.8505 13.9740 -59.7255 0.786 -0.607 0.119 170 157 151 0
15.1945 15.1159 -62.2689 0.608 -0.779 -0.154 166 153 145 0
17.4763 16.6748 -64.2719 0.268 -0.948 -0.171 166 153 145 0
19.4412 18.1108 -66.0288 0.469 -0.847 -0.250 163 150 143 0
27.8143 25.7400 -74.0335 0.331 -0.891 0.310 159 146 137 0
25.0532 19.3512 -70.0656 -0.766 -0.639 -0.070 153 141 129 0
-69.1793 64.5113 -25.1952 -0.457 -0.888 -0.038 255 255 255 0
-68.8708 63.5158 -25.0504 -0.792 -0.541 0.284 255 255 255 0
-68.7918 64.2346 -25.3495 -0.470 -0.883 -0.020 135 135 135 0
-68.6035 64.1364 -25.4370 -0.470 -0.883 -0.020 69 65 64 0
-68.4124 64.0162 -25.5187 -0.460 -0.887 -0.044 230 220 216 0
-26.7397 53.4932 -48.7496 -0.986 -0.024 -0.163 197 176 178 0
-27.2227 34.3742 -41.8372 -0.647 -0.688 -0.329 148 71 86 0
-26.8920 34.9390 -42.2454 -0.781 -0.624 -0.026 146 69 83 0
-24.8813 31.3839 -42.3142 -0.235 -0.959 -0.156 129 46 62 0
-24.5312 31.2458 -42.4922 -0.290 -0.951 -0.109 128 47 62 0
-24.2706 30.7848 -42.5010 0.503 -0.863 0.057 123 42 57 0
-23.9726 31.1555 -42.8211 0.457 -0.888 -0.050 122 41 56 0
-23.3305 32.0398 -43.5404 -0.303 -0.935 -0.183 123 42 57 0
-23.1738 31.8971 -43.5921 -0.498 -0.843 0.203 120 40 54 0
-20.5298 31.4063 -45.1271 -0.286 -0.664 -0.691 113 36 46 0
-20.2572 31.6307 -45.3803 -0.560 -0.825 -0.080 111 35 45 0
-19.4043 29.3032 -45.1265 -0.445 -0.679 0.584 103 32 44 0
-19.1224 29.5463 -45.3922 -0.087 -0.910 0.406 101 31 43 0
-18.5376 28.8998 -45.5460 -0.810 -0.586 -0.020 100 34 46 0
-18.4454 28.5842 -45.4965 -0.788 -0.596 0.153 101 37 49 0
-17.3217 31.2350 -47.1360 0.043 -0.999 0.002 98 36 48 0
-16.4360 31.3907 -47.7607 -0.550 -0.684 -0.480 91 34 49 0
-19.6038 21.9769 -42.4685 0.400 -0.866 0.299 92 35 52 0
-12.7505 31.6046 -50.2104 0.562 -0.807 0.179 89 46 51 0
-12.4727 31.7613 -50.4436 0.630 -0.753 -0.187 90 49 54 0
-11.9922 32.4253 -50.9826 0.637 -0.754 -0.163 92 51 58 0
-10.9339 34.5259 -52.3901 0.278 -0.901 -0.332 91 50 60 0
-9.4138 37.1796 -54.2862 -0.412 -0.639 -0.650 91 50 61 0
-9.0225 37.5761 -54.6753 -0.153 -0.612 -0.776 90 52 61 0
-5.2761 41.4398 -58.4244 -0.007 -0.624 0.782 104 90 98 0
-6.0860 38.4283 -56.8626 -0.370 -0.475 0.798 117 105 114 0
-6.1427 37.7479 -56.5911 -0.538 -0.323 0.779 123 113 120 0
-5.4717 38.7443 -57.3677 -0.340 -0.352 0.872 127 120 124 0
-5.2021 38.8126 -57.5650 -0.356 -0.361 0.862 131 125 129 0
-6.0161 34.3171 -55.4882 -0.396 -0.835 -0.382 155 149 149 0
-5.4892 20.7459 -51.1423 -0.268 -0.050 0.962 177 178 173 0
6.3689 34.2511 -63.4493 -0.317 -0.318 0.894 179 174 171 0
12.8175 37.9915 -68.8977 -0.322 -0.786 -0.528 177 173 165 0
11.5827 26.6202 -64.1758 0.715 -0.697 -0.062 179 170 161 0
18.0147 34.9114 -71.1847 0.625 -0.754 -0.200 179 171 161 0
22.6837 35.8738 -74.5267 -0.428 -0.599 -0.677 175 164 161 0
-1.9442 0.4455 -46.4188 0.577 -0.810 0.105 172 161 157 0
0.5037 1.8884 -48.4950 0.670 -0.584 0.458 168 159 149 0
17.9842 17.3812 -65.1126 -0.784 -0.255 0.566 164 152 144 0
25.9426 23.9795 -72.5210 0.661 -0.454 0.597 159 145 136 0
28.1283 25.8656 -74.5812 0.066 -0.939 0.337 156 142 132 0
25.0341 19.4157 -70.3597 -0.748 -0.663 -0.031 152 140 128 0
25.2167 19.0044 -70.3354 -0.862 -0.504 0.051 98 91 85 0
-69.3076 64.5870 -25.4194 -0.457 -0.888 -0.038 255 255 255 0
-68.9915 63.5422 -25.2605 -0.788 -0.554 0.270 255 255 255 0
-68.9193 64.3074 -25.5730 -0.470 -0.883 -0.020 135 135 135 0
-68.7309 64.2091 -25.6605 -0.470 -0.883 -0.020 70 66 65 0
-68.5335 64.0424 -25.7301 -0.505 -0.863 -0.016 233 221 218 0
-51.2870 38.9733 -28.1548 -0.353 -0.863 -0.361 237 230 228 0
-37.2525 58.3734 -43.9605 -0.523 -0.450 0.724 231 226 225 0
-29.7979 53.1296 -46.9520 -0.747 -0.664 0.034 224 210 210 0
-27.2792 34.5340 -42.1157 -0.654 -0.681 -0.331 150 75 90 0
-26.9679 35.0192 -42.4854 -0.755 -0.656 -0.010 148 71 87 0
-26.6401 35.5637 -42.8863 -0.972 -0.144 0.185 145 68 82 0
-23.1991 32.1324 -43.9159 -0.352 -0.834 0.424 122 42 57 0
-23.0532 31.9508 -43.9471 -0.463 -0.886 -0.025 121 43 57 0
-22.9678 31.5614 -43.8669 -0.484 -0.872 0.066 120 42 56 0
-22.7609 31.5932 -44.0115 -0.518 -0.849 0.103 117 39 55 0
-22.4544 31.9627 -44.3379 -0.939 -0.216 0.267 116 38 54 0
-22.3928 31.4975 -44.2160 -0.941 -0.219 0.257 117 39 55 0
-19.5203 29.2252 -45.2812 -0.365 -0.703 0.611 100 32 45 0
-19.1759 29.6561 -45.6534 -0.173 -0.882 0.437 101 33 46 0
-17.4394 31.1605 -47.2976 -0.108 -0.994 -0.034 99 39 51 0
-12.7098 33.0566 -51.0109 -0.344 -0.560 -0.754 92 47 54 0
-10.9906 35.1842 -52.8605 -0.275 -0.887 -0.371 91 50 61 0
-11.0273 34.5297 -52.6095 -0.526 -0.747 -0.408 91 52 66 0
-8.9449 38.5837 -55.3632 -0.400 -0.583 -0.707 89 52 65 0
-8.1286 38.8649 -55.9880 -0.054 -0.680 -0.731 93 63 73 0
-7.3595 39.5848 -56.7349 0.145 -0.709 -0.690 92 70 77 0
-6.2153 41.7607 -58.2300 0.671 -0.596 0.441 91 72 79 0
-6.0885 38.0995 -57.0394 -0.463 -0.446 0.766 130 120 128 0
-5.3065 38.7998 -57.7879 -0.432 -0.255 0.865 136 131 135 0
7.4651 39.6097 -66.3170 -0.025 -0.390 0.920 175 176 171 0
-2.6575 11.2112 -49.9102 -0.803 -0.475 -0.358 178 173 164 0
4.0176 17.9106 -56.5492 0.781 -0.623 -0.046 178 171 163 0
4.4728 17.9070 -56.8420 0.623 -0.732 -0.275 177 170 160 0
18.3183 29.5724 -69.8373 -0.341 -0.406 0.848 170 161 154 0
18.4608 29.3918 -69.8666 -0.341 -0.406 0.848 169 160 152 0
4.1043 5.3428 -52.2373 0.800 -0.571 0.183 166 156 146 0
10.8785 13.2203 -59.3498 -0.810 -0.507 0.293 166 154 145 0
8.1841 9.4724 -56.3072 -0.897 -0.440 -0.028 167 154 146 0
10.5418 11.5946 -58.5673 0.150 -0.774 0.616 164 151 144 0
14.4074 14.0268 -61.9090 0.613 -0.729 0.305 165 152 143 0
17.8118 17.2636 -65.2324 -0.779 -0.216 0.589 160 150 140 0
17.6425 16.7489 -64.9442 0.125 -0.970 -0.210 159 148 140 0
25.0017 19.4654 -70.6407 -0.748 -0.663 -0.031 151 139 127 0
-69.1160 63.5965 -25.4780 -0.782 -0.562 0.270 255 255 255 0
-69.0477 64.3852 -25.7981 -0.484 -0.874 -0.033 135 135 135 0
-68.8590 64.2865 -25.8857 -0.477 -0.879 -0.027 70 66 65 0
-68.6617 64.1217 -25.9557 -0.505 -0.863 -0.016 231 219 217 0
-51.3842 38.8938 -28.3071 -0.324 -0.876 -0.356 236 230 227 0
-37.3606 58.4459 -44.2194 -0.671 -0.295 0.680 231 226 223 0
-37.2020 57.9552 -44.1503 -0.659 -0.324 0.678 230 225 222 0
-29.8753 53.3220 -47.2692 -0.361 -0.859 -0.363 224 210 212 0
-29.5283 52.8233 -47.3193 -0.784 -0.613 0.101 221 209 211 0
-31.5386 35.6818 -40.0220 -0.067 -0.047 0.997 214 200 200 0
-26.6356 54.0034 -49.6035 -0.976 -0.056 -0.211 203 182 184 0
-26.1442 52.0632 -49.2426 -0.950 -0.018 -0.311 189 157 162 0
-26.8916 40.0064 -44.5411 -0.796 -0.533 -0.287 162 95 108 0
-26.6566 40.1410 -44.7402 -0.758 -0.492 -0.429 162 90 106 0
-27.3449 34.6568 -42.3763 -0.678 -0.671 -0.300 155 83 97 0
-27.0395 35.1182 -42.7353 -0.754 -0.657 -0.019 153 79 94 0
-26.7073 35.6820 -43.1475 -0.972 -0.144 0.185 148 73 87 0
-23.5254 31.3116 -43.6770 -0.567 -0.813 0.136 123 45 59 0
-22.2187 34.4770 -45.6297 -0.246 -0.898 0.364 120 42 58 0
-22.2481 32.3015 -44.8496 0.057 -0.998 -0.038 118 40 56 0
-22.0307 32.3596 -45.0106 0.049 -0.998 -0.041 117 39 54 0
-18.4235 31.5666 -47.0667 -0.760 -0.510 0.402 103 40 51 0
-17.5606 31.0758 -47.4532 -0.061 -0.996 0.070 101 41 54 0
-19.9526 21.4659 -42.5438 0.452 -0.813 0.366 92 39 52 0
-11.0083 35.3812 -53.1983 -0.430 -0.824 -0.370 93 53 66 0
-11.0181 34.7912 -52.9855 -0.394 -0.801 -0.450 91 52 70 0
-8.1252 39.6938 -56.5722 -0.040 -0.691 -0.722 93 63 76 0
-6.6381 37.0536 -56.6106 -0.636 -0.570 0.520 135 128 135 0
-5.4764 38.6369 -57.9160 -0.594 -0.337 0.731 142 139 142 0
-6.3282 35.6136 -56.3073 -0.752 -0.449 0.483 153 151 152 0
-3.0977 35.9438 -58.5126 0.219 -0.935 -0.279 180 175 178 0
1.3272 30.4339 -59.4477 -0.174 -0.982 -0.070 176 177 172 0
1.7017 14.8248 -54.2291 0.783 -0.620 -0.041 176 169 161 0
5.7309 20.2904 -58.7479 0.811 -0.585 0.012 176 169 160 0
14.3494 30.9863 -68.0653 0.656 -0.708 -0.263 176 167 160 0
2.2259 3.2531 -50.5200 0.068 -0.774 0.629 165 155 145 0
8.6837 10.4930 -57.2305 -0.944 -0.291 0.156 165 153 144 0
8.7870 10.3327 -57.2413 -0.737 -0.533 -0.414 165 152 143 0
10.3658 11.4616 -58.6576 -0.100 -0.944 0.315 164 151 142 0
17.8783 17.7490 -65.7172 -0.845 -0.381 0.375 159 149 139 0
17.8423 17.3925 -65.5692 -0.834 -0.377 0.403 157 147 137 0
28.6122 26.9643 -75.8851 -0.094 -0.942 0.323 156 144 132 0
25.2833 18.6355 -70.8178 -0.827 -0.562 0.023 246 247 245 0
29.4960 22.3649 -74.8478 -0.551 -0.791 -0.267 255 255 255 0
-69.1758 64.4587 -26.0225 -0.494 -0.869 -0.028 135 135 135 0
-68.7872 64.1795 -26.1760 -0.485 -0.873 -0.054 232 221 219 0
-27.3073 51.2699 -48.5117 -0.938 -0.096 -0.332 205 186 188 0
-25.7181 54.5993 -50.7140 -0.951 -0.018 -0.309 192 162 167 0
-26.8675 40.5485 -45.0212 -0.707 -0.683 -0.183 168 102 118 0
-26.5416 40.1873 -45.1052 -0.923 -0.379 -0.068 166 94 112 0
-27.1273 35.1504 -42.9519 -0.755 -0.656 -0.030 158 84 100 0
-25.9646 37.4969 -44.5318 -0.896 -0.359 -0.262 149 72 87 0
-25.7183 37.6777 -44.7550 -0.834 -0.528 0.158 149 69 85 0
-25.6236 37.2436 -44.6635 -0.854 -0.486 0.183 149 68 84 0
-22.6887 33.8754 -45.3795 -0.268 -0.946 0.183 123 45 59 0
-22.2954 32.4569 -45.1349 -0.148 -0.985 0.083 119 41 57 0
-22.0987 32.4440 -45.2578 -0.050 -0.995 -0.081 120 42 56 0
-20.2711 30.5530 -45.7763 -0.891 -0.290 0.350 110 39 54 0
-20.3588 29.6566 -45.4038 -0.704 -0.579 0.412 108 39 53 0
-20.1905 29.5598 -45.4788 -0.648 -0.617 0.447 105 38 52 0
-20.1273 29.1410 -45.3722 -0.287 -0.547 0.786 105 39 54 0
-12.5685 34.4800 -52.1509 -0.344 -0.563 -0.751 97 50 61 0
-8.1933 38.6171 -56.4432 -0.228 -0.441 0.868 92 75 85 0
-5.9138 41.2264 -58.8393 0.525 -0.513 0.679 121 109 119 0
-6.3683 35.7407 -56.6131 -0.543 -0.389 0.744 157 157 158 0
-8.3118 1.2220 -43.1980 0.766 -0.637 -0.089 173 168 159 0
-6.9563 3.0658 -44.7258 0.766 -0.637 -0.089 174 167 159 0
8.5507 10.7061 -57.4658 -0.945 -0.283 0.163 163 153 143 0
9.6949 11.5859 -58.5171 -0.832 -0.539 0.131 164 150 141 0
12.7383 13.0429 -61.0025 0.555 -0.822 -0.131 160 150 138 0
17.5630 18.0863 -65.9053 -0.868 -0.260 0.423 160 148 136 0
17.7154 17.9576 -65.9587 -0.878 -0.270 0.394 159 147 137 0
17.8825 17.8470 -66.0280 -0.892 -0.261 0.369 158 146 137 0
21.9807 20.8825 -69.7529 0.681 -0.728 0.074 156 143 134 0
30.4353 26.1146 -77.0744 -0.936 -0.312 -0.163 149 136 127 0
-68.9209 64.2967 -26.4125 -0.461 -0.887 -0.038 231 220 219 0
-30.1389 41.8665 -43.6399 -0.607 -0.737 -0.299 213 199 201 0
-29.9494 41.8059 -43.7414 -0.621 -0.771 -0.140 212 196 199 0
-26.1942 49.7615 -48.9992 -0.973 0.029 -0.230 178 144 150 0
-27.1961 40.4445 -45.0463 -0.801 -0.552 -0.232 168 110 125 0
-26.9059 40.8213 -45.3683 -0.694 -0.691 -0.199 166 104 121 0
-26.4542 38.3863 -44.7985 -0.998 0.030 0.052 161 88 104 0
-25.8640 37.4833 -44.8616 -0.960 -0.239 -0.144 150 71 88 0
-25.6635 37.4771 -44.9895 -0.857 -0.454 0.241 148 69 86 0
-23.5581 34.7107 -45.3759 -0.429 -0.903 0.004 128 50 64 0
-19.7169 31.9361 -46.8862 -0.700 -0.485 0.525 109 41 56 0
-19.5320 31.8757 -46.9848 -0.829 -0.523 0.201 107 41 55 0
-19.0271 31.5415 -47.1941 -0.548 -0.658 -0.517 104 39 56 0
-18.5228 31.2084 -47.4035 -0.830 -0.470 -0.299 110 47 60 0
-18.4014 30.9596 -47.3940 -0.828 -0.473 -0.301 111 49 63 0
-11.9323 36.3897 -53.5186 -0.305 -0.541 -0.784 97 52 63 0
-11.4147 36.5628 -53.9160 -0.587 -0.361 -0.725 99 58 69 0
-8.2994 40.9357 -57.4884 -0.265 -0.748 -0.609 91 66 77 0
-6.2064 35.7947 -57.0250 -0.934 -0.358 0.014 164 163 165 0
-3.2824 36.4749 -59.1644 -0.405 -0.862 -0.304 179 176 179 0
-2.7305 37.1377 -59.7576 0.106 -0.994 -0.025 180 175 178 0
-7.9159 13.6827 -48.0776 -0.035 -0.862 0.505 175 176 171 0
8.7464 31.5290 -65.2206 -0.982 -0.175 0.075 173 168 162 0
-7.3377 2.5678 -44.5134 0.765 -0.638 -0.087 173 166 158 0
-6.4222 3.7115 -45.5131 0.763 -0.641 -0.080 171 167 158 0
5.5277 20.2254 -59.1244 0.776 -0.631 -0.030 173 165 159 0
7.2081 21.6927 -60.7354 0.589 -0.736 -0.334 173 164 160 0
1.1403 2.2641 -49.9098 0.439 -0.886 -0.148 163 153 143 0
22.0459 26.8126 -72.1830 -0.899 -0.406 -0.166 161 148 139 0
17.4865 18.0863 -66.1300 -0.877 -0.262 0.404 159 146 136 0
17.8200 17.8638 -66.2676 -0.808 -0.347 0.476 158 145 137 0
30.3819 29.5899 -78.5793 0.514 -0.777 0.362 157 140 131 0
-69.0529 64.3989 -26.6454 -0.454 -0.889 -0.067 231 220 220 0
-68.9320 67.5291 -27.8407 -0.470 -0.882 -0.026 232 224 220 0
-30.0956 42.6102 -44.2084 -0.586 -0.716 -0.380 216 201 204 0
-26.8105 48.4177 -48.4167 -0.685 -0.051 0.726 188 162 166 0
-26.3109 42.9643 -46.7961 -0.999 -0.016 -0.044 163 104 122 0
-26.7380 36.7620 -44.3057 -0.978 -0.187 -0.095 160 88 107 0
-24.1663 37.3484 -46.1874 0.347 -0.865 -0.363 137 57 74 0
-24.4592 32.4873 -44.2627 -0.323 -0.945 -0.040 132 54 68 0
-23.6229 34.8224 -45.6396 -0.628 -0.769 -0.116 130 52 66 0
-22.4909 34.5226 -46.2689 -0.534 -0.827 0.177 127 49 63 0
-22.3119 34.4372 -46.3548 -0.511 -0.841 0.177 125 47 62 0
-21.9400 33.6188 -46.3047 -0.451 -0.891 0.060 123 45 61 0
-21.5464 31.5597 -45.8261 0.352 -0.866 -0.354 121 44 62 0
-21.0349 31.9155 -46.2857 -0.153 -0.984 -0.095 115 43 58 0
-18.5434 31.4218 -47.7299 -0.828 -0.473 -0.301 110 52 64 0
-18.2754 30.9968 -47.7526 -0.826 -0.477 -0.301 107 50 64 0
-11.0462 38.3627 -55.0820 -0.563 -0.363 -0.743 94 55 69 0
-10.8450 38.2886 -55.1864 -0.572 -0.360 -0.737 94 59 72 0
-6.7971 41.3383 -58.9070 -0.231 -0.935 -0.270 110 97 109 0
-7.3664 38.8137 -57.6361 0.200 -0.819 0.537 127 114 124 0
-4.3428 39.6946 -59.9168 -0.918 -0.085 0.388 168 166 169 0
-5.7824 35.9077 -57.6295 -0.880 -0.409 -0.241 171 169 172 0
-4.5109 34.5515 -57.9727 -0.289 -0.509 -0.811 177 175 178 0
-3.1214 37.0288 -59.7601 0.144 -0.980 0.137 178 176 179 0
-8.0705 13.9053 -48.2920 -0.619 -0.554 0.556 175 176 171 0
-7.8209 13.9979 -48.4874 -0.342 -0.297 0.891 175 176 171 0
-7.8319 13.6084 -48.3412 0.728 -0.514 0.454 174 175 170 0
9.4898 38.6891 -68.5542 0.248 -0.463 0.851 175 173 167 0
-2.1533 15.9617 -52.8739 -0.618 -0.386 0.685 172 169 162 0
-7.5498 2.3349 -44.5029 0.742 -0.655 -0.141 171 165 157 0
7.4228 22.1405 -61.3062 0.610 -0.730 -0.309 171 163 157 0
13.3034 24.8979 -66.1143 0.031 -0.692 -0.721 173 160 152 0
8.6400 10.7079 -58.0192 -0.950 -0.172 0.259 161 149 141 0
22.0057 27.2257 -72.6044 -0.922 -0.358 -0.147 161 147 141 0
30.4503 26.3199 -77.7733 -0.936 -0.320 -0.146 150 137 124 0
-70.0812 64.6378 -26.3440 -0.792 -0.547 0.270 255 255 255 0
-69.1825 64.4824 -26.8737 -0.454 -0.889 -0.067 231 221 220 0
-68.9918 64.3732 -26.9588 -0.412 -0.907 -0.088 234 222 222 0
-69.0513 67.5133 -28.0476 -0.431 -0.902 -0.019 233 223 220 0
-29.9946 40.5779 -43.8217 -0.380 -0.445 0.811 212 196 199 0
-27.0781 48.6894 -48.6344 -0.717 -0.015 0.697 196 174 179 0
-24.2947 38.0202 -46.6168 0.002 -0.860 -0.511 141 62 80 0
-24.0583 38.1372 -46.8129 0.002 -0.860 -0.511 139 60 78 0
-23.6592 38.0835 -47.0536 -0.250 -0.890 0.380 139 60 76 0
-22.6225 34.3952 -46.4047 -0.549 -0.834 -0.057 131 53 69 0
-22.4478 34.2955 -46.4827 -0.564 -0.808 0.171 129 52 67 0
-22.2816 34.1663 -46.5446 -0.564 -0.808 0.171 127 50 65 0
-22.0026 33.7277 -46.5689 -0.600 -0.778 0.188 125 48 64 0
-18.2876 31.2327 -48.0933 -0.826 -0.477 -0.301 107 50 61 0
-12.8809 36.1715 -53.3892 -0.982 -0.163 0.096 101 54 67 0
-11.8165 37.2029 -54.4530 -0.514 -0.442 -0.736 96 58 71 0
-7.4918 42.2577 -59.0856 0.156 -0.926 -0.343 93 81 90 0
-7.8024 39.1448 -57.7655 -0.176 -0.859 0.481 120 108 119 0
-7.8025 38.5723 -57.5599 -0.168 -0.586 0.792 127 115 126 0
-7.5819 37.9694 -57.4871 0.163 -0.802 0.575 140 131 140 0
-4.3349 39.9391 -60.3098 -0.860 -0.188 0.474 171 169 172 0
-8.2532 15.2105 -48.8779 0.239 -0.821 0.518 173 174 169 0
-7.6724 15.9275 -49.5137 0.299 -0.770 0.564 172 173 168 0
-0.6655 23.6387 -56.8476 0.208 -0.477 0.854 173 172 168 0
9.1558 38.2803 -68.5035 0.184 -0.445 0.877 173 171 165 0
10.5266 34.3105 -67.9711 -0.864 -0.472 0.177 172 165 158 0
7.4626 9.8624 -57.1965 -0.748 -0.277 0.603 159 148 138 0
8.5065 10.9226 -58.2573 -0.784 -0.282 0.553 160 148 139 0
22.0147 27.3465 -72.9552 -0.922 -0.358 -0.147 160 146 139 0
22.0431 27.0259 -72.8586 -0.923 -0.357 -0.146 160 146 138 0
12.5631 11.9062 -61.2534 -0.382 -0.417 0.825 157 142 135 0
12.9582 11.2215 -61.2649 -0.791 -0.578 0.200 155 141 133 0
29.4923 27.0124 -77.7069 -0.027 -0.440 0.898 151 136 123 0
29.2653 25.3992 -76.9798 -0.159 -0.529 0.834 150 136 124 0
-70.2218 64.7917 -26.5906 -0.798 -0.520 0.305 255 255 255 0
-69.7351 63.8216 -26.5576 -0.673 -0.712 0.200 255 255 255 0
-69.3093 64.5431 -27.0963 -0.466 -0.883 -0.049 230 221 219 0
-69.1212 64.4543 -27.1869 -0.412 -0.907 -0.088 234 222 222 0
-29.1064 54.5849 -49.7363 -0.873 -0.340 -0.350 220 208 211 0
-30.1441 40.3326 -43.9086 -0.126 -0.366 0.922 215 199 202 0
-27.6403 48.5915 -48.5273 -0.375 -0.349 0.859 207 188 192 0
-26.9579 50.8302 -49.7817 -0.350 -0.486 0.801 204 186 190 0
-27.2062 48.5954 -48.8120 -0.554 -0.204 0.807 200 181 186 0
-27.0763 48.1835 -48.7479 -0.546 -0.211 0.810 197 177 184 0
-24.6739 38.5323 -46.8282 -0.714 -0.571 -0.406 142 68 88 0
-24.4454 38.6194 -47.0088 -0.672 -0.556 -0.490 141 66 86 0
-24.2260 38.6687 -47.1698 0.074 -0.877 -0.475 140 65 83 0
-24.1155 38.2968 -47.1075 -0.291 -0.917 -0.272 139 63 81 0
-23.9803 38.0234 -47.0969 -0.207 -0.978 0.012 139 63 80 0
-23.8190 37.8520 -47.1403 -0.972 -0.119 -0.203 139 63 79 0
-23.7397 37.3732 -47.0190 -0.976 -0.096 -0.197 139 61 79 0
-23.4121 35.5523 -46.5748 -0.764 -0.470 -0.442 135 58 72 0
-23.2247 35.4925 -46.6755 -0.781 -0.554 -0.288 133 57 71 0
-22.6854 34.5089 -46.6720 -0.570 -0.818 -0.076 144 67 83 0
-22.5379 34.3131 -46.6975 -0.564 -0.808 0.171 140 63 79 0
-22.3716 34.1838 -46.7593 -0.564 -0.808 0.171 132 55 71 0
-22.2402 33.9349 -46.7552 -0.531 -0.830 0.169 129 52 68 0
-22.0361 33.9368 -46.8890 -0.591 -0.769 0.244 127 50 67 0
-21.7721 32.0924 -46.3948 -0.391 -0.750 -0.534 125 52 69 0
-18.7636 31.9362 -48.3019 -0.881 -0.457 -0.127 105 50 63 0
-18.5183 32.0523 -48.5039 -0.317 -0.946 0.067 104 51 63 0
-12.9729 36.1845 -53.6164 -0.990 -0.136 0.032 99 57 70 0
-13.2334 34.8969 -52.9812 -0.991 -0.095 -0.099 98 58 70 0
-10.9383 40.3846 -56.4621 -0.242 -0.536 -0.809 98 59 72 0
-11.4587 38.4017 -55.4060 -0.514 -0.441 -0.736 97 62 76 0
-10.7019 39.7812 -56.3984 -0.487 -0.460 -0.742 96 65 79 0
-10.4885 39.7305 -56.5194 -0.499 -0.455 -0.737 96 67 83 0
-9.5900 40.8402 -57.5068 -0.130 -0.693 -0.710 94 68 83 0
-8.5028 40.5910 -58.1264 -0.313 -0.598 0.738 95 83 94 0
-8.3288 40.4313 -58.1822 -0.313 -0.598 0.738 100 91 100 0
-8.2693 39.9894 -58.0613 -0.317 -0.580 0.750 107 100 109 0
-4.7952 40.2331 -60.4168 -0.814 -0.179 0.552 168 168 170 0
-4.6925 39.9094 -60.3668 -0.874 -0.055 0.484 173 171 174 0
-8.7409 12.5690 -47.8444 0.505 -0.226 0.833 171 171 169 0
-9.2631 8.1175 -45.8949 0.284 -0.959 -0.011 172 171 167 0
-6.0244 4.6450 -46.7537 0.712 -0.701 0.044 169 162 156 0
12.4721 18.7568 -63.9253 0.567 -0.774 -0.281 160 150 140 0
24.6809 33.1451 -77.0931 0.782 -0.588 0.207 161 148 139 0
22.1892 27.6802 -73.4920 -0.937 -0.299 -0.183 159 145 137 0
22.3194 27.4879 -73.5075 -0.934 -0.306 -0.186 158 145 136 0
22.2558 27.0495 -73.3075 -0.891 -0.419 -0.178 156 143 134 0
9.8856 8.9818 -58.7047 0.158 -0.550 0.820 156 142 134 0
26.7414 25.5956 -75.7097 0.701 -0.704 0.113 154 138 131 0
-70.2990 64.5028 -26.7183 -0.783 -0.514 0.351 255 255 255 0
-70.1225 64.4913 -26.8295 -0.795 -0.519 0.314 255 255 255 0
-69.8619 63.8847 -26.7793 -0.680 -0.704 0.204 255 255 255 0
-69.4393 64.6258 -27.3251 -0.442 -0.892 -0.098 230 221 219 0
-69.2530 64.5509 -27.4197 -0.451 -0.888 -0.087 234 223 221 0
-29.7686 41.7173 -44.9305 -0.167 -0.257 0.952 215 199 202 0
-29.6165 41.4673 -44.9390 -0.156 -0.242 0.958 214 197 201 0
-27.2001 48.1091 -48.9345 -0.543 -0.205 0.814 198 181 190 0
-26.9464 48.2831 -49.1637 -0.191 -0.337 0.922 194 176 185 0
-24.7566 38.5973 -47.0727 -0.788 -0.545 -0.287 144 72 90 0
-24.5848 38.4619 -47.1357 -0.798 -0.533 -0.280 143 70 90 0
-24.4005 38.3759 -47.2250 -0.749 -0.573 -0.332 141 67 85 0
-24.4249 36.6984 -46.5989 0.288 -0.918 0.273 140 66 83 0
-24.0809 37.2307 -47.0174 -0.845 -0.416 -0.335 140 66 83 0
-23.9907 36.7959 -46.9183 -0.969 -0.196 -0.153 139 64 81 0
-23.5232 36.2490 -47.0250 -0.782 -0.448 -0.435 137 61 77 0
-22.3562 33.8615 -46.9197 -0.557 -0.819 0.137 131 54 70 0
-21.5698 32.4046 -46.9040 -0.450 -0.835 -0.317 124 51 68 0
-21.2266 32.2011 -47.0544 -0.816 -0.575 -0.062 126 57 71 0
-19.1072 32.4319 -48.5240 -0.946 -0.189 0.265 109 49 63 0
-18.9274 31.7218 -48.3832 -0.892 -0.421 0.164 108 52 66 0
-9.5248 31.1279 -54.3148 0.128 -0.991 -0.029 166 165 168 0
-4.5366 39.9368 -60.7799 -0.878 -0.176 0.445 174 173 175 0
-4.0744 37.7023 -60.2694 -0.288 -0.532 -0.796 175 173 176 0
-2.9521 28.7054 -57.7310 -0.833 -0.131 0.537 174 175 171 0
-11.5969 8.0800 -44.5776 0.377 -0.788 0.487 172 171 170 0
-9.4442 8.2565 -46.0492 -0.258 -0.825 0.502 170 169 165 0
