ply
format ascii 1.0
element vertex 802
property float x
property float y
property float z
property float nx
property float ny
property float nz
property uchar diffuse_red
property uchar diffuse_green
property uchar diffuse_blue
property uchar class
end_header
0.0737 25.0927 -65.3147 -0.990 -0.055 -0.134 161 152 149 0
-0.1582 23.9758 -64.7043 -0.992 -0.075 -0.106 162 151 150 0
-5.5465 14.0236 -56.8520 -0.967 -0.208 0.146 156 152 145 0
-5.6761 12.8492 -56.2931 -0.942 -0.247 0.226 155 150 144 0
1.7350 20.9559 -64.8842 0.281 -0.787 -0.549 155 146 137 0
0.3864 16.3280 -62.0732 -0.609 -0.379 -0.697 152 141 137 0
2.8691 16.1180 -63.7933 0.837 -0.397 0.377 150 139 133 0
13.0107 16.6536 -71.3714 -0.546 -0.433 -0.717 145 132 123 0
19.1383 18.5202 -76.5608 0.628 -0.745 0.228 144 127 120 0
22.0418 20.6883 -79.5276 -0.901 -0.151 0.406 144 125 119 0
21.6116 19.9182 -78.9105 -0.756 -0.486 0.440 144 125 118 0
16.9338 14.3807 -73.3213 -0.756 -0.586 0.293 143 125 116 0
17.0012 14.1613 -73.2834 -0.735 -0.595 0.325 142 122 115 0
17.1222 13.9987 -73.3070 -0.735 -0.595 0.325 140 122 115 0
17.2722 13.8666 -73.3637 -0.880 -0.277 0.386 92 80 76 0
17.4798 13.2226 -73.2596 -0.884 -0.269 0.382 255 255 253 0
-70.8492 67.4801 -30.8707 -0.483 -0.875 -0.024 234 222 222 0
-37.6820 45.7004 -46.3350 -0.929 -0.055 -0.366 225 219 221 0
-37.3131 46.6599 -46.9856 -0.816 -0.178 -0.550 224 218 221 0
-38.9758 29.7996 -39.0627 -0.997 0.074 0.009 221 215 218 0
-26.2774 48.8268 -55.8790 -0.262 -0.820 0.509 213 197 210 0
-22.5117 46.3016 -57.6139 -0.694 -0.264 0.670 204 187 200 0
-23.1102 41.6223 -55.3153 -0.216 -0.976 -0.012 202 185 201 0
-21.7337 40.4644 -55.8560 -0.368 -0.423 0.828 200 184 197 0
-22.4655 35.2148 -53.2333 0.286 -0.956 0.063 195 182 195 0
-21.3579 34.7474 -53.8532 0.145 -0.901 0.409 192 180 192 0
-21.2979 34.3278 -53.7298 -0.444 -0.768 0.461 190 178 191 0
-19.4665 38.1237 -56.5738 -0.738 -0.670 -0.083 189 177 191 0
-19.1977 38.2490 -56.8194 -0.736 -0.674 -0.063 188 177 191 0
-19.1547 37.7685 -56.6594 -0.757 -0.649 -0.076 186 177 190 0
-18.6589 38.4945 -57.3092 -0.884 -0.451 0.124 185 177 190 0
-18.8265 37.4599 -56.7753 -0.868 -0.496 0.008 184 176 189 0
-18.5869 37.5046 -56.9675 -0.842 -0.535 -0.070 184 176 189 0
-21.0972 27.2142 -51.0436 -0.652 -0.503 0.568 183 175 186 0
-20.4686 6.2654 -43.1603 -0.423 -0.425 0.800 171 171 173 0
-0.1582 34.3635 -69.1275 -0.537 -0.630 -0.561 169 163 163 0
-0.0160 34.1634 -69.1513 -0.062 -0.944 -0.323 168 162 162 0
1.9246 21.0007 -65.3227 0.191 -0.813 -0.549 155 146 137 0
10.5198 16.3239 -69.7155 -0.513 -0.702 0.493 142 132 123 0
8.6331 13.5001 -67.2182 -0.015 -0.806 -0.591 142 129 121 0
11.0654 15.7328 -69.8772 0.378 -0.892 -0.249 144 131 122 0
12.4992 16.7776 -71.3366 0.376 -0.882 -0.284 144 131 122 0
13.2834 17.3700 -72.1431 0.393 -0.878 -0.275 145 132 123 0
13.5096 17.3189 -72.2873 0.259 -0.909 -0.327 145 132 123 0
21.7165 20.1203 -79.3749 -0.782 -0.527 0.334 143 126 119 0
16.8036 14.3279 -73.4936 -0.757 -0.571 0.319 142 124 117 0
16.9122 14.1516 -73.5023 -0.735 -0.595 0.325 140 122 115 0
17.0333 13.9889 -73.5257 -0.735 -0.595 0.325 139 122 115 0
17.1832 13.8566 -73.5821 -0.871 -0.277 0.406 90 80 76 0
17.3902 13.2113 -73.4758 -0.875 -0.373 0.308 255 254 253 0
-71.8815 65.0319 -29.4320 -0.860 -0.197 0.471 255 255 255 0
-70.7462 62.2842 -29.1591 -0.810 -0.450 0.375 227 218 216 0
-70.5400 61.8948 -29.1535 -0.812 -0.441 0.381 231 220 219 0
-70.4237 62.3423 -29.4175 -0.790 -0.512 0.337 234 222 223 0
-38.9340 30.5010 -39.6223 -0.996 0.045 -0.077 222 216 219 0
-32.6471 46.1690 -50.4817 -0.826 -0.414 -0.383 219 208 217 0
-30.5714 27.5004 -44.5174 0.109 -0.290 0.951 211 194 209 0
-30.1449 27.6942 -44.9060 -0.102 -0.627 0.772 209 193 206 0
-22.1242 39.6259 -55.5330 -0.420 -0.081 0.904 200 185 198 0
-22.3589 35.2031 -53.5903 0.288 -0.956 0.059 195 183 197 0
-22.2113 33.8342 -53.1497 -0.044 -0.999 0.030 193 181 193 0
-22.0360 33.7362 -53.2382 -0.063 -0.998 0.030 193 181 193 0
-21.5872 34.3929 -53.8285 0.036 -0.930 0.366 193 181 193 0
-21.3786 34.3817 -53.9761 0.147 -0.924 0.352 192 180 192 0
-20.8039 34.7828 -54.5557 -0.246 -0.838 0.487 190 178 192 0
-20.4566 35.1396 -54.9519 -0.687 -0.700 0.193 190 179 193 0
-19.0177 38.4137 -57.3123 -0.878 -0.466 -0.107 188 179 192 0
-18.9400 38.0250 -57.2133 -0.856 -0.517 0.008 186 178 191 0
-18.1641 38.8901 -58.1256 -0.764 -0.637 -0.102 185 177 189 0
-9.9643 14.7819 -54.4474 -0.128 -0.976 -0.177 160 158 156 0
-3.4827 22.8187 -62.3922 -0.164 -0.627 -0.762 159 154 152 0
-2.8277 23.1078 -62.9856 0.062 -0.738 -0.672 159 150 151 0
-6.8684 12.2739 -55.7000 -0.334 -0.903 0.269 157 150 144 0
-5.9810 12.9566 -56.6205 -0.968 -0.222 0.118 156 149 143 0
-6.7987 11.4150 -55.4068 -0.995 -0.089 -0.050 154 148 142 0
-7.5839 3.7866 -51.7788 -0.421 0.097 0.902 149 140 131 0
14.5290 26.6429 -77.0561 0.762 -0.431 0.483 149 137 129 0
10.4485 16.3374 -69.9531 -0.693 -0.627 0.355 142 131 121 0
9.8154 15.2836 -69.0695 -0.434 -0.688 0.581 143 130 121 0
11.0552 15.8164 -70.1868 0.375 -0.893 -0.247 141 128 119 0
11.7692 16.3381 -70.9164 0.379 -0.881 -0.283 143 130 121 0
12.3382 16.6876 -71.4712 0.428 -0.873 -0.234 143 130 121 0
15.0932 15.5288 -73.0157 0.648 -0.755 0.099 140 128 116 0
21.4206 19.8975 -79.3787 -0.898 -0.381 0.220 139 124 117 0
16.7102 14.3138 -73.7079 -0.754 -0.580 0.307 138 123 117 0
16.8209 14.1395 -73.7188 -0.743 -0.591 0.314 137 121 116 0
16.9458 13.9807 -73.7463 -0.735 -0.598 0.320 137 123 117 0
17.0820 13.8340 -73.7868 -0.848 -0.395 0.352 90 82 77 0
17.1670 13.6344 -73.7688 -0.871 -0.277 0.406 49 49 49 0
17.2149 13.3973 -73.7088 -0.853 -0.373 0.365 245 245 246 0
17.3187 13.2187 -73.7129 -0.862 -0.378 0.338 255 254 253 0
-70.8686 62.3284 -29.3702 -0.810 -0.450 0.375 227 217 216 0
-70.6618 61.9374 -29.3637 -0.812 -0.441 0.381 231 219 219 0
-70.3563 62.1515 -29.6732 -0.769 -0.520 0.372 235 223 224 0
-43.4469 36.1360 -38.8468 -0.664 -0.711 -0.231 229 225 226 0
-22.8182 31.8372 -52.1832 -0.282 -0.959 -0.025 195 183 195 0
-21.1039 34.8247 -54.6392 -0.348 -0.839 0.419 193 181 193 0
-20.9300 34.7145 -54.7219 -0.238 -0.833 0.499 191 180 194 0
-20.2926 35.8562 -55.6475 -0.460 -0.474 0.751 191 180 194 0
-19.0575 38.5881 -57.6505 -0.881 -0.460 -0.105 189 181 194 0
-18.9228 18.3251 -49.5840 -0.340 -0.469 0.815 174 174 184 0
-10.8239 29.8646 -60.1498 0.624 -0.681 -0.383 174 173 180 0
-5.9149 33.8991 -65.3613 -0.951 -0.300 -0.080 170 170 172 0
-5.9471 33.3723 -65.1256 -0.956 -0.286 -0.067 169 169 172 0
-12.4366 12.8433 -52.1131 -0.720 -0.657 0.222 164 158 159 0
-0.7502 18.0965 -62.7664 0.030 -0.733 -0.680 151 142 135 0
5.4419 25.5538 -70.2944 0.285 -0.805 -0.520 149 138 133 0
6.5381 26.7368 -71.5718 -0.593 -0.781 0.196 148 137 133 0
10.0614 15.9776 -69.8101 0.085 -0.183 0.979 143 130 121 0
9.7710 15.3276 -69.3361 -0.426 -0.661 0.618 142 129 120 0
11.2088 16.0910 -70.6939 0.247 -0.886 -0.391 141 128 119 0
11.9738 16.6714 -71.4867 0.288 -0.883 -0.369 141 128 119 0
21.4385 20.0079 -79.7448 -0.884 -0.423 -0.197 138 123 118 0
21.8731 20.1550 -80.1214 -0.878 -0.472 -0.075 138 123 118 0
16.7394 14.1379 -73.9469 -0.765 -0.561 0.316 137 122 116 0
16.8555 13.9695 -73.9638 -0.746 -0.587 0.316 136 121 115 0
16.9944 13.8255 -74.0073 -0.848 -0.395 0.352 88 81 76 0
17.0874 13.6341 -73.9980 -0.848 -0.395 0.352 48 48 49 0
17.1551 13.4172 -73.9601 -0.850 -0.369 0.376 245 245 246 0
17.1525 13.1286 -73.8419 -0.822 -0.399 0.405 255 255 253 0
18.2398 13.9609 -74.9716 -0.812 -0.577 0.094 254 254 253 0
-71.5732 67.6109 -31.2791 -0.436 -0.899 -0.052 228 219 218 0
-70.4771 62.1820 -29.8805 -0.769 -0.520 0.372 234 222 222 0
-43.5130 36.3782 -39.1547 -0.321 -0.944 -0.070 230 226 227 0
-32.6045 45.4925 -50.8326 -0.964 -0.113 -0.242 218 209 215 0
-28.9364 31.7884 -47.9621 -0.595 -0.802 0.048 208 193 206 0
-21.7078 34.0283 -54.1604 0.457 -0.851 0.259 194 183 194 0
-21.2826 34.6118 -54.7081 -0.343 -0.817 0.463 193 183 194 0
-19.3372 38.7204 -57.7973 -0.891 -0.428 -0.150 191 181 193 0
-19.3665 18.8190 -49.7087 -0.178 -0.925 0.337 175 174 183 0
-18.8282 19.5625 -50.4041 -0.197 -0.689 0.697 175 174 183 0
-4.7031 33.5825 -66.4247 0.104 -0.762 -0.640 168 166 169 0
-11.7306 14.5427 -53.5637 -0.063 -0.997 -0.038 164 159 160 0
-12.1487 13.4725 -52.8239 0.132 -0.991 0.004 163 158 159 0
3.3267 25.2464 -68.9222 -0.559 -0.821 0.115 150 141 135 0
2.3697 23.4729 -67.5029 -0.752 -0.436 0.494 150 141 134 0
5.7042 26.0602 -70.9921 0.283 -0.811 -0.512 146 135 129 0
6.4226 26.3313 -71.6277 -0.805 -0.441 0.396 147 136 131 0
6.7452 26.0396 -71.7456 0.787 -0.597 0.152 147 136 130 0
-7.9340 4.0534 -52.0904 -0.579 -0.008 0.815 145 136 127 0
7.6112 19.8037 -69.8516 0.801 -0.386 0.459 146 133 125 0
10.1580 22.0471 -72.6249 0.819 -0.424 0.386 144 133 127 0
10.0290 16.3473 -70.2201 0.088 -0.050 0.995 141 128 119 0
21.8693 20.2423 -80.4643 -0.887 -0.442 -0.136 138 121 117 0
16.6547 14.1328 -74.1715 -0.745 -0.576 0.336 135 121 113 0
16.7669 13.9603 -74.1837 -0.743 -0.591 0.314 134 120 112 0
16.9090 13.8194 -74.2305 -0.846 -0.398 0.355 89 80 75 0
17.0026 13.6284 -74.2216 -0.846 -0.398 0.355 49 48 49 0
17.0096 13.3483 -74.1132 -0.790 -0.418 0.448 245 245 246 0
17.0985 13.1542 -74.0996 -0.789 -0.408 0.458 255 255 253 0
18.0450 13.8425 -75.0713 -0.799 -0.589 0.117 254 254 253 0
-71.7044 67.6880 -31.5096 -0.436 -0.899 -0.052 229 219 218 0
-70.5920 62.1558 -30.0695 -0.764 -0.511 0.394 234 223 222 0
-43.4749 36.1175 -39.3354 -0.628 -0.741 -0.238 230 226 227 0
-21.5630 38.3571 -56.3154 -0.437 -0.748 -0.499 195 184 198 0
-21.3750 35.2258 -55.1764 -0.047 -0.945 -0.323 194 184 195 0
-20.9927 35.6861 -55.6444 -0.135 -0.942 -0.308 193 182 195 0
-20.9717 35.1524 -55.4422 -0.092 -0.686 0.722 193 182 194 0
-20.7969 35.0417 -55.5252 -0.092 -0.686 0.722 191 182 193 0
-19.4169 38.1850 -57.8188 -0.665 -0.648 -0.372 191 182 193 0
-16.7179 39.3220 -60.2615 -0.525 -0.849 -0.066 183 176 186 0
-18.0871 22.6976 -52.4787 0.068 -0.998 -0.008 174 173 182 0
-18.8382 19.2985 -50.5419 -0.212 -0.692 0.690 174 173 181 0
-9.3998 19.8362 -57.6818 0.010 -0.875 0.483 166 162 163 0
-11.7984 14.5663 -53.7742 -0.083 -0.995 -0.053 162 158 159 0
-12.9751 11.5081 -51.6643 -0.377 -0.666 -0.644 160 154 154 0
-4.6708 22.8565 -62.3809 -0.123 -0.690 -0.714 159 153 152 0
-3.8287 23.8527 -63.4046 -0.131 -0.960 -0.246 157 152 150 0
2.4646 30.7758 -70.8420 -0.650 -0.565 -0.509 154 146 144 0
2.0816 23.5522 -67.6157 -0.742 -0.481 0.468 150 140 135 0
2.2011 23.3592 -67.6247 -0.742 -0.481 0.468 150 141 134 0
6.3598 26.3753 -71.9038 -0.820 -0.501 0.278 146 135 129 0
6.1003 18.2974 -68.4197 0.802 -0.388 0.454 145 133 124 0
6.8313 18.9110 -69.2058 0.805 -0.395 0.442 145 132 124 0
10.4872 16.9913 -71.1037 0.042 0.016 0.999 141 128 119 0
10.1004 16.2196 -70.5055 0.140 -0.071 0.988 141 128 119 0
14.2381 18.2255 -74.3574 0.611 -0.790 -0.058 141 128 118 0
16.5645 14.1221 -74.3900 -0.745 -0.576 0.336 136 121 112 0
16.6815 13.9544 -74.4073 -0.744 -0.583 0.326 136 122 112 0
16.8190 13.8085 -74.4487 -0.848 -0.395 0.352 90 81 76 0
16.9122 13.6170 -74.4389 -0.848 -0.395 0.352 49 48 49 0
16.9160 13.3333 -74.3260 -0.792 -0.404 0.457 245 245 245 0
16.9950 13.1287 -74.3005 -0.789 -0.408 0.458 255 255 253 0
18.0345 13.9136 -75.3828 -0.804 -0.583 0.114 254 254 254 0
-71.6489 63.1921 -30.0022 -0.829 -0.399 0.391 133 133 133 0
-70.7169 62.2220 -30.2890 -0.700 -0.536 0.471 234 224 223 0
-43.2231 38.7124 -40.8437 -0.594 -0.723 -0.352 230 226 227 0
-43.2209 37.4352 -40.3215 -0.633 -0.513 -0.580 229 225 226 0
-43.0349 37.5124 -40.4898 -0.692 -0.493 -0.528 228 224 225 0
-42.8826 37.3453 -40.5331 -0.692 -0.493 -0.528 227 221 223 0
-42.7247 37.2199 -40.5977 -0.692 -0.492 -0.528 228 222 223 0
-29.4841 31.2407 -47.8721 -0.360 -0.874 0.326 208 194 207 0
-21.6158 39.7794 -57.1548 -0.563 -0.800 -0.208 199 187 201 0
-21.5883 38.5855 -56.6853 -0.540 -0.817 -0.201 196 185 199 0
-17.0418 39.3531 -60.3402 -0.142 -0.912 -0.385 184 177 188 0
-11.5420 37.3931 -63.5766 -0.650 -0.116 0.751 175 173 184 0
-11.6788 36.5651 -63.1365 -0.613 -0.088 0.785 176 173 184 0
-11.5219 36.3882 -63.1791 -0.842 -0.379 0.383 175 173 181 0
-7.4900 31.9269 -64.3112 -0.784 -0.621 -0.014 167 167 169 0
-5.5122 35.2524 -67.1281 -0.857 -0.500 0.127 167 167 169 0
-4.9527 33.9576 -67.0081 -0.965 -0.240 -0.107 168 166 167 0
-11.8179 14.6733 -54.0548 -0.048 -0.997 -0.052 161 157 158 0
-12.2799 13.5233 -53.2436 0.176 -0.984 0.005 160 156 157 0
-13.5563 10.9900 -51.2668 -0.578 -0.326 0.748 160 154 154 0
-4.7636 23.6302 -62.9109 -0.517 -0.836 -0.184 156 150 150 0
-4.4651 23.7346 -63.1730 -0.039 -0.971 -0.236 156 151 150 0
-4.1698 23.8319 -63.4299 -0.001 -0.978 -0.211 157 151 150 0
-3.9751 23.7622 -63.5444 -0.021 -0.967 -0.253 156 151 148 0
-3.1357 23.9650 -64.2442 0.349 -0.833 -0.430 154 148 145 0
-6.5537 14.2314 -57.7407 -0.212 -0.501 0.839 151 142 137 0
-7.4154 12.5773 -56.4292 -0.096 -0.926 0.364 150 141 136 0
-7.3460 12.3555 -56.3892 -0.524 -0.756 0.393 151 141 137 0
2.1724 23.4503 -67.9326 -0.711 -0.489 0.505 148 138 133 0
3.7298 24.2392 -69.4003 -0.137 -0.728 -0.672 146 136 129 0
4.3325 24.7364 -70.0470 -0.179 -0.709 -0.682 145 134 129 0
4.5889 24.7334 -70.2341 -0.089 -0.845 -0.528 145 134 129 0
5.2816 25.3507 -70.9962 0.310 -0.879 -0.363 146 135 130 0
6.1973 26.2782 -72.0494 -0.816 -0.490 0.307 145 134 129 0
9.0307 28.7459 -75.1431 0.780 -0.536 0.323 143 134 127 0
17.4903 16.6777 -76.4076 -0.291 -0.695 -0.657 142 125 119 0
16.4754 14.1126 -74.6099 -0.763 -0.563 0.317 137 122 110 0
16.5923 13.9446 -74.6269 -0.763 -0.563 0.317 137 122 111 0
16.7289 13.7978 -74.6670 -0.850 -0.397 0.348 89 81 75 0
16.8245 13.6084 -74.6596 -0.848 -0.395 0.352 48 48 49 0
16.8438 13.3406 -74.5639 -0.800 -0.405 0.443 246 246 245 0
16.8915 13.1033 -74.5016 -0.789 -0.408 0.458 254 255 255 0
17.9430 13.9014 -75.6015 -0.799 -0.593 0.096 254 255 255 0
-71.7730 63.2404 -30.2164 -0.829 -0.399 0.391 133 133 133 0
-71.5592 62.8143 -30.1980 -0.829 -0.399 0.391 71 67 67 0
-70.8329 62.2047 -30.4811 -0.700 -0.536 0.471 233 224 223 0
-38.2217 40.8664 -45.6796 -0.089 -0.312 0.946 223 219 220 0
-25.7709 39.2976 -54.1965 -0.863 -0.267 -0.429 205 193 203 0
-22.1831 38.4324 -56.4802 -0.548 -0.836 0.001 199 188 202 0
-21.8940 38.6384 -56.7780 -0.421 -0.903 -0.080 198 187 201 0
-22.7295 34.9851 -54.6557 -0.807 -0.573 -0.140 195 187 200 0
-19.7970 26.2564 -53.2126 -0.269 -0.775 0.572 182 175 187 0
-11.7296 36.6822 -63.4521 -0.752 -0.281 0.596 176 170 180 0
-11.6005 36.4436 -63.4487 -0.829 -0.482 0.282 175 169 179 0
-11.5537 36.0262 -63.3110 -0.815 -0.577 0.050 175 169 179 0
-8.8721 32.6952 -63.9103 -0.227 -0.943 -0.243 169 168 173 0
-8.5943 32.7730 -64.1469 -0.247 -0.968 -0.044 169 168 173 0
-5.0983 35.7631 -67.9537 -0.584 -0.450 0.675 165 165 167 0
-4.9572 35.5540 -67.9712 -0.584 -0.450 0.675 164 163 166 0
-5.3071 34.4177 -67.2449 -0.723 -0.590 0.361 164 162 165 0
-13.9458 10.4560 -51.0001 -0.623 -0.368 0.690 159 153 153 0
-13.8352 10.3086 -51.0207 -0.688 -0.700 -0.191 158 152 152 0
-13.1679 11.1067 -51.8411 -0.733 -0.637 0.240 157 151 151 0
-4.4274 23.5572 -63.4114 -0.030 -0.974 -0.227 154 148 148 0
-4.9430 21.9377 -62.3637 0.392 -0.817 -0.422 154 145 146 0
-6.6324 14.2356 -57.9424 -0.293 -0.437 0.850 148 139 135 0
-7.5691 12.4637 -56.5219 -0.560 -0.822 -0.105 148 139 134 0
-7.4165 12.3691 -56.5952 -0.560 -0.822 -0.105 147 138 132 0
-7.0244 12.6384 -56.9949 -0.785 -0.468 0.407 148 139 132 0
-6.9395 12.4399 -56.9755 -0.774 -0.437 0.459 147 139 132 0
2.1107 23.4933 -68.1972 -0.712 -0.483 0.509 144 133 129 0
-8.5939 6.5780 -53.3392 -0.092 -0.825 -0.558 145 134 129 0
-8.1629 6.9033 -53.7906 -0.034 -0.826 -0.563 145 134 130 0
4.5278 24.7783 -70.5065 -0.093 -0.823 -0.561 145 134 130 0
16.4626 14.1837 -74.9196 -0.854 -0.388 0.348 137 121 107 0
16.5555 13.9899 -74.9079 -0.854 -0.388 0.348 137 121 108 0
16.6481 13.7966 -74.8963 -0.854 -0.388 0.348 89 81 74 0
16.7368 13.5999 -74.8804 -0.848 -0.395 0.352 48 48 49 0
16.7619 13.3378 -74.7908 -0.823 -0.344 0.453 246 246 245 0
16.7712 13.0605 -74.6832 -0.791 -0.414 0.451 254 255 255 0
17.9039 13.9434 -75.8812 -0.789 -0.577 0.213 254 255 255 0
18.9981 14.7793 -77.0315 -0.842 -0.481 0.246 255 255 255 0
-71.6831 62.8622 -30.4119 -0.829 -0.399 0.391 71 67 67 0
-41.5278 52.9663 -48.5420 -0.769 -0.630 -0.106 231 227 228 0
-41.2011 52.4003 -48.5480 -0.782 -0.620 -0.059 229 225 226 0
-26.7780 33.6752 -51.4127 -0.132 -0.990 0.048 202 192 201 0
-21.4921 46.2178 -60.5160 -0.404 -0.201 0.892 202 190 202 0
-15.4496 35.3273 -60.4521 -0.599 -0.398 -0.695 181 177 189 0
-14.7774 33.7106 -60.2769 -0.925 -0.377 0.037 175 172 181 0
-11.6995 36.4542 -63.6852 -0.835 -0.465 0.294 176 167 178 0
-10.3196 30.9356 -62.4125 -0.478 -0.698 -0.534 168 168 171 0
-9.1777 32.2848 -63.8144 -0.188 -0.981 -0.056 166 167 171 0
-11.6672 26.4165 -59.5432 0.331 -0.211 0.920 166 165 170 0
-11.2671 26.3218 -59.7989 0.362 -0.266 0.894 166 164 169 0
-5.7347 35.2210 -67.5720 -0.844 -0.475 0.248 164 162 167 0
-5.4759 35.2392 -67.7704 -0.791 -0.493 0.363 163 162 167 0
-5.0985 35.4819 -68.1494 -0.768 -0.435 0.470 163 162 165 0
-5.4310 34.3766 -67.4455 -0.683 -0.613 0.398 162 160 163 0
-4.3171 34.5911 -68.3559 -0.853 -0.193 -0.485 162 161 164 0
-14.2803 10.6910 -51.0899 -0.962 -0.271 -0.041 159 153 153 0
-13.8628 10.3934 -51.2743 -0.680 -0.708 -0.191 155 149 149 0
-13.1789 11.2208 -52.1219 -0.636 -0.769 0.063 154 148 148 0
-4.6139 23.3993 -63.4923 -0.456 -0.888 -0.065 151 144 144 0
-3.1577 24.2270 -64.9096 0.353 -0.843 -0.406 149 143 143 0
-12.8788 7.1590 -50.6575 0.342 -0.938 0.058 148 143 138 0
-12.2645 7.8252 -51.3870 0.134 -0.875 -0.464 147 142 136 0
-6.8523 14.0220 -57.9498 -0.269 -0.422 0.866 146 136 133 0
-6.7758 13.8040 -57.9159 -0.264 -0.478 0.838 147 138 133 0
-7.4572 12.4284 -56.8425 -0.560 -0.822 -0.105 146 137 131 0
-5.2775 14.0734 -59.1325 -0.503 -0.452 0.737 142 135 127 0
-8.0988 7.1018 -54.1586 -0.051 -0.850 -0.524 142 132 127 0
9.7657 28.8864 -76.3734 -0.854 -0.492 0.169 139 128 124 0
-4.4969 4.3189 -55.6598 0.221 -0.886 -0.407 142 131 127 0
16.0005 15.2528 -75.3128 -0.244 -0.743 0.623 140 123 113 0
16.0799 15.0406 -75.2833 -0.221 -0.876 0.430 138 122 111 0
20.6125 19.5863 -80.5123 -0.613 -0.334 0.717 138 122 110 0
16.3810 14.1823 -75.1492 -0.850 -0.363 0.381 137 121 109 0
16.4800 13.9948 -75.1443 -0.858 -0.363 0.362 137 122 109 0
16.5697 13.7982 -75.1289 -0.858 -0.363 0.362 90 82 75 0
16.6879 13.6320 -75.1470 -0.738 -0.533 0.415 48 48 49 0
16.6796 13.3347 -75.0176 -0.829 -0.356 0.431 246 246 245 0
16.6885 13.0567 -74.9087 -0.893 -0.311 0.327 254 255 255 0
17.8429 13.9628 -76.1361 -0.795 -0.558 0.238 254 255 255 0
19.1125 14.9800 -77.4944 -0.824 -0.546 0.155 255 255 255 0
-71.8071 62.9102 -30.6261 -0.829 -0.399 0.391 71 67 67 0
-71.5894 62.4501 -30.5949 -0.828 -0.411 0.381 229 220 219 0
-41.2873 52.6175 -48.8780 -0.743 -0.646 -0.172 228 226 227 0
-41.1207 52.3603 -48.8937 -0.722 -0.655 -0.223 226 223 224 0
-20.5507 39.9240 -58.8998 -0.547 -0.433 -0.716 192 184 197 0
-18.9444 41.2460 -60.6384 -0.184 -0.898 0.399 191 184 194 0
-21.5688 31.1794 -54.4972 -0.951 -0.033 0.308 189 181 193 0
-16.3369 41.3971 -62.6280 0.562 -0.815 -0.143 185 178 190 0
-15.7106 36.0400 -60.8544 -0.574 -0.487 -0.658 179 171 184 0
-23.0064 12.9267 -45.8156 -0.325 -0.126 0.937 173 171 179 0
-11.8765 33.7300 -62.7228 -0.898 -0.441 0.018 170 167 176 0
-11.7947 33.4048 -62.6474 -0.956 -0.261 0.131 169 168 176 0
-9.6597 31.9929 -63.6355 -0.081 -0.784 -0.616 165 164 169 0
-20.0087 10.0596 -46.8334 -0.586 -0.777 0.229 165 164 167 0
-5.6786 35.0484 -67.8523 -0.836 -0.381 0.394 162 160 164 0
-5.6462 34.6348 -67.7036 -0.782 -0.510 0.358 162 162 165 0
-13.2659 11.2059 -52.2937 -0.640 -0.766 0.058 155 149 149 0
-4.7718 23.6802 -63.7767 -0.670 -0.711 0.211 151 143 141 0
-3.1265 23.2631 -64.8181 -0.314 -0.686 -0.657 148 141 138 0
-12.5688 7.4595 -51.2448 0.216 -0.976 -0.028 146 141 135 0
-7.0038 13.9136 -58.0506 -0.271 -0.429 0.862 146 136 132 0
-7.3530 12.7098 -57.2901 0.795 -0.490 0.359 144 135 128 0
-5.4124 13.9931 -59.2595 -0.494 -0.470 0.732 143 134 127 0
-8.0427 6.9918 -54.3935 -0.828 -0.560 0.033 141 132 125 0
-7.9112 6.8841 -54.4457 -0.799 -0.602 -0.009 141 132 125 0
-0.9563 15.1664 -63.0415 -0.461 -0.234 0.856 142 131 129 0
9.5951 28.7844 -76.5219 -0.676 -0.563 0.476 139 128 124 0
-4.0888 5.2136 -56.5725 0.476 -0.879 -0.015 141 130 124 0
16.1542 16.1083 -76.0763 -0.331 -0.714 0.617 142 125 115 0
16.0874 15.4344 -75.7456 -0.079 -0.849 0.522 141 124 114 0
16.0176 15.0610 -75.5382 -0.217 -0.867 0.449 139 125 115 0
20.5878 19.6519 -80.8312 -0.612 -0.380 0.694 140 123 114 0
16.3093 14.1915 -75.3908 -0.854 -0.373 0.362 137 122 113 0
16.3909 13.9854 -75.3650 -0.858 -0.363 0.362 136 121 110 0
16.4807 13.7887 -75.3493 -0.858 -0.363 0.362 88 80 74 0
16.5704 13.5925 -75.3336 -0.858 -0.363 0.362 48 48 49 0
16.5624 13.2953 -75.2036 -0.828 -0.351 0.436 246 246 245 0
17.7468 13.9462 -76.3504 -0.790 -0.573 0.218 254 255 255 0
19.0575 15.0068 -77.7615 -0.839 -0.523 0.147 255 255 255 0
-41.7056 53.3815 -49.1931 -0.769 -0.523 -0.368 226 224 225 0
-41.3719 52.8495 -49.2167 -0.752 -0.647 -0.125 226 224 225 0
-41.1817 52.7616 -49.3207 -0.747 -0.647 -0.156 226 224 225 0
-31.2392 50.7917 -55.8532 -0.636 -0.764 -0.106 212 205 213 0
-24.5395 40.1546 -56.3461 -0.429 -0.893 0.140 200 193 201 0
-23.2244 42.2309 -58.1914 -0.151 -0.484 0.862 202 192 201 0
-24.1421 35.4495 -54.6648 -0.102 -0.680 -0.726 201 189 200 0
-22.7455 37.0682 -56.3782 -0.080 -0.683 -0.726 195 187 200 0
-19.6005 37.2982 -58.8027 -1.000 -0.026 -0.017 190 182 193 0
-16.4141 41.4781 -62.9164 0.562 -0.827 0.025 183 176 188 0
-16.1087 41.6585 -63.2183 0.562 -0.815 -0.143 183 175 188 0
-17.0410 34.1594 -59.3794 -0.551 -0.418 -0.722 178 175 186 0
-12.5928 33.4057 -62.3556 -0.950 -0.149 -0.274 169 165 174 0
-4.8073 34.9989 -68.7876 -0.553 -0.397 -0.733 159 156 159 0
-4.2450 35.5814 -69.4483 -0.587 -0.373 -0.718 158 156 159 0
-3.9208 35.7133 -69.7437 -0.733 -0.258 -0.630 157 155 158 0
-6.7446 27.3817 -64.1552 -0.872 -0.157 -0.464 158 153 158 0
-6.8256 26.8110 -63.8556 -0.873 -0.161 -0.460 159 153 157 0
-6.9234 26.2146 -63.5329 -0.599 -0.793 -0.107 159 153 156 0
-7.4618 24.8388 -62.5567 -0.833 -0.433 -0.345 157 152 152 0
-9.1510 20.6522 -59.5484 -0.882 -0.134 0.451 157 151 151 0
-8.9513 20.6128 -59.6796 -0.856 -0.081 0.511 157 151 151 0
-13.9142 10.5706 -51.7896 -0.723 -0.646 -0.245 153 147 147 0
-13.3222 11.2435 -52.5103 -0.651 -0.757 0.055 152 146 145 0
-9.5434 6.4046 -53.2757 -0.148 -0.845 -0.513 143 132 128 0
-8.5299 5.8116 -53.7769 -0.868 -0.229 -0.440 141 130 125 0
-3.0918 13.2444 -60.9232 -0.880 -0.325 0.347 141 130 125 0
-4.5509 4.9841 -56.3748 0.583 -0.810 0.055 138 128 119 0
13.4570 23.4182 -77.4446 0.804 -0.557 0.208 139 129 119 0
15.8788 15.5975 -75.9536 -0.336 -0.829 0.448 141 124 117 0
16.0155 15.1464 -75.8654 -0.333 -0.815 0.475 139 125 116 0
16.2224 14.1847 -75.6147 -0.750 -0.601 0.276 134 119 111 0
16.3017 13.9759 -75.5858 -0.858 -0.363 0.362 134 119 108 0
16.5283 13.6320 -75.6091 -0.858 -0.398 0.325 48 48 49 0
16.4742 13.2862 -75.4239 -0.849 -0.287 0.443 246 246 245 0
17.6946 13.9750 -76.6164 -0.792 -0.565 0.231 254 255 255 0
-72.2726 63.4449 -31.0796 -0.830 -0.394 0.395 133 133 133 0
-72.0557 63.0064 -31.0553 -0.829 -0.399 0.391 72 69 67 0
-71.6280 62.1607 -31.0153 -0.832 -0.413 0.371 234 224 220 0
-71.4475 62.0161 -31.0882 -0.802 -0.344 0.488 232 225 219 0
-71.2565 61.7788 -31.1296 -0.580 -0.628 0.519 232 225 220 0
-41.4657 53.0177 -49.5231 -0.752 -0.647 -0.125 225 225 225 0
-40.1754 33.1643 -42.0957 0.238 -0.803 0.546 223 218 219 0
-39.6089 30.5178 -41.3982 -0.855 -0.505 -0.119 220 216 217 0
-24.9738 39.7948 -56.1697 -0.444 -0.685 0.578 202 193 203 0
-24.8075 39.6385 -56.2271 -0.444 -0.685 0.578 202 194 203 0
-24.6414 39.4824 -56.2843 -0.444 -0.685 0.578 202 193 203 0
-24.5053 39.2324 -56.2797 -0.401 -0.763 0.507 201 191 201 0
-24.3605 39.0113 -56.2937 -0.393 -0.755 0.526 201 191 201 0
-21.0144 37.9581 -58.3304 -0.865 -0.436 0.249 191 183 194 0
-20.9074 37.6405 -58.2757 -0.280 -0.844 -0.458 192 183 194 0
-21.9644 34.0902 -55.9925 -0.047 -0.909 -0.414 191 182 194 0
-19.5240 32.5951 -57.1709 -0.380 -0.504 -0.776 182 174 187 0
-14.8344 33.2329 -60.9182 -0.983 -0.183 -0.032 174 172 180 0
-12.5411 34.2485 -63.0478 -0.911 -0.413 -0.006 167 164 173 0
-18.2865 19.0341 -52.3617 -0.247 -0.407 0.879 165 163 172 0
-10.5028 32.6039 -63.8649 -0.661 -0.410 -0.629 165 163 168 0
-10.7546 31.6036 -63.2558 -0.628 -0.777 -0.029 161 159 164 0
-18.7812 11.6895 -48.8931 -0.633 -0.497 0.593 159 157 160 0
-7.7553 31.9129 -65.6107 -0.437 -0.875 -0.207 158 157 159 0
-7.5523 31.8400 -65.7305 -0.437 -0.875 -0.207 157 156 159 0
-6.7761 25.3939 -63.5839 0.501 -0.496 0.709 154 148 148 0
-13.9414 10.6574 -52.0465 -0.725 -0.643 -0.246 152 147 145 0
-13.3418 11.3441 -52.7812 -0.645 -0.758 0.094 150 145 142 0
-8.8715 7.1997 -54.3463 -0.300 -0.794 -0.528 141 130 126 0
-5.3974 11.3310 -58.6674 -0.649 -0.761 0.024 140 130 125 0
11.1778 21.7326 -75.3527 0.776 -0.531 0.339 141 131 120 0
16.1636 15.9953 -76.6273 -0.814 -0.571 0.108 138 122 115 0
16.1221 14.1638 -75.8231 -0.858 -0.363 0.362 135 121 111 0
16.2125 13.9665 -75.8068 -0.858 -0.363 0.362 135 121 109 0
16.4577 13.6417 -75.8515 -0.875 -0.404 0.265 48 49 48 0
16.3740 13.2646 -75.6302 -0.849 -0.287 0.443 246 246 244 0
-71.7495 62.1897 -31.2230 -0.828 -0.411 0.381 233 225 219 0
-71.5649 62.0116 -31.2845 -0.802 -0.344 0.488 233 227 219 0
-43.4528 40.2761 -42.9404 0.028 -0.949 0.315 226 225 225 0
-40.0609 30.4457 -41.2852 -0.903 -0.367 0.224 221 217 218 0
-33.3431 46.1576 -52.9504 -0.215 -0.824 -0.524 217 206 215 0
-32.2340 48.3376 -54.7004 -0.885 -0.323 -0.335 214 204 213 0
-24.8615 39.8056 -56.5544 -0.670 -0.592 0.448 201 192 202 0
-24.4420 39.0869 -56.5609 -0.129 -0.979 0.161 198 188 199 0
-24.2418 39.0395 -56.6894 -0.129 -0.979 0.161 198 189 199 0
-23.8556 38.2358 -56.6350 -0.461 -0.874 0.152 198 189 200 0
-20.9746 40.9160 -59.9141 -0.170 -0.978 0.121 194 185 197 0
-21.2739 38.7730 -58.7815 -0.885 -0.405 0.230 191 183 195 0
-21.1466 38.5056 -58.7625 -0.885 -0.405 0.230 191 183 194 0
-21.0468 38.1627 -58.6910 -0.866 -0.422 0.270 191 183 194 0
-16.6777 41.9705 -63.5547 -0.057 -0.456 0.888 182 177 188 0
-17.4492 36.4401 -60.6324 -0.572 -0.436 -0.695 179 173 185 0
-15.6819 38.5591 -62.8456 -0.618 -0.400 -0.677 177 170 182 0
-15.0821 38.8844 -63.4295 -0.624 -0.474 -0.621 176 170 182 0
-23.5582 15.5599 -47.2244 -0.725 -0.470 -0.503 174 171 182 0
-23.7692 14.6347 -46.6747 -0.768 -0.485 -0.419 174 171 181 0
-14.9715 33.6716 -61.2975 -0.978 -0.210 -0.007 172 171 178 0
-18.6360 18.4728 -52.1190 -0.236 -0.441 0.866 165 162 169 0
-18.8818 11.6464 -49.0368 -0.633 -0.497 0.593 159 156 159 0
-13.8449 10.9575 -52.4868 -0.694 -0.675 -0.251 150 145 142 0
-13.4770 11.2471 -52.8832 -0.594 -0.804 0.006 151 144 142 0
-7.7564 16.9411 -59.5522 -0.718 -0.229 -0.657 146 137 136 0
-1.8888 25.7037 -67.6340 0.306 -0.938 -0.161 144 136 132 0
-1.5061 25.9231 -68.0115 -0.491 -0.871 0.034 143 136 129 0
-10.3462 11.3753 -55.2638 0.521 -0.561 0.643 144 136 130 0
-9.0293 12.8054 -56.8498 0.652 -0.646 0.397 143 136 130 0
-5.6725 11.6821 -58.8669 -0.658 -0.718 0.225 139 128 124 0
-5.5278 11.5737 -58.9283 -0.641 -0.726 0.250 140 129 125 0
-5.4739 11.3341 -58.8666 -0.620 -0.784 0.030 139 128 123 0
-5.3219 11.2373 -58.9384 -0.625 -0.780 0.042 138 127 121 0
-1.6589 14.8543 -63.1965 -0.390 -0.091 0.916 139 128 124 0
11.0010 27.3127 -77.8948 0.653 -0.741 -0.156 141 126 122 0
-3.2547 5.7342 -58.1370 0.231 -0.972 -0.038 142 132 122 0
16.0041 14.1241 -76.0104 -0.828 -0.441 0.347 135 121 110 0
16.1188 13.9524 -76.0227 -0.861 -0.365 0.354 135 120 109 0
16.3831 13.6473 -76.0895 -0.875 -0.404 0.265 48 49 47 0
16.2966 13.2668 -75.8636 -0.825 -0.294 0.482 246 246 243 0
16.3935 13.0794 -75.8560 -0.829 -0.235 0.508 254 255 254 0
17.5880 14.0308 -77.1476 -0.799 -0.548 0.247 254 255 254 0
18.4058 14.5851 -77.9908 -0.846 -0.496 0.196 255 255 254 0
-72.3049 63.1028 -31.4857 -0.829 -0.399 0.391 71 69 68 0
-71.8773 62.2715 -31.4489 -0.830 -0.411 0.377 233 223 221 0
-40.3970 33.0090 -42.3831 0.242 -0.798 0.552 223 219 220 0
-39.6112 30.5984 -41.9383 -0.911 -0.338 -0.236 220 213 215 0
-33.3899 46.4572 -53.3444 -0.209 -0.823 -0.529 215 207 213 0
-30.6769 43.7226 -54.1959 -0.715 -0.490 -0.499 209 202 210 0
-34.4342 17.9395 -40.3844 -0.681 -0.555 -0.478 208 196 207 0
-24.8502 39.4926 -56.7265 -0.428 -0.643 0.635 199 192 200 0
-24.7187 39.2263 -56.7106 -0.443 -0.605 0.661 198 191 199 0
-24.0964 38.4803 -56.8552 -0.637 -0.768 0.072 196 189 200 0
-23.8390 37.2969 -56.5413 -0.046 -0.929 0.366 200 191 203 0
-22.7827 37.8786 -57.5761 -0.753 -0.601 -0.267 193 185 198 0
-22.1989 38.9553 -58.4707 -0.392 -0.920 0.025 192 184 197 0
-16.9685 41.4959 -63.4497 -0.277 -0.875 0.397 183 175 188 0
-18.7052 36.3659 -59.9653 -0.531 -0.451 -0.717 182 174 187 0
-16.8343 37.6784 -61.9187 -0.590 -0.430 -0.683 179 170 184 0
-25.4532 12.5207 -44.7553 -0.735 -0.577 -0.357 174 168 179 0
-23.9152 14.9106 -46.9212 -0.833 -0.362 -0.418 172 169 179 0
-14.9644 33.3976 -61.4821 -0.938 -0.340 -0.071 170 169 177 0
-22.3401 14.7373 -48.0198 -0.573 -0.541 0.616 167 165 171 0
-18.8863 18.1212 -52.0365 0.454 -0.806 0.380 166 163 169 0
-10.1329 33.2949 -65.0349 -0.539 -0.563 -0.627 159 157 160 0
-20.4711 10.1158 -47.4368 -0.664 -0.694 0.279 158 156 159 0
-20.3388 10.0149 -47.4922 -0.699 -0.668 0.254 158 156 159 0
-20.2469 9.8336 -47.4832 -0.605 -0.750 0.268 158 156 159 0
-19.9255 10.1077 -47.8395 -0.943 -0.293 0.160 160 156 161 0
-18.9419 11.6831 -49.2447 -0.564 -0.445 0.696 160 155 160 0
-12.2731 11.7124 -54.2218 -0.922 0.003 0.388 149 140 139 0
-5.3662 11.2868 -59.1816 -0.571 -0.812 0.119 138 127 120 0
-5.2368 11.1572 -59.2226 -0.544 -0.829 0.128 137 127 119 0
-1.3041 15.1423 -63.8527 -0.601 -0.213 0.770 136 125 119 0
15.8611 14.0578 -76.1677 -0.749 -0.615 0.244 137 121 109 0
16.3048 13.6492 -76.3235 -0.875 -0.367 0.315 48 49 48 0
16.2383 13.2891 -76.1201 -0.845 -0.257 0.468 246 246 243 0
16.3191 13.0845 -76.0929 -0.879 -0.215 0.425 254 255 253 0
17.5466 14.0713 -77.4283 -0.804 -0.543 0.242 254 255 254 0
18.5070 14.7735 -78.4432 -0.871 -0.465 0.157 255 255 254 0
-72.6479 63.5888 -31.7267 -0.833 -0.399 0.384 133 133 133 0
-72.0062 62.3608 -31.6777 -0.825 -0.434 0.362 233 223 223 0
-45.1634 41.1694 -42.5935 -0.152 -0.974 -0.167 229 227 228 0
-40.2650 42.1035 -46.6483 -0.535 -0.690 -0.486 224 220 221 0
-39.6051 41.5112 -46.8860 -1.000 -0.012 0.023 224 220 221 0
-40.8194 33.1517 -42.3887 0.193 -0.807 0.558 222 218 219 0
-37.7691 28.9809 -42.8718 -0.757 -0.426 -0.496 213 207 211 0
-30.4937 39.1462 -52.6656 -0.420 -0.781 -0.462 210 200 208 0
-30.1095 39.0570 -52.9138 -0.419 -0.783 -0.459 210 200 208 0
-30.5484 23.2965 -45.8151 0.181 -0.744 0.643 202 192 201 0
-23.8959 37.4402 -56.8535 -0.049 -0.962 -0.268 196 188 201 0
-22.2308 39.1734 -58.8401 -0.384 -0.923 -0.006 191 183 196 0
-21.8574 39.6211 -59.3109 -0.273 -0.958 -0.082 191 183 196 0
-19.9716 37.4249 -59.7739 -0.994 -0.103 0.045 185 178 187 0
-21.4868 29.3783 -55.1866 -0.061 -0.698 0.714 183 174 186 0
-20.9954 30.1137 -55.8691 -0.070 -0.813 0.577 181 173 185 0
-16.2010 40.1308 -63.7488 0.070 -0.438 0.896 179 169 183 0
-17.9733 33.9578 -59.7747 -0.709 -0.580 -0.401 176 170 180 0
-23.5648 15.5001 -47.6741 -0.721 -0.481 -0.499 170 165 175 0
-21.0297 20.5518 -51.7353 -0.181 -0.983 0.006 168 166 173 0
-14.9963 33.5572 -61.8229 -0.938 -0.340 -0.071 168 167 174 0
-16.7590 24.6753 -56.6922 -0.727 -0.251 0.639 163 161 166 0
-18.5022 18.7007 -52.8251 -0.450 -0.546 0.706 161 159 164 0
-18.2017 18.9152 -53.1414 -0.401 -0.508 0.762 160 158 163 0
-16.9416 19.0221 -54.1271 -0.894 -0.382 0.234 158 156 159 0
-20.0995 11.3933 -48.4942 -0.426 -0.398 0.812 157 155 158 0
-20.5197 10.1732 -47.6566 -0.714 -0.651 0.258 157 155 158 0
-20.4005 10.0456 -47.6907 -0.697 -0.673 0.247 157 155 157 0
-20.2875 9.9057 -47.7148 -0.694 -0.673 0.255 157 154 156 0
-19.9440 10.2240 -48.1078 -0.949 -0.295 0.115 158 153 159 0
-19.4038 10.5604 -48.6552 -0.747 -0.438 0.501 158 150 157 0
-5.8145 27.5993 -66.1114 -0.951 -0.187 0.245 148 144 141 0
-5.8820 27.0556 -65.8274 -0.973 -0.215 0.082 148 144 142 0
-6.3753 14.4964 -60.0635 0.683 -0.528 0.505 143 131 124 0
-4.0193 16.0234 -62.4768 0.658 -0.584 0.475 140 126 123 0
-5.5321 11.4784 -59.3958 -0.577 -0.787 0.218 139 128 125 0
-5.3932 11.3617 -59.4493 -0.577 -0.787 0.218 137 126 123 0
-5.2763 11.2135 -59.4728 -0.483 -0.786 0.386 137 126 121 0
15.7827 14.0603 -76.4026 -0.761 -0.607 0.230 137 121 109 0
15.9423 13.9360 -76.4682 -0.861 -0.365 0.354 137 120 109 0
16.2183 13.6425 -76.5480 -0.859 -0.354 0.369 48 49 48 0
16.1841 13.3159 -76.3821 -0.881 -0.360 0.308 246 246 243 0
16.2808 13.1275 -76.3733 -0.879 -0.333 0.343 254 255 253 0
17.4386 14.0426 -77.6300 -0.823 -0.561 0.082 254 255 254 0
17.9744 14.3061 -78.1429 -0.830 -0.537 0.152 255 255 254 0
-72.9929 64.0759 -31.9686 -0.833 -0.399 0.384 255 255 255 0
-72.7740 63.6423 -31.9448 -0.833 -0.399 0.384 133 133 133 0
-72.5559 63.2087 -31.9204 -0.835 -0.398 0.381 72 69 70 0
-72.1269 62.3793 -31.8826 -0.825 -0.403 0.395 235 224 225 0
-45.4085 41.5073 -42.8294 0.232 -0.966 -0.114 230 228 228 0
-37.8883 29.7037 -43.3487 -0.564 -0.588 -0.581 217 211 215 0
-37.7474 29.5380 -43.3824 -0.757 -0.426 -0.496 215 209 213 0
-37.6666 29.0864 -43.2476 -0.728 -0.460 -0.509 214 207 212 0
-30.6126 39.8861 -53.1852 -0.335 -0.850 -0.406 210 200 208 0
-30.3774 39.2146 -53.0709 -0.164 -0.978 -0.129 209 199 206 0
-30.1106 39.4538 -53.3736 -0.437 -0.767 -0.470 208 199 206 0
-29.8077 39.8248 -53.7602 -0.433 -0.892 -0.131 208 198 206 0
-31.2315 23.7140 -45.7349 -0.538 -0.227 0.812 203 191 201 0
-30.6885 23.1299 -45.8883 -0.047 -0.917 0.396 200 193 201 0
-25.1621 35.1699 -55.2203 0.414 -0.525 0.744 196 187 200 0
-24.2599 37.3000 -56.8149 -0.255 -0.925 -0.280 195 186 198 0
-23.9504 37.5924 -57.1726 -0.139 -0.948 -0.288 194 186 198 0
-24.3401 32.6427 -54.7426 -0.214 -0.682 0.699 191 183 196 0
-23.9991 32.4307 -54.9058 -0.245 -0.675 0.696 192 181 194 0
-19.9135 39.0999 -60.8405 -0.226 -0.412 0.883 187 179 188 0
-19.3372 40.0627 -61.6872 -0.489 -0.639 0.594 185 176 187 0
-19.7787 32.4113 -58.0512 0.342 -0.552 0.760 175 170 182 0
-16.5023 39.6392 -63.6226 0.081 -0.674 0.735 175 170 182 0
-17.5118 36.4984 -61.5112 0.663 -0.743 0.094 174 169 180 0
-24.4049 16.7706 -47.8359 -0.311 -0.891 -0.329 173 167 177 0
-21.3306 20.5112 -51.7495 -0.196 -0.945 -0.261 168 162 173 0
-21.9465 15.9973 -49.3389 -0.204 -0.562 0.802 166 164 169 0
-16.9949 24.8236 -56.8528 -0.898 -0.378 0.226 163 161 166 0
-16.8105 24.7646 -56.9651 -0.844 -0.436 -0.311 161 159 164 0
-17.7379 21.8348 -55.0061 -0.983 -0.013 0.184 159 157 162 0
-17.5361 21.8269 -55.1535 -0.947 0.039 0.317 158 156 161 0
-18.6413 18.5874 -52.9279 -0.506 -0.535 0.677 158 156 161 0
-18.3029 18.8835 -53.3087 -0.384 -0.666 0.639 158 156 161 0
-17.0021 19.0756 -54.3637 -0.732 -0.645 0.220 157 155 158 0
-16.6501 19.3804 -54.7585 -0.941 -0.296 0.165 157 155 160 0
-20.3617 11.3963 -48.5350 -0.316 -0.442 0.840 156 154 159 0
-20.2325 11.2828 -48.5825 -0.452 -0.418 0.788 156 154 158 0
-20.6048 10.1574 -47.8181 -0.686 -0.709 0.163 155 153 156 0
-20.4842 10.0323 -47.8541 -0.686 -0.709 0.163 154 152 155 0
-20.3803 9.8742 -47.8634 -0.693 -0.697 0.185 155 152 155 0
-8.1587 24.8353 -63.4607 -0.748 -0.475 0.464 148 144 141 0
-8.5123 23.7851 -62.7427 -0.715 -0.306 0.629 148 144 141 0
-5.9465 27.1102 -66.0968 -0.974 -0.217 0.071 147 142 139 0
-4.3828 15.6038 -62.2934 0.669 -0.499 0.551 141 127 124 0
-2.4069 16.1420 -64.0025 -0.232 -0.774 0.589 138 127 124 0
15.7048 14.0633 -76.6384 -0.757 -0.611 0.232 136 120 111 0
15.8351 13.9077 -76.6685 -0.834 -0.434 0.341 136 120 111 0
15.9350 13.7205 -76.6623 -0.834 -0.434 0.341 89 80 76 0
16.1066 13.6094 -76.7425 -0.848 -0.361 0.388 48 48 48 0
16.1036 13.3152 -76.6131 -0.881 -0.360 0.308 246 246 243 0
17.3855 14.0712 -77.8977 -0.821 -0.565 0.082 254 255 254 0
17.5240 13.9230 -77.9371 -0.798 -0.586 0.142 255 255 254 0
-73.3403 64.5663 -32.2121 -0.833 -0.399 0.384 255 255 255 0
-72.9002 63.6958 -32.1632 -0.833 -0.399 0.384 133 133 133 0
-72.4601 62.7960 -32.1017 -0.824 -0.408 0.393 231 221 223 0
-43.0605 46.6388 -47.0912 -0.231 -0.809 0.541 226 225 225 0
-45.1196 26.7168 -36.8925 0.278 -0.904 0.325 226 225 223 0
-38.1254 30.7344 -43.8747 -0.692 -0.532 0.488 217 211 214 0
-33.0512 48.6326 -55.4513 -0.098 -0.771 -0.629 212 205 214 0
-29.7235 38.9907 -53.7528 -0.762 -0.501 -0.411 206 198 206 0
-31.3098 25.6107 -46.7509 -0.877 -0.383 0.292 204 192 203 0
-26.2955 37.2099 -55.5454 -0.608 -0.242 0.756 198 190 200 0
-26.0668 32.0526 -53.4755 -0.047 -0.875 0.482 194 184 195 0
-20.1061 38.8612 -60.8968 -0.941 -0.248 0.229 183 176 185 0
-19.9839 38.5790 -60.8657 -0.943 -0.255 0.213 183 175 186 0
-16.6845 39.4485 -63.7137 0.160 -0.631 0.759 172 169 180 0
-24.6178 16.9049 -47.9779 -0.303 -0.895 -0.327 171 164 175 0
-24.4483 16.8698 -48.0895 -0.298 -0.889 -0.348 171 164 175 0
-17.0379 25.4012 -57.3448 -0.842 -0.539 -0.007 162 160 165 0
-19.2915 18.2249 -52.5391 0.113 -0.375 0.920 158 156 161 0
-18.9137 18.1884 -52.8061 0.131 -0.398 0.908 156 154 159 0
-16.7460 19.3619 -54.9389 -0.904 -0.398 -0.155 155 152 158 0
-20.4843 11.3064 -48.6397 -0.182 -0.502 0.845 154 152 157 0
-20.2764 11.3532 -48.8157 -0.404 -0.419 0.813 154 152 157 0
-20.2146 11.1029 -48.7531 -0.884 -0.374 0.281 153 151 155 0
-20.4485 9.8919 -48.0518 -0.693 -0.697 0.185 153 149 153 0
-5.8380 27.4721 -66.6298 -0.950 -0.227 0.213 147 142 139 0
-5.8326 27.0574 -66.4536 -0.958 -0.253 0.131 146 140 140 0
-5.6935 20.5036 -63.7098 -0.792 -0.179 -0.583 143 134 129 0
15.0818 14.3698 -76.5982 0.188 -0.954 0.233 138 123 116 0
15.5948 14.0322 -76.8356 -0.740 -0.648 0.182 135 120 114 0
15.7209 13.8720 -76.8604 -0.775 -0.593 0.217 135 120 113 0
15.8531 13.7189 -76.8928 -0.754 -0.621 0.213 89 80 77 0
15.9899 13.5710 -76.9310 -0.730 -0.642 0.233 48 48 49 0
16.0230 13.3145 -76.8443 -0.881 -0.360 0.308 246 246 245 0
17.3308 14.0983 -78.1640 -0.831 -0.552 0.074 254 255 254 0
17.9455 14.4439 -78.7744 -0.803 -0.596 0.011 255 255 254 0
-73.4677 64.6208 -32.4320 -0.833 -0.399 0.384 255 255 255 0
-73.2466 64.1840 -32.4069 -0.833 -0.399 0.384 255 255 255 0
-73.0267 63.7494 -32.3819 -0.833 -0.399 0.384 133 133 133 0
-72.8079 63.3171 -32.3571 -0.833 -0.399 0.384 70 68 68 0
-72.5845 62.8406 -32.3164 -0.824 -0.408 0.393 231 221 220 0
-72.3775 62.4900 -32.3185 -0.825 -0.400 0.400 233 222 221 0
-43.2817 44.2762 -46.1833 -0.037 -0.845 0.534 225 224 225 0
-39.0489 35.8006 -45.6543 -0.818 -0.233 -0.525 218 213 215 0
-37.9774 34.7046 -45.9791 0.303 -0.859 -0.413 218 210 213 0
-23.7991 17.7596 -49.2089 0.065 -0.723 0.687 170 162 173 0
-23.7354 17.4605 -49.1260 0.003 -0.999 0.033 169 161 174 0
-21.1229 20.4906 -52.4098 -0.179 -0.939 -0.295 163 160 169 0
-16.8923 25.4600 -57.7548 -0.794 -0.608 0.025 160 158 163 0
-19.0810 18.0133 -52.8588 0.131 -0.398 0.908 155 153 158 0
-20.1997 11.2920 -49.0823 -0.919 -0.340 0.202 152 151 156 0
-19.8673 9.3808 -48.4964 -0.787 -0.228 0.573 150 148 149 0
-19.8032 9.1478 -48.4427 -0.792 -0.241 0.562 152 149 150 0
-9.1717 25.8582 -63.7200 0.571 -0.475 0.669 148 144 145 0
-5.8560 27.1848 -66.7868 -0.951 -0.213 0.224 146 140 140 0
-7.0659 23.0094 -64.0545 -0.333 -0.264 0.905 147 142 137 0
-7.0916 22.5667 -63.8418 -0.522 -0.221 0.824 147 141 136 0
10.6315 9.9354 -71.6157 -0.546 -0.219 0.808 136 122 113 0
15.5246 14.0435 -77.0812 -0.740 -0.648 0.182 135 120 113 0
15.6474 13.8797 -77.1017 -0.775 -0.593 0.217 136 119 113 0
15.7774 13.7239 -77.1312 -0.778 -0.594 0.206 89 79 76 0
15.8983 13.5590 -77.1498 -0.778 -0.594 0.206 48 49 48 0
15.9390 13.3103 -77.0717 -0.879 -0.333 0.343 245 246 245 0
16.0244 13.1094 -77.0479 -0.879 -0.333 0.343 254 255 255 0
17.2591 14.1077 -78.4103 -0.835 -0.547 0.066 254 254 255 0
17.6580 14.2295 -78.7628 -0.831 -0.535 0.151 255 254 255 0
-74.3477 69.1660 -34.0603 -0.864 -0.198 0.463 255 255 255 0
-73.1533 63.8031 -32.6010 -0.833 -0.399 0.384 133 133 134 0
-72.9341 63.3704 -32.5756 -0.833 -0.399 0.384 71 68 69 0
-72.7142 62.9258 -32.5454 -0.830 -0.418 0.369 230 221 220 0
-72.4944 62.4746 -32.5123 -0.826 -0.384 0.414 232 221 221 0
-72.3394 62.5483 -32.6612 -0.844 -0.461 0.273 233 224 223 0
-45.9568 30.4085 -38.3632 -0.900 -0.328 -0.287 226 226 227 0
-45.7510 29.4415 -38.0929 -0.919 -0.382 -0.094 225 225 226 0
-43.6199 43.9296 -46.0617 0.092 -0.859 0.504 225 224 226 0
-30.0396 40.1552 -54.6086 -0.478 -0.794 -0.375 204 197 204 0
-27.4250 32.8508 -53.3634 -0.701 -0.643 0.307 196 189 199 0
-27.8789 27.6436 -50.7339 -0.230 -0.909 -0.347 194 184 195 0
-24.2378 17.3478 -48.9454 0.109 -0.538 0.836 169 161 172 0
-23.9019 17.7158 -49.3596 0.129 -0.753 0.645 169 161 172 0
-23.7440 17.6454 -49.4472 0.123 -0.759 0.640 167 159 172 0
-22.3664 6.6964 -45.6707 0.190 -0.945 0.266 151 149 152 0
-4.6901 25.6233 -67.2726 -0.942 -0.260 0.210 145 137 135 0
-7.0098 19.7585 -62.9519 0.286 -0.761 -0.583 144 135 130 0
15.4827 14.0852 -77.3619 -0.748 -0.618 0.241 138 120 114 0
15.6413 13.9591 -77.4257 -0.889 -0.313 0.333 138 119 115 0
15.7202 13.7487 -77.3925 -0.760 -0.606 0.234 90 79 76 0
15.8434 13.5859 -77.4135 -0.760 -0.606 0.234 48 48 48 0
15.8512 13.3021 -77.2947 -0.871 -0.333 0.360 245 245 245 0
15.9388 13.1033 -77.2731 -0.879 -0.333 0.343 254 255 255 0
17.3117 14.2469 -78.8074 -0.677 -0.735 0.034 254 254 255 0
-74.4786 69.2124 -34.2848 -0.864 -0.198 0.463 255 255 255 0
-73.2802 63.8569 -32.8203 -0.833 -0.399 0.384 133 133 133 0
-72.8373 62.9573 -32.7561 -0.834 -0.412 0.366 230 221 219 0
-72.6178 62.5114 -32.7244 -0.826 -0.384 0.414 233 224 221 0
-46.0728 40.8758 -43.1492 0.461 -0.727 0.510 230 226 228 0
-45.8238 29.6109 -38.3582 -0.969 -0.214 -0.124 225 223 226 0
-40.5791 47.3736 -50.1572 -0.970 -0.240 -0.027 222 220 221 0
-36.5086 38.4296 -49.2693 -0.691 -0.657 -0.303 213 208 211 0
-31.6898 38.8959 -53.1036 0.485 -0.866 0.121 205 195 203 0
-28.9933 42.1558 -56.5746 -0.807 -0.313 -0.501 202 193 204 0
-27.2391 35.1217 -54.7867 0.672 -0.337 0.659 197 187 198 0
-26.5423 32.7620 -54.2684 0.006 -0.788 0.616 193 183 194 0
-25.7744 27.8088 -52.6576 -0.116 -0.637 0.762 185 176 186 0
-15.9550 39.7430 -65.3252 -0.538 -0.837 0.103 168 160 171 0
-17.3518 21.6623 -56.2828 -0.679 -0.002 0.734 152 149 156 0
-19.6334 10.1422 -49.4736 -0.925 -0.208 -0.318 147 144 145 0
-12.6045 22.2510 -60.1173 -0.090 0.039 0.995 149 142 145 0
-9.7516 24.6996 -63.3476 0.766 -0.451 0.457 147 141 144 0
-8.8630 25.9238 -64.5576 0.810 -0.451 0.375 147 142 143 0
15.4180 14.1027 -77.6152 -0.865 -0.325 0.382 140 118 115 0
15.5123 13.9080 -77.6002 -0.865 -0.323 0.385 140 117 115 0
15.6779 13.4960 -77.5428 -0.865 -0.325 0.382 50 48 48 0
15.7627 13.2933 -77.5171 -0.871 -0.333 0.360 246 245 245 0
15.8490 13.0930 -77.4936 -0.871 -0.333 0.360 254 255 255 0
-73.4072 63.9108 -33.0400 -0.833 -0.399 0.384 133 133 133 0
-72.9622 63.0015 -32.9715 -0.832 -0.408 0.377 230 223 217 0
-72.7413 62.5483 -32.9367 -0.826 -0.384 0.414 232 224 218 0
-72.9378 66.8404 -34.6960 -0.662 -0.743 0.100 230 226 218 0
-45.8131 30.4830 -38.9998 -0.994 -0.021 0.107 225 223 226 0
-40.6224 47.8388 -50.6287 -0.974 -0.226 0.033 223 220 221 0
-36.1552 38.7906 -49.9773 -0.969 -0.183 0.166 212 206 210 0
-34.8411 30.2711 -47.1824 -0.006 -0.960 -0.281 206 195 204 0
-34.7016 30.0894 -47.2069 0.027 -0.823 -0.567 206 196 204 0
-28.1816 43.2025 -57.9530 0.483 -0.664 0.571 201 191 202 0
-33.1173 19.9568 -43.8988 -0.785 -0.379 -0.490 198 189 198 0
-27.0773 35.3150 -55.2807 0.143 -0.079 0.987 195 185 195 0
-26.9056 35.2028 -55.3604 -0.236 0.006 0.972 195 185 194 0
-27.3234 32.5215 -53.8535 -0.139 -0.707 0.694 192 185 193 0
-27.5795 31.0548 -53.0085 -0.025 -0.584 0.811 191 184 193 0
-27.1180 28.1836 -52.0806 0.470 -0.880 -0.064 186 178 191 0
-26.1190 27.6539 -52.5988 -0.767 -0.607 0.207 183 175 186 0
-16.0292 39.8278 -65.6205 -0.629 -0.757 -0.177 167 159 170 0
-15.3394 40.3701 -66.3818 -0.375 -0.498 0.782 166 158 169 0
-24.6149 16.8331 -48.9245 0.525 -0.670 0.525 167 159 170 0
-24.2081 17.3804 -49.4746 0.286 -0.829 0.481 166 158 169 0
-24.0424 17.3306 -49.5774 0.296 -0.790 0.538 165 157 168 0
-12.4287 29.5008 -63.7470 0.203 -0.790 0.578 153 148 154 0
-19.9185 10.8361 -49.8020 -0.360 -0.902 0.240 154 145 148 0
-19.7870 10.7273 -49.8529 -0.443 -0.854 0.272 154 146 150 0
-19.4953 10.5670 -50.0017 -0.757 -0.377 -0.534 147 144 145 0
-19.3310 10.5230 -50.1061 -0.788 -0.359 -0.500 148 143 145 0
15.2074 13.9642 -77.6898 -0.302 -0.907 0.293 141 117 117 0
15.4168 13.8924 -77.8157 -0.861 -0.321 0.395 142 117 117 0
15.5222 13.7098 -77.8141 -0.696 -0.561 0.448 95 80 78 0
15.6537 13.5555 -77.8447 -0.699 -0.554 0.453 50 48 48 0
15.6675 13.2775 -77.7316 -0.864 -0.339 0.372 246 244 246 0
15.7584 13.0818 -77.7132 -0.866 -0.320 0.384 254 255 255 0
-73.5343 63.9647 -33.2600 -0.833 -0.399 0.384 133 133 133 0
-73.0882 63.0527 -33.1896 -0.829 -0.412 0.377 229 223 219 0
-72.8764 62.6759 -33.1813 -0.833 -0.410 0.372 231 225 220 0
-73.0718 66.9278 -34.9338 -0.662 -0.743 0.100 230 225 220 0
-40.6961 48.1034 -50.9902 -0.974 -0.226 0.033 223 220 221 0
-39.4735 38.8474 -47.7777 0.370 -0.926 0.074 218 216 217 0
-39.0434 40.2493 -48.7293 -0.614 -0.778 0.137 218 216 217 0
-37.2126 38.8221 -49.4751 -0.516 -0.856 -0.039 215 211 212 0
-34.1192 46.2581 -55.1363 -0.159 -0.590 0.791 210 205 209 0
-33.5300 47.0675 -55.9433 0.067 -0.322 0.945 211 202 209 0
-33.4036 46.6751 -55.8635 -0.153 -0.390 0.908 211 201 210 0
-30.3988 41.6245 -55.8773 0.549 -0.641 0.536 202 192 201 0
-28.4598 43.3768 -58.1259 0.453 -0.755 0.474 199 189 200 0
-28.6828 32.3177 -53.0151 0.582 -0.311 0.751 192 185 194 0
-24.8102 39.5820 -59.1883 -0.640 -0.421 -0.643 192 180 192 0
-24.4913 39.9053 -59.5738 0.199 -0.893 0.404 191 180 192 0
-24.1991 40.1386 -59.8989 0.475 -0.827 0.302 190 179 191 0
-26.8722 29.2306 -53.0038 0.213 -0.829 0.517 185 176 189 0
-26.9160 25.0155 -51.0870 -0.646 -0.359 0.674 181 171 182 0
-22.1521 32.2409 -57.9165 0.593 -0.640 0.488 173 165 178 0
-16.3285 39.9395 -65.7584 -0.598 -0.760 -0.254 168 159 170 0
-16.1401 39.8210 -65.8479 -0.598 -0.760 -0.254 167 159 170 0
-15.9507 39.7047 -65.9390 -0.478 -0.845 -0.242 167 159 170 0
-17.9075 19.5465 -55.4514 -0.890 -0.052 0.453 152 147 153 0
-13.0070 28.9724 -63.3676 0.138 -0.743 0.655 152 147 153 0
-12.5756 29.3988 -63.8842 0.224 -0.546 0.807 151 146 152 0
-10.1850 31.9256 -66.8202 -0.684 -0.694 -0.225 150 144 147 0
-19.1865 10.9601 -50.6475 -0.819 -0.331 -0.469 149 143 147 0
-19.5475 8.8107 -49.4141 0.201 -0.750 -0.630 148 144 145 0
10.6858 13.5373 -74.3763 -0.163 -0.859 -0.485 140 127 119 0
10.8440 13.4170 -74.4420 -0.524 -0.744 -0.415 140 126 118 0
11.0817 13.3865 -74.6081 -0.510 -0.744 -0.431 139 124 117 0
15.0995 13.9355 -77.8901 -0.302 -0.907 0.293 139 117 115 0
15.3170 13.8723 -78.0262 -0.771 -0.453 0.448 140 118 117 0
15.4237 13.6910 -78.0258 -0.771 -0.453 0.448 93 79 78 0
15.5691 13.5513 -78.0733 -0.662 -0.624 0.415 49 48 49 0
15.5769 13.2666 -77.9519 -0.864 -0.339 0.372 245 244 246 0
15.6638 13.0665 -77.9281 -0.870 -0.300 0.392 254 255 254 0
13.2917 10.2919 -74.8954 -0.852 -0.249 0.460 254 254 254 0
-73.6617 64.0187 -33.4803 -0.833 -0.399 0.384 133 133 133 0
-73.2146 63.1065 -33.4089 -0.829 -0.412 0.377 228 223 221 0
-73.0146 62.8256 -33.4341 -0.811 -0.461 0.360 231 225 223 0
-47.4594 33.5782 -39.6416 0.467 -0.559 0.685 231 227 228 0
-40.4702 49.0567 -51.8897 -0.827 -0.549 0.120 223 220 221 0
-34.9546 44.7492 -54.1305 0.227 -0.853 0.469 211 205 210 0
-34.5538 45.7015 -54.8619 0.262 -0.839 0.477 210 205 209 0
-34.5657 44.6501 -54.3804 0.314 -0.854 0.414 209 204 207 0
-34.0035 46.3516 -55.5708 0.170 -0.933 0.316 210 203 209 0
-33.7187 46.7100 -55.9475 0.116 -0.540 0.834 210 200 209 0
-33.5565 46.4870 -55.9701 -0.153 -0.390 0.908 209 199 208 0
-31.6433 39.5459 -54.2996 0.595 -0.775 0.210 201 191 200 0
-28.9966 46.7374 -59.5354 -0.976 -0.206 0.066 202 192 200 0
-24.3197 40.0971 -60.0928 0.505 -0.808 0.303 190 178 190 0
-26.9908 29.1621 -53.1562 0.215 -0.835 0.506 184 176 188 0
-26.3158 28.2180 -53.2431 -0.613 -0.785 0.088 181 173 186 0
-26.3082 27.6550 -52.9958 -0.793 -0.579 0.192 181 172 184 0
-23.8077 30.8156 -56.3096 0.451 -0.881 0.146 176 168 184 0
-16.3531 40.1524 -66.1501 -0.178 -0.758 0.628 167 158 169 0
