ply
format ascii 1.0
element vertex 842
property float x
property float y
property float z
property float nx
property float ny
property float nz
property uchar diffuse_red
property uchar diffuse_green
property uchar diffuse_blue
property uchar class
end_header
4.8937 53.0382 -50.0705 0.624 0.342 0.702 16 101 56 0
4.8489 53.2616 -49.9688 0.648 0.360 0.671 16 99 55 0
-6.6462 60.1081 -52.9150 0.145 0.127 0.981 19 94 56 0
-2.7892 60.3284 -50.4777 0.148 0.130 0.980 23 96 55 0
-1.3932 60.6046 -49.4825 0.151 0.131 0.980 24 96 56 0
14.3801 61.1073 -39.7442 0.881 -0.461 -0.102 51 102 75 0
14.1810 61.3344 -39.7328 0.914 -0.401 -0.062 53 103 76 0
14.2716 61.5165 -39.5737 0.914 -0.401 -0.062 57 105 79 0
13.7025 62.0000 -39.6364 0.911 -0.409 -0.052 73 115 94 0
14.0437 62.3372 -39.2380 0.872 -0.468 -0.146 94 129 112 0
31.6245 81.2297 -17.8343 0.929 -0.287 -0.236 179 170 161 0
31.6903 81.3524 -17.7243 0.929 -0.287 -0.236 180 172 161 0
17.6601 33.0660 -54.2156 0.979 -0.194 0.057 241 234 97 0
12.1970 32.7122 -57.7072 0.982 -0.182 0.055 242 235 94 0
12.2303 32.9370 -57.5577 0.982 -0.182 0.055 242 235 93 0
12.2635 33.1614 -57.4084 0.982 -0.182 0.055 242 235 92 0
15.8110 43.1893 -49.4974 0.739 0.140 0.658 176 180 56 0
15.5282 43.8077 -49.3114 0.739 0.140 0.658 164 168 55 0
15.4338 44.0142 -49.2493 0.739 0.140 0.658 159 163 55 0
13.8088 44.8492 -49.7463 0.750 -0.203 0.630 122 133 50 0
13.7792 45.0586 -49.6434 0.750 -0.203 0.630 115 126 48 0
15.1887 45.2548 -48.6822 0.744 -0.656 0.128 104 117 50 0
31.7096 47.1932 -37.6232 0.785 0.565 0.254 30 105 56 0
6.5115 51.0744 -50.5522 0.624 0.342 0.702 22 103 58 0
5.5478 51.5710 -50.8461 0.624 0.357 0.694 21 102 58 0
5.6940 52.2208 -50.3838 0.624 0.342 0.702 19 102 56 0
-1.8979 55.0589 -53.3179 0.641 0.259 0.722 15 101 56 0
1.6073 60.5605 -48.0395 0.843 0.337 0.420 21 98 59 0
1.4815 60.7985 -47.9782 0.843 0.337 0.420 21 98 58 0
1.3555 61.0369 -47.9167 0.843 0.337 0.420 23 100 59 0
1.2293 61.2756 -47.8552 0.843 0.337 0.420 24 100 60 0
13.5580 61.7449 -40.1652 0.911 -0.409 -0.052 45 105 75 0
13.6018 61.9353 -40.0292 0.912 -0.406 -0.058 49 106 78 0
13.6932 62.1177 -39.8692 0.912 -0.406 -0.058 50 105 79 0
13.8753 62.4811 -39.5503 0.912 -0.406 -0.058 52 106 82 0
13.2968 62.7743 -39.7295 0.927 -0.354 -0.124 51 105 80 0
13.5686 63.3184 -39.2526 0.927 -0.354 -0.124 61 110 85 0
14.4836 32.1746 -56.9502 0.670 -0.468 0.576 239 231 108 0
17.6923 33.1622 -54.4408 0.979 -0.194 0.057 241 233 97 0
12.8474 32.8766 -57.5347 0.984 -0.171 0.049 242 235 94 0
12.2624 33.0381 -57.7952 0.982 -0.182 0.055 242 235 93 0
12.8843 33.3206 -57.2564 0.982 -0.180 0.063 242 235 92 0
18.8079 36.8036 -51.6670 0.625 0.109 0.773 243 237 87 0
18.5416 41.4944 -49.1236 0.957 0.131 -0.259 214 208 58 0
15.9376 43.2922 -49.6614 0.739 0.140 0.658 176 180 57 0
15.8435 43.4981 -49.5996 0.739 0.140 0.658 172 176 54 0
15.7493 43.7042 -49.5377 0.739 0.140 0.658 168 174 54 0
15.6550 43.9105 -49.4757 0.739 0.140 0.658 163 168 55 0
15.5607 44.1171 -49.4137 0.739 0.140 0.658 157 163 54 0
14.0524 44.3247 -50.2059 0.750 -0.203 0.630 151 158 53 0
13.9342 45.1624 -49.7944 0.750 -0.203 0.630 113 126 48 0
15.3083 45.3574 -48.8512 0.744 -0.656 0.128 103 115 51 0
2.2307 51.4435 -53.2488 0.943 0.273 -0.190 21 102 59 0
1.5009 51.7147 -53.5337 0.940 0.270 -0.209 21 102 59 0
0.6125 52.2278 -53.7750 0.706 -0.341 0.621 19 102 58 0
0.6090 52.4573 -53.6448 0.706 -0.341 0.621 19 102 58 0
0.6054 52.6866 -53.5148 0.706 -0.341 0.621 19 102 57 0
13.1286 62.5242 -40.2717 0.927 -0.354 -0.124 44 109 79 0
13.2199 62.7068 -40.1112 0.927 -0.354 -0.124 45 110 81 0
12.4181 64.4286 -39.6033 0.921 -0.390 -0.000 56 115 84 0
31.1515 81.7915 -18.2670 0.885 -0.460 -0.076 180 170 163 0
2.8789 102.3022 -23.5349 0.776 -0.629 0.058 175 162 156 0
15.9965 -0.5395 -75.2201 0.964 0.091 -0.250 227 227 218 0
12.8767 32.9770 -57.7732 0.984 -0.171 0.049 242 235 94 0
12.9081 33.2005 -57.6252 0.984 -0.171 0.049 242 235 93 0
16.8406 41.5495 -50.4187 0.872 -0.410 -0.269 214 208 58 0
17.0084 41.7598 -50.1955 0.872 -0.410 -0.269 212 206 57 0
17.1755 41.9693 -49.9731 0.872 -0.410 -0.269 207 203 54 0
16.7819 42.1670 -50.0980 0.873 -0.411 -0.262 203 198 53 0
15.4778 43.8054 -49.9446 0.631 -0.176 0.756 165 172 54 0
15.4472 44.0126 -49.8436 0.635 -0.150 0.758 161 167 56 0
15.3929 44.2198 -49.7571 0.635 -0.150 0.758 154 161 54 0
14.0889 45.2660 -49.9453 0.750 -0.203 0.630 112 125 50 0
14.4691 45.4706 -49.5963 0.739 -0.661 0.125 102 113 52 0
1.4332 51.6119 -53.9697 0.940 0.270 -0.209 21 103 59 0
0.8116 51.8788 -54.1933 0.706 -0.341 0.621 21 104 59 0
0.8044 52.3377 -53.9328 0.706 -0.341 0.621 19 103 56 0
0.8008 52.5670 -53.8027 0.706 -0.341 0.621 20 103 57 0
0.7972 52.7960 -53.6727 0.706 -0.341 0.621 19 104 57 0
0.7936 53.0250 -53.5428 0.706 -0.341 0.621 18 104 57 0
-8.0571 62.6012 -53.3921 0.953 0.103 -0.285 22 101 61 0
21.5475 63.9738 -34.6194 0.876 -0.468 -0.117 65 117 86 0
-1.1026 76.1996 -41.3209 0.693 -0.660 0.290 192 191 186 0
83.0717 57.1124 -1.2118 0.997 -0.072 -0.019 196 189 186 0
15.9559 -1.2116 -75.9574 0.965 0.089 -0.248 66 66 64 0
12.9375 33.3011 -57.8638 0.984 -0.171 0.049 242 235 94 0
4.3071 37.3965 -60.7639 0.621 0.090 0.779 241 235 85 0
3.6351 37.5929 -61.0605 0.840 0.495 0.221 241 235 86 0
17.7181 41.6707 -50.1125 0.954 0.140 -0.263 214 208 59 0
16.4190 41.8465 -50.8036 0.873 -0.411 -0.262 212 206 58 0
16.5852 42.0570 -50.5806 0.873 -0.411 -0.262 207 203 56 0
16.5226 43.7059 -49.6663 0.643 -0.153 0.750 168 174 55 0
15.5743 44.3228 -49.8886 0.635 -0.150 0.758 150 159 54 0
15.5200 44.5299 -49.8021 0.635 -0.150 0.758 144 155 53 0
14.2435 45.3695 -50.0960 0.750 -0.203 0.630 109 123 50 0
1.2804 51.9714 -54.1919 0.940 0.270 -0.209 21 106 58 0
0.9245 52.2231 -54.2637 0.697 -0.347 0.627 20 105 57 0
0.9961 52.4474 -54.0904 0.706 -0.341 0.621 19 106 56 0
0.9924 52.6765 -53.9604 0.706 -0.341 0.621 20 107 59 0
11.0425 62.0961 -42.3874 0.605 -0.307 0.735 30 103 66 0
12.4534 64.0657 -40.3890 0.911 -0.409 -0.047 42 113 74 0
15.8584 -1.1846 -76.3269 0.965 0.089 -0.248 67 65 63 0
15.8917 -0.6873 -76.0189 0.965 0.089 -0.248 229 224 216 0
15.0549 32.5226 -57.3312 0.670 -0.468 0.576 239 233 111 0
5.2167 37.3246 -60.5850 0.621 0.068 0.781 243 237 89 0
4.1856 37.4986 -61.1164 0.842 0.492 0.222 242 236 88 0
3.6415 37.7030 -61.3316 0.840 0.495 0.221 241 235 87 0
33.3358 40.3799 -41.5835 0.492 -0.280 0.824 232 227 72 0
16.5536 42.1570 -50.8423 0.873 -0.411 -0.262 208 203 59 0
19.8986 43.2230 -48.1758 0.650 0.095 0.754 185 184 60 0
15.7555 44.4256 -50.0199 0.635 -0.150 0.758 148 158 53 0
14.3431 44.6373 -50.7632 0.728 -0.197 0.656 143 154 53 0
22.8918 49.5773 -42.6673 0.975 0.221 -0.023 20 106 57 0
22.8089 49.9604 -42.4967 0.975 0.221 -0.023 20 105 57 0
1.1696 52.1004 -54.5228 0.940 0.270 -0.209 22 108 58 0
1.1270 52.3322 -54.4149 0.940 0.270 -0.209 20 107 56 0
1.0844 52.5640 -54.3070 0.940 0.270 -0.209 19 107 55 0
1.0418 52.7957 -54.1991 0.940 0.270 -0.209 18 106 56 0
-5.2035 62.2401 -52.5666 0.969 0.074 -0.237 17 104 59 0
13.7279 60.5975 -41.9128 0.606 -0.330 0.724 22 103 63 0
32.1493 59.6774 -31.1537 0.957 0.060 0.284 34 106 68 0
15.7102 -1.9070 -77.1627 0.965 0.089 -0.248 255 255 255 0
16.3342 32.5400 -56.8438 0.683 -0.453 0.573 237 233 119 0
16.3597 32.7575 -56.7022 0.683 -0.453 0.573 240 232 112 0
13.8770 33.3691 -57.8769 0.975 -0.216 0.054 242 234 98 0
13.9178 33.5920 -57.7228 0.975 -0.216 0.054 242 234 97 0
5.3983 37.4432 -60.7397 0.621 0.068 0.781 243 237 92 0
3.6479 37.8134 -61.6032 0.840 0.495 0.221 242 236 91 0
3.5027 38.0409 -61.5609 0.840 0.495 0.221 241 234 89 0
16.5220 42.2572 -51.1047 0.873 -0.411 -0.262 209 203 60 0
21.7083 42.9444 -47.5137 0.639 0.051 0.767 195 192 60 0
14.5036 44.7412 -50.9100 0.728 -0.197 0.656 142 154 53 0
13.8814 44.9543 -51.1698 0.727 -0.205 0.656 133 146 52 0
21.2147 49.9598 -43.7578 0.976 0.213 -0.034 20 106 57 0
1.0157 52.4621 -54.7467 0.940 0.270 -0.209 20 108 57 0
15.6157 -1.8795 -77.5330 0.959 0.124 -0.256 255 255 255 0
16.5173 32.6540 -56.9719 0.683 -0.453 0.573 237 232 121 0
16.5427 32.8713 -56.8303 0.683 -0.453 0.573 240 232 116 0
13.9529 33.6926 -57.9563 0.975 -0.216 0.054 242 234 99 0
5.5797 37.5617 -60.8942 0.621 0.068 0.781 244 237 96 0
4.1996 37.7182 -61.6572 0.842 0.492 0.222 243 236 96 0
4.0560 37.9450 -61.6147 0.842 0.492 0.222 243 236 95 0
3.9121 38.1721 -61.5721 0.842 0.492 0.222 241 234 93 0
3.3635 38.3800 -61.7910 0.840 0.495 0.221 239 232 89 0
26.2456 41.9635 -45.5622 0.573 0.211 0.792 215 210 59 0
25.2832 42.7031 -45.7290 0.910 -0.414 0.010 203 199 61 0
21.8620 43.0427 -47.6484 0.639 0.051 0.767 193 192 60 0
15.5264 44.6329 -50.6460 0.729 -0.209 0.652 144 156 53 0
14.6639 44.8450 -51.0566 0.728 -0.197 0.656 138 152 51 0
14.6302 45.0542 -50.9563 0.728 -0.197 0.656 128 144 50 0
21.2625 49.6737 -44.1783 0.976 0.213 -0.034 20 107 58 0
22.1651 49.8170 -43.5369 0.977 0.208 -0.036 20 107 57 0
22.4175 49.9936 -43.2785 0.976 0.214 -0.043 19 107 57 0
23.1085 50.3322 -42.6550 0.981 0.165 -0.104 21 108 58 0
23.0869 50.5223 -42.5583 0.981 0.165 -0.104 21 109 59 0
23.1628 51.6462 -41.8603 0.949 0.238 -0.206 19 110 59 0
23.1353 51.8359 -41.7674 0.949 0.238 -0.206 18 109 60 0
22.0819 52.1047 -42.2633 0.768 -0.393 0.506 17 109 60 0
3.0590 58.0362 -50.5935 0.942 -0.269 -0.201 15 106 58 0
37.0713 59.3455 -28.7978 0.939 -0.320 -0.123 30 108 66 0
32.9356 76.0835 -21.6603 0.925 -0.354 -0.138 188 182 176 0
59.3979 70.5330 -8.5080 0.997 0.081 0.004 180 170 163 0
25.1078 90.2233 -18.3115 0.944 -0.059 0.324 175 164 160 0
13.8405 -0.8380 -78.3609 0.982 0.043 -0.185 230 226 219 0
16.8062 32.7792 -57.0273 0.695 -0.454 0.557 237 232 126 0
16.7254 32.9849 -56.9582 0.683 -0.453 0.573 240 231 119 0
13.9881 33.7934 -58.1902 0.975 -0.216 0.054 244 235 103 0
14.0289 34.0160 -58.0358 0.975 -0.216 0.054 244 236 102 0
5.7608 37.6800 -61.0486 0.621 0.068 0.781 243 237 97 0
4.0629 38.0553 -61.8859 0.842 0.492 0.222 243 237 98 0
3.9190 38.2828 -61.8435 0.842 0.492 0.222 243 236 97 0
26.6913 41.6884 -45.7199 0.613 0.214 0.760 220 215 62 0
15.7165 44.5283 -50.8922 0.729 -0.209 0.652 149 162 55 0
15.6857 44.7359 -50.7911 0.729 -0.209 0.652 141 155 53 0
14.8240 44.9487 -51.2031 0.728 -0.197 0.656 134 150 51 0
14.7903 45.1577 -51.1028 0.728 -0.197 0.656 124 141 50 0
14.1725 45.3727 -51.3620 0.727 -0.205 0.656 111 132 48 0
15.2515 47.4313 -49.4980 0.758 -0.202 0.620 37 107 57 0
22.4228 49.9035 -43.6089 0.976 0.214 -0.043 21 109 59 0
22.3843 50.0963 -43.5211 0.976 0.214 -0.043 19 108 57 0
23.0591 50.6245 -42.7955 0.980 0.173 -0.099 20 111 60 0
23.0351 50.8149 -42.7001 0.980 0.173 -0.099 18 111 59 0
23.0499 51.9437 -42.0364 0.949 0.238 -0.206 16 111 59 0
23.4143 52.1031 -41.7176 0.945 0.246 -0.214 15 111 59 0
23.3858 52.2923 -41.6256 0.945 0.246 -0.214 13 111 59 0
13.8015 61.3323 -42.3393 0.604 -0.318 0.731 17 104 60 0
0.1095 76.3685 -42.1285 0.851 -0.267 -0.451 188 189 182 0
-0.4052 76.7171 -42.2462 0.841 -0.298 -0.451 189 190 184 0
-1.2663 77.1585 -42.5253 0.871 -0.273 -0.408 192 190 186 0
56.9678 65.1635 -13.2975 0.981 -0.061 0.186 194 186 184 0
16.9078 33.0983 -57.0859 0.683 -0.453 0.573 239 231 124 0
14.4847 43.7951 -52.3905 0.647 0.142 0.749 173 179 57 0
12.8622 44.0020 -53.2831 0.752 -0.196 0.629 167 175 57 0
15.8756 44.6313 -51.0371 0.729 -0.209 0.652 145 159 54 0
14.9502 45.2611 -51.2491 0.728 -0.197 0.656 120 141 51 0
15.4021 47.5328 -49.6488 0.758 -0.202 0.620 35 108 56 0
21.1213 50.2713 -44.4899 0.976 0.213 -0.034 19 109 57 0
22.4977 50.9513 -43.2363 0.942 0.264 -0.205 16 110 58 0
22.4634 51.1434 -43.1461 0.942 0.264 -0.205 16 110 58 0
22.4292 51.3355 -43.0560 0.942 0.264 -0.205 15 110 58 0
13.9997 61.4179 -42.4660 0.604 -0.318 0.731 17 106 62 0
13.9794 61.6196 -42.3615 0.604 -0.318 0.731 18 107 61 0
13.9592 61.8212 -42.2572 0.604 -0.318 0.731 19 107 61 0
13.9390 62.0227 -42.1528 0.604 -0.318 0.731 19 106 61 0
0.0027 76.5355 -42.4286 0.851 -0.267 -0.451 188 189 183 0
0.1628 76.7079 -42.2286 0.851 -0.267 -0.451 188 189 184 0
17.0899 33.2115 -57.2134 0.683 -0.453 0.573 238 231 125 0
17.8427 44.3185 -50.2895 0.647 0.046 0.761 160 171 56 0
16.0653 44.5269 -51.2828 0.729 -0.209 0.652 152 165 55 0
14.5279 45.3704 -51.7567 0.727 -0.205 0.656 117 139 51 0
15.5887 47.6330 -49.7773 0.753 -0.181 0.633 35 110 57 0
22.4073 51.0589 -43.5123 0.942 0.264 -0.205 18 112 60 0
22.3730 51.2514 -43.4220 0.942 0.264 -0.205 17 111 59 0
22.3387 51.4438 -43.3317 0.942 0.264 -0.205 18 112 60 0
31.3076 59.9804 -32.7498 0.667 0.604 0.436 23 106 62 0
7.1643 70.9307 -41.5257 0.955 -0.261 -0.137 53 121 80 0
1.1301 76.3799 -42.1435 0.267 0.240 0.933 188 189 183 0
0.0561 76.8755 -42.5289 0.851 -0.267 -0.451 189 190 184 0
0.1993 77.0519 -42.3367 0.862 -0.287 -0.418 192 190 186 0
15.1234 -2.0608 -79.2681 0.961 0.097 -0.259 255 255 255 0
17.2718 33.3245 -57.3407 0.683 -0.453 0.573 237 231 125 0
4.6636 38.1817 -62.4569 0.625 0.094 0.775 240 235 93 0
18.0010 44.4199 -50.4302 0.647 0.046 0.761 159 170 56 0
14.4597 45.0567 -52.2901 0.749 -0.209 0.628 133 148 53 0
13.4345 45.2762 -52.8082 0.742 -0.232 0.629 125 143 51 0
22.0007 51.1884 -43.9758 0.944 0.262 -0.202 16 110 59 0
21.9665 51.3818 -43.8848 0.944 0.262 -0.202 15 109 57 0
21.9324 51.5752 -43.7939 0.944 0.262 -0.202 18 112 61 0
23.9061 65.6272 -34.3805 0.915 -0.386 -0.118 41 115 71 0
-6.3273 75.5297 -47.6632 0.903 -0.296 -0.311 61 123 83 0
1.4359 76.4379 -42.2460 0.267 0.240 0.933 186 188 182 0
0.1961 76.9783 -42.7126 0.265 0.242 0.933 187 188 183 0
56.9125 67.1086 -12.7325 0.945 0.205 -0.254 190 184 180 0
17.4533 33.4374 -57.4678 0.683 -0.453 0.573 237 230 126 0
17.6178 33.6671 -57.2300 0.865 -0.235 -0.444 240 231 122 0
25.1944 42.9778 -47.0183 0.726 0.683 0.086 204 202 61 0
22.7968 43.7292 -48.0977 0.919 -0.392 0.036 181 188 58 0
18.1590 44.5211 -50.5707 0.647 0.046 0.761 157 167 55 0
17.9824 44.9292 -50.4450 0.647 0.046 0.761 140 153 55 0
23.3320 52.8915 -42.4268 0.939 0.301 -0.166 14 112 59 0
16.0243 68.1940 -38.1438 0.964 -0.260 -0.056 41 114 71 0
1.7407 76.4958 -42.3482 0.267 0.240 0.933 185 187 182 0
0.5050 77.0361 -42.8155 0.265 0.242 0.933 186 188 183 0
-13.2149 112.6021 -30.7958 0.290 0.289 0.912 173 161 149 0
25.1379 43.0710 -47.2804 0.726 0.683 0.086 202 200 61 0
22.8459 43.8261 -48.2969 0.919 -0.392 0.036 180 186 58 0
14.8305 45.0545 -52.6747 0.651 0.128 0.748 136 148 55 0
17.8360 47.6729 -49.2395 0.768 -0.215 0.604 35 116 61 0
16.1702 47.9318 -50.1472 0.761 -0.210 0.614 33 116 62 0
16.5544 67.8156 -38.3200 0.515 0.442 0.735 36 110 65 0
1.7902 76.8329 -42.4489 0.267 0.240 0.933 186 188 183 0
56.6660 67.5768 -12.9705 0.941 0.208 -0.266 189 184 181 0
14.8945 -1.9515 -80.3521 0.965 0.089 -0.248 255 255 255 0
34.3496 41.5225 -42.5848 0.875 0.349 0.334 227 222 75 0
25.0813 43.1644 -47.5432 0.726 0.683 0.086 203 200 65 0
18.0534 47.1637 -49.6971 0.768 -0.215 0.604 43 116 61 0
16.3191 48.0327 -50.2974 0.761 -0.210 0.614 33 117 65 0
11.4432 70.4520 -40.3371 0.950 -0.283 -0.131 43 115 73 0
11.5179 70.6323 -40.1842 0.950 -0.283 -0.131 45 116 74 0
1.1197 77.1511 -43.0201 0.265 0.242 0.933 186 189 181 0
-16.7293 114.9317 -32.3833 0.287 0.264 0.921 169 158 149 0
14.8210 -1.9135 -80.7129 0.965 0.092 -0.245 255 255 255 0
12.5810 37.8984 -58.9130 0.897 -0.442 -0.008 241 237 87 0
12.6944 38.1247 -58.7082 0.897 -0.442 -0.008 241 236 89 0
35.4361 41.2924 -42.2789 0.868 0.374 0.327 229 224 79 0
14.5086 45.0575 -53.4987 0.761 -0.181 0.623 142 154 54 0
13.6607 46.1247 -53.4194 0.732 -0.241 0.637 76 112 45 0
18.1982 47.2633 -49.8458 0.768 -0.215 0.604 43 118 64 0
18.1499 47.6689 -49.6400 0.768 -0.215 0.604 36 119 63 0
18.1258 47.8717 -49.5372 0.768 -0.215 0.604 34 118 66 0
16.3020 48.1394 -50.5503 0.758 -0.202 0.620 32 117 66 0
27.6473 62.1593 -35.0937 0.709 0.658 0.255 21 109 61 0
17.2503 67.5208 -38.6303 0.515 0.442 0.735 36 111 68 0
11.5233 70.7565 -40.4136 0.950 -0.283 -0.131 43 116 73 0
10.7901 71.1286 -40.6665 0.941 -0.325 -0.098 45 116 74 0
12.3020 33.9833 -61.7009 0.860 -0.265 -0.437 238 231 124 0
12.8198 37.7946 -59.1409 0.902 -0.432 -0.015 242 237 90 0
12.9313 38.0207 -58.9370 0.902 -0.432 -0.015 241 236 91 0
12.7444 38.2301 -58.9351 0.897 -0.442 -0.008 241 236 91 0
12.8575 38.4557 -58.7304 0.897 -0.442 -0.008 239 234 90 0
14.6951 44.9510 -53.7525 0.876 0.466 0.127 148 160 55 0
14.0960 46.0132 -53.5178 0.876 0.466 0.127 89 118 48 0
18.3671 47.1602 -50.0972 0.768 -0.215 0.604 44 119 63 0
18.3429 47.3629 -49.9943 0.768 -0.215 0.604 41 119 66 0
18.3187 47.5657 -49.8914 0.768 -0.215 0.604 36 119 65 0
18.2946 47.7683 -49.7886 0.768 -0.215 0.604 32 119 64 0
8.2262 72.2745 -41.9560 0.455 -0.233 0.860 50 118 76 0
13.1533 38.3547 -58.9188 0.904 -0.426 -0.025 241 237 93 0
13.9271 45.9113 -53.9996 0.878 0.464 0.115 102 125 53 0
18.5358 47.0571 -50.3484 0.768 -0.215 0.604 51 123 66 0
18.5116 47.2598 -50.2455 0.768 -0.215 0.604 45 123 67 0
18.4874 47.4624 -50.1427 0.768 -0.215 0.604 41 122 66 0
16.6292 48.1347 -50.9515 0.758 -0.202 0.620 31 120 64 0
16.6007 48.3407 -50.8495 0.758 -0.202 0.620 31 119 65 0
13.4488 70.9385 -39.6741 0.965 -0.231 -0.127 47 116 72 0
9.8520 72.2091 -41.2577 0.457 -0.239 0.857 49 118 75 0
9.7966 72.4232 -41.1683 0.457 -0.239 0.857 51 120 77 0
8.3017 72.9954 -41.8007 0.455 -0.233 0.860 54 120 80 0
19.6293 44.7179 -51.3074 0.635 0.145 0.759 159 165 58 0
14.6580 45.1630 -54.2768 0.876 0.466 0.127 141 151 57 0
14.5383 45.3754 -54.2303 0.876 0.466 0.127 131 143 57 0
14.3983 45.5884 -54.1965 0.880 0.460 0.115 119 133 57 0
14.2983 45.8012 -54.1370 0.876 0.466 0.127 108 128 55 0
13.5137 46.2380 -54.3911 0.874 0.457 0.162 78 113 48 0
13.9899 46.4411 -53.9629 0.741 -0.229 0.631 72 118 56 0
17.1448 46.9941 -51.5893 0.890 -0.212 0.404 53 122 63 0
18.6802 47.1567 -50.4966 0.768 -0.215 0.604 46 122 63 0
18.6560 47.3593 -50.3937 0.768 -0.215 0.604 41 123 63 0
16.6644 49.0586 -50.6931 0.758 -0.202 0.620 28 119 61 0
11.3140 70.5878 -41.5680 0.950 -0.283 -0.131 39 112 67 0
11.7105 71.2871 -40.9010 0.958 -0.254 -0.134 46 115 71 0
13.4485 71.0628 -39.9031 0.965 -0.231 -0.127 46 115 71 0
12.5298 71.4820 -40.2547 0.950 -0.287 -0.126 47 116 72 0
11.8380 71.8483 -40.4897 0.950 -0.283 -0.131 47 116 72 0
10.0420 72.4910 -41.2805 0.457 -0.239 0.857 50 118 75 0
11.0894 72.8253 -40.4043 0.471 -0.338 0.815 59 120 83 0
12.2296 34.5024 -62.4205 0.863 -0.245 -0.442 236 230 127 0
22.2937 39.2313 -53.0822 0.317 0.106 0.942 237 231 91 0
19.7779 44.8181 -51.4509 0.635 0.145 0.759 156 162 60 0
14.3771 45.6954 -54.4614 0.880 0.460 0.115 116 132 59 0
14.0024 45.9126 -54.5787 0.878 0.464 0.115 104 127 56 0
13.8829 46.1268 -54.5311 0.878 0.464 0.115 89 118 50 0
13.5051 46.3461 -54.6492 0.874 0.457 0.162 78 117 53 0
14.1493 46.5454 -54.1120 0.741 -0.229 0.631 71 122 62 0
18.1879 46.8680 -51.2875 0.732 -0.217 0.645 57 124 63 0
17.2494 47.0963 -51.7662 0.890 -0.212 0.404 51 124 65 0
13.8616 70.6982 -40.1493 0.957 -0.256 -0.138 44 113 69 0
12.5370 71.6057 -40.4820 0.950 -0.287 -0.126 46 115 71 0
11.8436 71.9734 -40.7192 0.950 -0.283 -0.131 47 116 72 0
10.8482 72.4186 -41.1079 0.453 -0.244 0.857 48 117 74 0
11.3941 72.8755 -40.4839 0.389 -0.218 0.895 58 119 83 0
2.7275 76.5660 -43.9775 0.495 -0.345 0.798 167 176 171 0
24.8946 40.8216 -50.7401 0.666 0.628 0.402 231 225 85 0
24.7187 41.0108 -50.7443 0.666 0.628 0.402 229 223 83 0
20.8951 42.9066 -52.1389 0.850 0.489 0.198 210 206 73 0
14.5911 45.3762 -54.8226 0.880 0.460 0.115 136 146 58 0
14.4736 45.5892 -54.7748 0.880 0.460 0.115 125 137 57 0
14.3558 45.8026 -54.7268 0.880 0.460 0.115 113 132 60 0
13.6177 46.2392 -54.9546 0.874 0.457 0.162 90 121 56 0
13.4964 46.4545 -54.9078 0.874 0.457 0.162 78 119 58 0
14.3085 46.6497 -54.2610 0.741 -0.229 0.631 70 124 65 0
18.3430 46.9680 -51.4299 0.732 -0.217 0.645 57 127 67 0
13.2496 70.7744 -40.8076 0.959 -0.253 -0.126 41 112 68 0
11.7747 71.9196 -41.1028 0.950 -0.283 -0.131 45 114 70 0
11.8492 72.0986 -40.9490 0.950 -0.283 -0.131 46 115 71 0
11.0928 72.4852 -41.2180 0.453 -0.244 0.857 48 117 74 0
11.6573 72.9358 -40.5837 0.389 -0.218 0.895 58 119 83 0
2.9779 76.6373 -44.1021 0.495 -0.345 0.798 167 176 171 0
36.7741 82.7020 -18.3934 0.974 0.182 0.134 178 167 163 0
22.7218 39.0397 -53.5039 0.314 0.105 0.944 237 232 89 0
22.3108 39.6230 -53.4321 0.314 0.105 0.944 237 231 89 0
22.2593 39.8220 -53.3492 0.316 0.095 0.944 236 230 88 0
25.4609 40.5455 -50.8167 0.342 0.090 0.935 233 227 87 0
24.2624 40.6971 -51.5168 0.329 0.096 0.940 231 225 86 0
13.7700 41.1908 -58.1346 0.662 0.639 0.392 226 220 81 0
13.5365 41.4013 -58.1648 0.664 0.642 0.383 223 217 82 0
13.3700 41.6143 -58.1493 0.662 0.639 0.392 223 216 83 0
21.3522 44.0117 -51.4870 0.834 0.540 0.117 188 184 67 0
21.2188 44.2114 -51.4576 0.834 0.540 0.117 181 179 65 0
19.7284 44.4135 -52.3202 0.861 0.480 0.169 175 175 62 0
14.5544 45.0590 -55.3476 0.878 0.464 0.115 151 156 60 0
14.4355 45.2723 -55.3006 0.878 0.464 0.115 144 151 62 0
14.3165 45.4858 -55.2537 0.878 0.464 0.115 134 144 61 0
14.1973 45.6997 -55.2066 0.878 0.464 0.115 122 136 61 0
18.4979 47.0680 -51.5721 0.732 -0.217 0.645 53 128 68 0
7.3844 50.4910 -56.8794 0.935 0.310 -0.171 27 120 66 0
11.3367 72.5517 -41.3279 0.453 -0.244 0.857 48 117 73 0
11.9198 72.9960 -40.6832 0.389 -0.218 0.895 59 120 83 0
4.6187 76.1255 -43.6528 0.563 -0.364 0.742 164 176 169 0
3.2278 76.7084 -44.2264 0.495 -0.345 0.798 167 175 170 0
24.1523 91.2997 -21.8858 -0.016 0.199 0.980 172 162 155 0
22.5348 39.7282 -53.5183 0.314 0.105 0.944 236 230 92 0
25.8311 40.4579 -50.9099 0.341 0.093 0.935 233 227 88 0
13.8065 41.2963 -58.3685 0.662 0.639 0.392 223 218 80 0
13.6067 41.5080 -58.3762 0.662 0.639 0.392 221 216 82 0
13.4064 41.7204 -58.3839 0.662 0.639 0.392 224 218 86 0
13.2055 41.9333 -58.3916 0.662 0.639 0.392 222 214 85 0
17.3813 44.7278 -53.9885 0.865 0.473 0.168 167 169 67 0
14.4140 45.3793 -55.5678 0.878 0.464 0.115 142 149 65 0
14.0965 45.5956 -55.6507 0.869 0.466 0.165 135 145 67 0
13.9729 45.8102 -55.6063 0.869 0.466 0.165 121 135 65 0
19.7482 46.9366 -51.1256 0.783 -0.157 0.601 55 127 69 0
18.6527 47.1678 -51.7142 0.732 -0.217 0.645 50 129 68 0
18.0108 67.4242 -40.2368 0.926 0.340 0.166 21 110 61 0
11.6875 72.1952 -41.6148 0.453 -0.244 0.857 45 114 70 0
11.6337 72.4066 -41.5262 0.453 -0.244 0.857 46 115 71 0
11.5800 72.6180 -41.4375 0.453 -0.244 0.857 48 117 74 0
5.5935 75.7932 -43.5304 0.561 -0.357 0.747 153 172 162 0
5.5770 76.0048 -43.4169 0.561 -0.357 0.747 165 176 170 0
3.4770 76.7793 -44.3505 0.495 -0.345 0.798 168 174 169 0
25.9157 40.7474 -50.9697 0.341 0.093 0.935 228 224 88 0
24.6967 40.9000 -51.6895 0.329 0.096 0.940 229 224 89 0
24.5661 41.0918 -51.6634 0.329 0.096 0.940 228 221 88 0
13.4428 41.8265 -58.6187 0.662 0.639 0.392 220 215 83 0
13.6709 42.0483 -58.3368 0.664 0.633 0.397 218 213 84 0
13.4720 42.2614 -58.3436 0.664 0.633 0.397 215 210 83 0
21.4293 44.0103 -52.0303 0.834 0.540 0.117 188 185 71 0
19.9542 44.2097 -52.8926 0.861 0.480 0.169 182 178 71 0
14.0881 45.7032 -55.9102 0.869 0.466 0.165 136 145 75 0
12.7296 46.5828 -56.2951 0.705 0.119 0.699 86 125 67 0
18.0076 67.5431 -40.4626 0.926 0.340 0.166 24 112 64 0
17.9194 67.7518 -40.3984 0.926 0.340 0.166 24 112 64 0
6.4140 75.7090 -43.3599 0.565 -0.353 0.746 151 172 160 0
3.7256 76.8501 -44.4742 0.495 -0.345 0.798 168 175 168 0
40.1619 79.8772 -18.4952 0.238 0.143 0.961 182 173 164 0
4.7023 105.3393 -27.0704 0.233 0.400 0.886 167 152 144 0
3.6110 107.0378 -26.7964 0.901 -0.080 -0.426 163 147 141 0
25.6505 41.2195 -51.1550 0.341 0.098 0.935 228 221 89 0
22.7046 43.1209 -52.0007 0.862 0.489 0.135 207 203 84 0
20.9604 43.7064 -52.8194 0.850 0.509 0.136 194 191 78 0
19.0088 43.9013 -54.0065 0.853 0.521 -0.010 190 188 77 0
4.3422 54.6477 -57.4635 0.854 -0.436 -0.283 15 118 65 0
7.1479 75.6464 -43.2304 0.561 -0.346 0.752 150 170 159 0
7.1287 75.8563 -43.1196 0.561 -0.346 0.752 161 173 165 0
19.4292 94.9306 -23.6859 0.187 0.552 0.813 167 156 152 0
18.5447 95.6971 -23.8248 -0.010 0.223 0.975 165 156 149 0
6.6448 104.3088 -26.6928 0.233 0.397 0.888 165 151 142 0
3.5864 107.3955 -26.9159 0.901 -0.080 -0.426 161 146 140 0
25.9888 41.1292 -51.2691 0.341 0.098 0.935 225 221 91 0
7.7148 75.4235 -43.3038 0.558 -0.354 0.750 129 161 145 0
7.6975 75.6321 -43.1925 0.558 -0.354 0.750 149 170 159 0
7.6802 75.8407 -43.0811 0.558 -0.354 0.750 159 172 165 0
37.3642 82.1339 -19.4860 0.033 0.212 0.977 177 167 163 0
23.9331 92.0700 -22.6294 -0.013 0.225 0.974 169 158 154 0
22.9146 43.1198 -52.4507 0.336 0.104 0.936 204 200 89 0
22.5718 43.5140 -52.4489 0.867 0.489 0.096 198 196 89 0
16.7398 71.4242 -39.9110 0.594 -0.613 0.521 41 115 74 0
13.2204 73.2940 -41.1763 0.389 -0.218 0.895 56 120 83 0
8.6388 75.3081 -43.0712 0.560 -0.328 0.761 131 163 148 0
8.6152 75.5170 -42.9638 0.560 -0.328 0.761 149 171 161 0
8.5917 75.7258 -42.8565 0.560 -0.328 0.761 160 172 166 0
26.5415 89.6890 -22.5430 0.014 0.287 0.958 168 159 152 0
24.1353 91.4571 -23.1191 0.015 0.304 0.953 168 157 154 0
23.5667 91.8881 -23.2475 0.015 0.304 0.953 167 156 154 0
16.7205 45.0448 -55.7957 0.883 0.447 0.145 169 170 103 0
16.3313 45.2578 -55.9330 0.883 0.448 0.142 159 162 101 0
19.0448 70.9593 -38.9254 0.974 -0.215 -0.071 40 115 74 0
9.6097 75.1781 -42.8109 0.492 -0.234 0.839 134 167 151 0
9.5565 75.3935 -42.7197 0.492 -0.234 0.839 149 171 161 0
9.5033 75.6089 -42.6284 0.492 -0.234 0.839 159 172 167 0
-0.8669 78.8903 -47.6992 0.578 -0.370 0.727 168 179 173 0
-1.2915 79.2277 -47.7870 0.591 -0.367 0.718 171 181 176 0
38.9477 80.8163 -19.6559 0.114 0.207 0.972 180 169 164 0
24.4649 40.5745 -53.4945 0.285 0.085 0.955 227 221 102 0
19.7964 44.5129 -54.3358 0.356 0.129 0.926 182 182 103 0
16.7095 45.1500 -56.0544 0.883 0.447 0.145 162 166 102 0
16.5950 45.3607 -56.0076 0.883 0.447 0.145 143 148 89 0
16.2045 45.5750 -56.1460 0.883 0.448 0.142 126 134 79 0
20.0333 46.7417 -52.8579 0.789 0.609 0.079 85 144 92 0
20.8939 46.9211 -52.1677 0.787 0.613 0.077 70 146 90 0
17.1715 71.7477 -40.0227 0.594 -0.613 0.521 41 116 73 0
9.9497 74.8163 -43.1109 0.492 -0.234 0.839 71 124 96 0
9.8966 75.0314 -43.0199 0.492 -0.234 0.839 86 128 107 0
9.8435 75.2465 -42.9288 0.492 -0.234 0.839 133 166 150 0
9.7904 75.4616 -42.8377 0.492 -0.234 0.839 149 172 161 0
9.7372 75.6768 -42.7466 0.492 -0.234 0.839 158 172 166 0
12.7619 75.0391 -41.0706 0.597 -0.382 0.705 165 176 170 0
24.5003 41.8550 -53.0069 0.320 0.111 0.941 218 211 103 0
20.1891 43.3904 -55.0374 0.333 0.123 0.935 201 196 100 0
19.8735 44.8183 -54.4078 0.356 0.129 0.926 167 169 102 0
20.1406 46.6403 -53.1480 0.789 0.609 0.079 101 153 102 0
19.9805 46.8462 -53.1354 0.789 0.609 0.079 84 154 99 0
19.8199 47.0525 -53.1228 0.789 0.609 0.079 72 156 97 0
19.8914 47.2526 -52.9557 0.784 0.615 0.081 61 154 94 0
19.7279 47.4594 -52.9448 0.784 0.615 0.081 53 150 90 0
21.7686 50.9389 -49.4956 0.915 0.336 0.221 27 128 73 0
18.2443 71.4053 -39.7915 0.973 -0.216 -0.079 42 114 70 0
17.3585 71.8218 -40.1489 0.594 -0.613 0.521 43 115 72 0
10.8645 74.5019 -42.9902 0.502 -0.239 0.831 60 121 88 0
10.8143 74.7148 -42.8985 0.502 -0.239 0.831 68 122 92 0
10.7640 74.9278 -42.8068 0.502 -0.239 0.831 89 132 109 0
10.7138 75.1408 -42.7151 0.502 -0.239 0.831 131 164 147 0
9.9706 75.7445 -42.8645 0.492 -0.234 0.839 155 171 164 0
12.9613 75.1125 -41.1998 0.597 -0.382 0.705 162 175 167 0
12.9549 75.3091 -41.0878 0.597 -0.382 0.705 169 180 173 0
19.6635 40.3873 -57.4807 0.319 0.094 0.943 225 218 111 0
19.5262 40.5903 -57.4546 0.319 0.094 0.943 224 217 110 0
20.4219 44.5108 -54.5200 0.349 0.140 0.927 180 178 111 0
22.0836 46.2999 -52.3231 0.846 0.533 -0.031 136 158 119 0
21.4893 46.5115 -52.6047 0.782 0.618 0.081 124 162 119 0
21.3273 46.7149 -52.5951 0.782 0.618 0.081 100 165 113 0
21.1650 46.9188 -52.5855 0.782 0.618 0.081 86 167 109 0
20.8393 47.3280 -52.5663 0.782 0.618 0.081 66 164 104 0
19.6735 47.5653 -53.2238 0.784 0.615 0.081 63 162 105 0
26.2517 49.9960 -47.2812 0.927 0.320 0.198 27 135 78 0
21.1292 53.4370 -48.7507 0.951 -0.306 0.039 21 124 73 0
29.7570 55.5072 -41.6184 0.811 -0.220 0.542 16 120 67 0
17.4894 71.7216 -40.4162 0.594 -0.613 0.521 43 113 69 0
17.4833 71.9118 -40.3077 0.603 -0.605 0.519 43 114 70 0
11.4736 74.4687 -42.9080 0.499 -0.261 0.826 57 119 85 0
11.4286 74.6793 -42.8141 0.499 -0.261 0.826 67 121 93 0
11.5281 74.8506 -42.6446 0.501 -0.250 0.828 93 136 115 0
11.7598 74.9851 -42.4063 0.498 -0.242 0.833 132 165 150 0
11.6604 75.4075 -42.2243 0.498 -0.242 0.833 157 173 167 0
15.2797 74.5935 -40.2285 0.600 -0.475 0.643 164 177 167 0
12.5308 75.5573 -41.5396 0.584 -0.401 0.706 169 181 172 0
34.5227 84.6704 -21.0883 0.035 0.201 0.979 169 160 152 0
20.4461 44.8154 -54.6277 0.356 0.129 0.926 152 153 98 0
22.1337 46.2012 -52.6460 0.846 0.533 -0.031 155 171 136 0
22.0081 46.4026 -52.6130 0.846 0.533 -0.031 158 176 142 0
21.8823 46.6043 -52.5800 0.846 0.533 -0.031 137 174 133 0
21.7563 46.8063 -52.5469 0.846 0.533 -0.031 98 169 117 0
21.5036 47.2114 -52.4806 0.846 0.533 -0.031 73 168 109 0
20.5704 47.4393 -52.9871 0.787 0.613 0.077 66 166 107 0
19.6191 47.6714 -53.5037 0.784 0.615 0.081 64 166 109 0
27.3837 49.6564 -46.9887 0.924 0.324 0.203 33 150 85 0
26.7207 49.8806 -47.3116 0.924 0.329 0.197 31 147 83 0
26.2641 50.0948 -47.4986 0.927 0.320 0.198 30 144 83 0
28.4214 50.5156 -45.7660 0.924 0.334 0.185 24 143 81 0
25.3311 52.2262 -46.8769 0.572 -0.332 0.750 21 130 73 0
25.3114 52.4156 -46.7781 0.572 -0.332 0.750 19 128 70 0
25.2918 52.6050 -46.6794 0.572 -0.332 0.750 20 128 70 0
29.7650 55.4294 -41.9300 0.828 -0.166 0.535 17 121 68 0
39.4978 64.3304 -29.9629 0.950 0.313 -0.009 28 110 64 0
17.6673 71.9863 -40.4348 0.603 -0.605 0.519 44 113 70 0
14.2895 73.2569 -42.0041 0.460 -0.246 0.853 51 117 75 0
12.7627 74.2507 -42.4649 0.439 -0.269 0.857 59 120 86 0
12.7140 74.4602 -42.3742 0.439 -0.269 0.857 68 122 94 0
12.6166 74.8793 -42.1928 0.439 -0.269 0.857 134 166 153 0
12.5678 75.0889 -42.1021 0.439 -0.269 0.857 147 170 162 0
12.5191 75.2985 -42.0114 0.439 -0.269 0.857 156 172 166 0
12.7344 75.6295 -41.6671 0.584 -0.401 0.706 168 180 171 0
9.2447 100.7158 -29.1985 -0.000 0.258 0.966 161 149 137 0
10.1949 101.5252 -28.0655 -0.003 0.236 0.972 154 143 139 0
100.5344 37.8737 -3.7504 0.828 0.553 0.091 228 223 218 0
20.9386 44.5090 -54.7746 0.356 0.129 0.926 157 156 103 0
20.8003 44.7122 -54.7496 0.356 0.129 0.926 156 156 105 0
21.5535 47.1129 -52.8052 0.846 0.533 -0.031 79 169 112 0
21.4268 47.3161 -52.7722 0.846 0.533 -0.031 71 167 109 0
19.7289 47.5696 -53.7942 0.784 0.615 0.081 67 166 109 0
19.5645 47.7778 -53.7843 0.784 0.615 0.081 64 165 109 0
27.3172 49.9446 -47.1456 0.924 0.324 0.203 43 164 98 0
24.1182 56.0185 -45.7511 0.740 -0.200 0.642 19 124 68 0
33.7936 67.2382 -32.4143 0.962 0.273 0.031 35 107 63 0
17.9175 72.0432 -40.5261 0.594 -0.613 0.521 44 112 71 0
14.4717 73.5289 -42.0240 0.460 -0.246 0.853 53 118 80 0
13.2665 74.2429 -42.4327 0.448 -0.252 0.858 58 121 86 0
12.9580 74.5226 -42.4798 0.439 -0.269 0.857 67 122 93 0
12.8608 74.9411 -42.2986 0.439 -0.269 0.857 134 167 153 0
12.8121 75.1504 -42.2080 0.439 -0.269 0.857 147 170 162 0
12.7635 75.3598 -42.1174 0.439 -0.269 0.857 155 171 165 0
15.7495 74.7141 -40.4386 0.611 -0.389 0.689 163 175 168 0
12.9376 75.7016 -41.7944 0.584 -0.401 0.706 168 178 172 0
1.8925 81.6097 -45.9160 0.893 0.432 0.128 186 187 182 0
21.5799 44.6079 -54.5757 0.373 0.125 0.919 159 159 114 0
21.0150 44.8124 -54.8461 0.356 0.129 0.926 160 161 118 0
19.9751 45.0225 -55.4424 0.349 0.112 0.931 161 161 122 0
19.8376 45.2281 -55.4157 0.349 0.112 0.931 161 164 129 0
21.3498 47.4211 -53.0648 0.846 0.533 -0.031 72 166 111 0
27.2505 50.2334 -47.3029 0.924 0.324 0.203 42 165 100 0
14.6600 53.3164 -54.2031 0.706 0.682 0.191 29 149 88 0
25.1903 53.9451 -46.5275 0.845 -0.170 0.507 19 137 77 0
7.8538 75.0231 -46.0330 0.998 0.049 0.040 46 114 75 0
13.4542 74.5154 -42.4508 0.448 -0.252 0.858 66 121 90 0
13.4025 74.7249 -42.3623 0.448 -0.252 0.858 95 139 118 0
13.3507 74.9343 -42.2738 0.448 -0.252 0.858 134 168 154 0
13.2990 75.1438 -42.1853 0.448 -0.252 0.858 147 172 163 0
13.0072 75.4209 -42.2232 0.439 -0.269 0.857 156 172 165 0
13.1404 75.7735 -41.9214 0.584 -0.401 0.706 167 177 171 0
15.2514 75.3636 -40.7009 0.616 -0.387 0.686 170 178 174 0
0.8938 82.2754 -46.5529 0.863 0.461 0.205 186 185 181 0
14.4393 98.9672 -27.2477 -0.005 0.226 0.974 156 143 135 0
15.3621 36.4875 -64.0361 0.657 -0.036 0.753 240 236 209 0
21.7890 44.7077 -54.6742 0.373 0.125 0.919 169 170 134 0
21.6550 44.9097 -54.6474 0.373 0.125 0.919 173 173 139 0
21.0913 45.1157 -54.9175 0.356 0.129 0.926 179 179 149 0
21.9494 45.5094 -54.0859 0.352 0.100 0.931 186 191 164 0
28.6840 50.2422 -46.5826 0.924 0.334 0.185 40 164 101 0
28.6045 50.4307 -46.5259 0.924 0.334 0.185 39 164 100 0
27.8003 50.6678 -46.9451 0.920 0.339 0.197 39 164 98 0
9.1736 57.3766 -55.9294 0.465 -0.458 0.758 19 136 75 0
7.8719 74.9468 -46.3923 0.998 0.049 0.040 42 110 73 0
7.8571 75.1567 -46.2778 0.998 0.049 0.040 45 113 75 0
7.8423 75.3666 -46.1634 0.998 0.049 0.040 47 113 75 0
14.7101 74.2983 -42.0154 0.294 -0.044 0.955 64 119 89 0
14.4619 74.7534 -41.9177 0.294 -0.044 0.955 135 167 152 0
14.3376 74.9815 -41.8688 0.294 -0.044 0.955 147 169 160 0
12.7049 75.6358 -42.6169 0.504 -0.232 0.832 158 172 167 0
16.5600 74.7365 -40.4666 0.608 -0.379 0.698 162 173 167 0
13.9461 75.6728 -41.7305 0.597 -0.382 0.705 166 176 170 0
15.4408 75.4365 -40.8300 0.616 -0.387 0.686 169 178 173 0
8.8212 78.3511 -43.7076 0.883 0.448 -0.137 180 182 180 0
15.4560 36.8153 -64.1025 0.657 -0.036 0.753 239 236 211 0
28.0628 43.2574 -51.4525 0.328 0.400 0.856 177 173 122 0
27.2272 43.4405 -51.9279 0.335 0.399 0.854 176 171 123 0
26.5922 43.6280 -52.2604 0.378 0.346 0.859 179 173 126 0
24.8481 44.0091 -53.2535 0.309 0.123 0.943 182 178 134 0
23.3943 44.7996 -53.8000 0.323 0.099 0.941 195 196 165 0
30.5603 49.8599 -45.7774 0.939 0.107 0.328 41 161 99 0
30.5130 50.0429 -45.7016 0.939 0.107 0.328 41 162 101 0
29.8847 50.2632 -46.0099 0.940 0.154 0.305 39 161 101 0
28.5329 50.7170 -46.6854 0.924 0.334 0.185 39 161 99 0
21.2785 52.1947 -50.8799 0.699 0.688 0.194 39 162 99 0
12.4726 56.9069 -54.2350 0.952 -0.299 0.070 31 151 91 0
10.7682 57.3143 -55.1847 0.954 -0.292 0.066 26 147 87 0
4.9117 68.5869 -52.5738 0.679 -0.679 0.279 14 111 60 0
4.2505 68.9401 -52.8261 0.677 -0.679 0.284 16 111 60 0
6.2160 75.3121 -47.6603 0.970 -0.238 0.039 43 113 72 0
7.8603 75.2905 -46.5231 0.998 0.049 0.040 46 114 75 0
7.8455 75.5005 -46.4085 0.998 0.049 0.040 49 116 77 0
14.9137 74.3693 -42.1380 0.471 -0.276 0.838 66 120 90 0
14.8273 74.7790 -41.9547 0.471 -0.276 0.838 137 167 152 0
14.7841 74.9838 -41.8630 0.471 -0.276 0.838 146 167 159 0
12.9279 75.7027 -42.7336 0.504 -0.232 0.832 158 171 166 0
16.4099 74.9051 -40.7728 0.615 -0.392 0.684 161 172 166 0
15.6299 75.5091 -40.9589 0.616 -0.387 0.686 168 177 172 0
23.5995 94.4852 -24.0947 -0.003 0.259 0.966 155 142 134 0
28.0486 43.5411 -51.5795 0.328 0.400 0.856 189 185 144 0
27.8636 43.7302 -51.5969 0.328 0.400 0.856 192 188 149 0
12.6263 57.0077 -54.3917 0.953 -0.300 0.045 41 164 104 0
10.8189 57.4288 -55.4104 0.954 -0.292 0.066 40 164 104 0
20.6306 71.0743 -40.3923 0.496 -0.535 0.684 33 108 65 0
7.8487 75.6347 -46.6540 0.998 0.049 0.040 48 115 76 0
15.1435 74.4328 -42.2461 0.471 -0.276 0.838 67 120 91 0
15.0572 74.8420 -42.0630 0.471 -0.276 0.838 136 165 153 0
15.0140 75.0466 -41.9715 0.471 -0.276 0.838 148 168 161 0
16.5977 74.9774 -40.9003 0.615 -0.392 0.684 163 174 168 0
16.9159 75.2635 -40.5065 0.880 0.449 -0.155 168 178 172 0
40.4398 82.3550 -19.7604 -0.001 0.164 0.986 163 154 147 0
20.1711 96.8382 -25.3711 0.029 0.212 0.977 153 138 131 0
17.3290 99.1347 -25.9996 0.008 0.215 0.977 152 137 129 0
-5.6270 111.7901 -34.5865 0.010 0.205 0.979 150 136 127 0
20.5301 48.4678 -54.2325 0.772 0.636 0.003 65 163 112 0
20.3951 48.8765 -54.0841 0.846 0.533 -0.031 61 160 109 0
19.4684 49.1211 -54.5918 0.844 0.466 -0.267 58 161 108 0
18.8192 49.3557 -54.9100 0.844 0.465 -0.269 56 161 106 0
19.0046 49.5505 -54.6631 0.848 0.473 -0.239 55 160 104 0
23.5971 51.6452 -50.1749 0.911 0.314 0.267 43 158 101 0
22.7373 52.6801 -50.1645 0.901 0.343 0.264 37 159 102 0
22.6444 52.8819 -50.1097 0.901 0.343 0.264 36 158 102 0
22.5513 53.0839 -50.0549 0.901 0.343 0.264 36 158 103 0
12.6724 57.1209 -54.6166 0.953 -0.300 0.045 38 162 100 0
12.6578 57.3330 -54.5005 0.946 -0.322 0.041 39 163 101 0
10.4396 75.0661 -45.4937 0.980 -0.199 0.016 46 115 74 0
16.3024 74.0463 -41.9663 0.394 -0.422 0.816 59 121 86 0
16.2510 74.8229 -41.5395 0.394 -0.422 0.816 148 167 161 0
13.8392 75.7026 -42.7163 0.481 -0.214 0.850 157 169 163 0
16.1459 75.2335 -41.3689 0.498 -0.494 0.713 162 173 166 0
17.1152 75.3314 -40.6268 0.608 -0.379 0.698 167 177 171 0
34.2469 86.9125 -21.6388 0.022 0.216 0.976 159 149 140 0
21.5323 95.9517 -25.2186 0.029 0.212 0.977 153 139 132 0
21.1166 96.3272 -25.2880 0.029 0.212 0.977 153 138 131 0
20.6979 96.7055 -25.3578 0.029 0.212 0.977 153 138 131 0
20.4419 48.5764 -54.5370 0.772 0.636 0.003 67 163 115 0
18.5390 49.6817 -55.2254 0.844 0.465 -0.269 56 160 106 0
22.4657 53.5859 -50.1142 0.881 0.354 0.314 37 157 102 0
4.6356 58.6297 -59.7346 0.560 -0.436 0.704 35 158 98 0
10.4320 74.9988 -45.8609 0.980 -0.199 0.016 43 115 72 0
10.4686 75.1906 -45.7205 0.980 -0.199 0.016 46 115 75 0
17.0690 73.7694 -41.8931 0.412 -0.264 0.872 53 117 80 0
17.0182 73.9731 -41.8075 0.412 -0.264 0.872 59 120 85 0
14.0660 75.7670 -42.8283 0.481 -0.214 0.850 155 167 161 0
17.0596 75.0965 -41.1079 0.497 -0.495 0.713 161 172 164 0
17.3037 75.4023 -40.7524 0.608 -0.379 0.698 166 177 169 0
16.5390 75.8151 -41.0478 0.880 0.449 -0.155 169 179 171 0
23.8287 94.4376 -24.7717 0.025 0.209 0.978 151 140 131 0
22.7286 95.1528 -25.1242 0.024 0.209 0.978 152 140 132 0
22.0472 95.8243 -25.2062 0.029 0.212 0.977 153 138 131 0
21.6352 96.1977 -25.2752 0.029 0.212 0.977 153 138 131 0
16.4322 100.0501 -26.6620 0.031 0.205 0.978 149 135 126 0
20.3534 48.6854 -54.8426 0.772 0.636 0.003 67 163 115 0
20.0070 49.1055 -54.8381 0.772 0.636 0.003 63 161 111 0
21.2323 49.8475 -53.5233 0.738 0.449 0.504 55 161 107 0
18.7275 50.3925 -54.9795 0.852 0.466 -0.238 50 162 106 0
29.9190 51.3743 -46.4320 0.865 0.292 0.407 43 156 102 0
4.8655 58.5041 -59.9954 0.560 -0.436 0.704 36 155 99 0
21.3395 71.9793 -40.2277 0.492 -0.537 0.685 40 113 70 0
16.1973 73.9451 -42.7114 0.431 -0.217 0.876 50 116 78 0
17.3108 73.8275 -41.9896 0.412 -0.264 0.872 53 117 81 0
17.2601 74.0309 -41.9042 0.412 -0.264 0.872 59 120 86 0
14.2922 75.8312 -42.9401 0.481 -0.214 0.850 155 166 160 0
16.0777 75.6977 -41.7496 0.612 -0.400 0.682 162 173 164 0
17.4919 75.4730 -40.8779 0.608 -0.379 0.698 165 176 167 0
29.2497 90.6143 -23.4699 0.026 0.226 0.974 158 145 136 0
22.8339 95.3946 -25.1785 0.024 0.209 0.978 151 138 130 0
22.4250 95.7653 -25.2480 0.024 0.209 0.978 152 137 130 0
17.5704 99.4279 -26.5137 0.038 0.206 0.978 149 136 126 0
17.1525 99.8160 -26.5791 0.038 0.206 0.978 146 134 123 0
14.4658 34.7976 -67.6606 0.947 -0.319 0.017 237 234 219 0
22.7649 48.8826 -53.3107 0.759 0.436 0.483 68 164 114 0
22.6312 49.0863 -53.2844 0.759 0.436 0.483 66 162 114 0
22.4972 49.2904 -53.2581 0.759 0.436 0.483 62 163 111 0
22.1465 49.5061 -53.3797 0.760 0.429 0.488 57 161 108 0
19.4478 50.2551 -54.8597 0.852 0.464 -0.244 53 162 107 0
18.5626 50.5106 -55.3393 0.852 0.466 -0.238 51 163 107 0
22.6914 53.5843 -50.5521 0.917 0.285 0.278 40 157 101 0
13.9051 55.4469 -55.7151 0.775 0.562 0.289 43 156 104 0
19.6444 72.9311 -41.1615 0.450 -0.236 0.861 44 115 74 0
17.6024 73.6822 -42.1712 0.412 -0.264 0.872 48 116 77 0
17.7057 74.0312 -41.8888 0.439 -0.242 0.865 57 118 85 0
18.2586 74.6256 -41.1384 0.443 -0.240 0.863 146 162 155 0
14.0355 76.0348 -43.3126 0.504 -0.232 0.832 157 167 162 0
20.3470 74.3915 -39.7865 0.585 -0.358 0.728 160 170 163 0
18.4452 75.1317 -40.7025 0.622 -0.357 0.697 163 172 164 0
17.6797 75.5436 -41.0031 0.608 -0.379 0.698 167 175 167 0
16.5622 76.2518 -41.3780 0.616 -0.387 0.686 168 177 167 0
15.9544 76.8135 -41.4763 0.880 0.449 -0.155 173 178 172 0
37.7181 84.7468 -21.1858 0.026 0.209 0.978 157 148 139 0
27.3633 92.1342 -24.1661 0.027 0.225 0.974 150 141 133 0
18.0947 99.2946 -26.5062 0.038 0.206 0.978 146 135 123 0
0.6756 110.1348 -32.4686 0.013 0.205 0.979 145 132 123 0
0.1365 110.6206 -32.5633 0.013 0.205 0.979 144 132 121 0
25.9803 36.0846 -58.9652 0.356 -0.268 0.895 236 233 218 0
22.8311 48.9828 -53.5052 0.759 0.436 0.483 70 165 114 0
22.6974 49.1867 -53.4790 0.759 0.436 0.483 66 163 114 0
22.2143 49.6069 -53.5741 0.760 0.429 0.488 58 162 109 0
18.3969 50.6293 -55.7008 0.852 0.466 -0.238 51 163 107 0
20.0248 50.9342 -54.3505 0.772 -0.633 0.059 51 163 107 0
32.2345 51.9199 -45.0016 0.906 0.254 0.339 45 157 103 0
21.7855 72.2798 -40.3126 0.492 -0.537 0.685 44 114 73 0
18.7498 73.6751 -41.6553 0.443 -0.240 0.863 52 117 80 0
14.2556 76.1008 -43.4277 0.504 -0.232 0.832 156 167 161 0
17.8738 75.4247 -41.2367 0.608 -0.379 0.698 162 169 162 0
17.8672 75.6141 -41.1280 0.608 -0.379 0.698 166 173 166 0
16.7532 76.1330 -41.6166 0.616 -0.387 0.686 167 177 168 0
15.9157 76.7634 -41.8402 0.880 0.449 -0.155 172 177 170 0
14.7234 77.3149 -42.3654 0.846 0.526 -0.084 172 177 171 0
26.0008 93.5725 -24.5455 0.022 0.241 0.970 150 140 130 0
18.4110 99.0992 -26.6826 0.028 0.223 0.974 147 135 123 0
22.2822 49.7078 -53.7686 0.760 0.429 0.488 60 164 111 0
30.1439 58.4318 -42.8788 0.486 -0.627 0.609 32 155 100 0
22.4018 72.2298 -40.1904 0.499 -0.538 0.680 47 114 75 0
19.8690 73.2991 -41.3745 0.444 -0.227 0.867 52 115 79 0
19.2035 73.6714 -41.6308 0.440 -0.246 0.864 55 116 82 0
19.1523 73.8722 -41.5475 0.440 -0.246 0.864 60 118 88 0
20.7242 74.5261 -40.0233 0.585 -0.358 0.728 157 166 158 0
21.3605 74.5209 -39.5681 0.586 -0.365 0.724 162 169 162 0
18.0543 75.6844 -41.2528 0.608 -0.379 0.698 166 173 166 0
20.8659 75.0313 -39.6186 0.606 -0.431 0.669 168 176 168 0
22.9636 49.1835 -53.8944 0.759 0.436 0.483 73 164 118 0
22.3502 49.8087 -53.9632 0.760 0.429 0.488 63 166 113 0
28.2600 54.8385 -46.6717 0.978 0.136 0.161 45 157 104 0
19.9496 74.5083 -40.8887 0.450 -0.236 0.861 144 160 151 0
20.9122 74.5932 -40.1414 0.585 -0.358 0.728 157 167 159 0
18.2411 75.7546 -41.3773 0.608 -0.379 0.698 165 172 165 0
17.1262 76.2760 -41.8712 0.616 -0.387 0.686 168 175 168 0
15.6322 77.1068 -42.4538 0.880 0.449 -0.155 171 174 170 0
0.9833 111.8305 -32.2292 0.900 -0.029 -0.434 140 128 119 0
19.8229 47.6039 -57.4272 0.833 0.411 -0.370 202 217 198 0
20.2242 49.0177 -56.2871 0.846 0.533 -0.031 78 169 124 0
23.0123 49.4821 -53.9828 0.749 0.429 0.506 73 166 121 0
29.5629 52.0767 -47.6668 0.974 -0.026 -0.224 55 161 110 0
29.5983 52.2559 -47.5335 0.974 -0.026 -0.224 54 161 109 0
28.2804 54.9386 -46.8806 0.978 0.136 0.161 48 159 107 0
20.2629 73.6183 -41.4926 0.444 -0.227 0.867 55 120 83 0
20.8792 73.9938 -40.8195 0.976 0.144 -0.161 121 155 139 0
20.8689 74.1799 -40.7153 0.976 0.144 -0.161 133 157 145 0
21.0999 74.6602 -40.2593 0.585 -0.358 0.728 157 168 160 0
21.0867 74.8463 -40.1571 0.585 -0.358 0.728 163 171 164 0
18.4276 75.8247 -41.5016 0.608 -0.379 0.698 165 172 165 0
16.8924 76.4738 -42.2273 0.632 -0.396 0.666 165 174 166 0
27.9413 82.9498 -30.3135 0.052 0.370 0.927 178 168 162 0
0.8529 112.0666 -32.5151 0.900 -0.029 -0.434 140 124 116 0
18.7579 47.9524 -58.3090 0.785 0.573 -0.236 202 218 199 0
19.2989 48.5512 -57.5546 0.833 0.411 -0.370 121 180 146 0
20.1435 49.1279 -56.5920 0.846 0.533 -0.031 79 170 126 0
22.8153 49.9920 -54.1237 0.749 0.429 0.506 66 168 119 0
29.5114 51.9977 -48.0338 0.971 -0.032 -0.238 57 162 111 0
29.5507 52.1770 -47.8974 0.971 -0.032 -0.238 57 162 111 0
20.8162 74.1344 -41.0766 0.976 0.144 -0.161 118 155 137 0
18.4876 75.9326 -41.6949 0.605 -0.376 0.701 165 173 166 0
17.0745 76.5466 -42.3568 0.632 -0.396 0.666 165 174 166 0
28.6152 82.6358 -30.2792 0.053 0.369 0.928 176 169 161 0
28.1932 82.9683 -30.3874 0.053 0.369 0.928 178 168 163 0
1.0201 112.3343 -32.5662 0.900 -0.019 -0.436 139 123 116 0
6.9702 45.9388 -68.4732 0.684 -0.666 0.297 217 224 208 0
5.7785 47.1287 -68.6305 0.286 0.187 0.940 211 221 203 0
5.4578 47.6056 -68.5786 0.284 0.175 0.943 209 220 204 0
5.2753 47.8454 -68.5681 0.284 0.175 0.943 207 218 202 0
19.0510 48.6688 -57.9816 0.833 0.411 -0.370 134 187 153 0
18.9808 48.8781 -57.9071 0.833 0.411 -0.370 103 172 134 0
20.0624 49.2385 -56.8980 0.846 0.533 -0.031 82 173 130 0
23.4908 49.8611 -54.0121 0.751 0.465 0.469 72 171 126 0
29.4499 52.1022 -48.2989 0.971 -0.032 -0.238 60 165 114 0
29.4893 52.2817 -48.1621 0.971 -0.032 -0.238 60 165 114 0
27.8425 55.5609 -47.3963 0.987 0.127 0.102 48 160 109 0
20.7530 74.2754 -41.3343 0.976 0.144 -0.161 120 156 138 0
12.4200 77.4947 -45.5026 0.994 -0.107 0.036 157 168 160 0
11.7145 77.9042 -45.7731 0.994 -0.103 0.038 161 172 164 0
18.6742 76.0023 -41.8186 0.605 -0.376 0.701 164 174 166 0
17.2564 76.6193 -42.4861 0.632 -0.396 0.666 165 174 167 0
8.0833 94.1851 -38.6413 0.291 0.280 0.915 170 161 153 0
-0.7655 99.0463 -42.1999 0.286 0.345 0.894 169 159 151 0
19.1816 99.0522 -27.5841 0.367 -0.364 0.856 148 133 126 0
0.8853 112.5739 -32.8548 0.900 -0.019 -0.436 139 124 117 0
15.2424 41.1288 -65.6398 0.937 0.287 -0.200 229 230 212 0
4.1428 47.2899 -70.0956 0.680 -0.673 0.290 213 223 206 0
5.6685 47.7198 -68.7145 0.286 0.187 0.940 210 221 205 0
5.5371 47.9579 -68.6678 0.284 0.175 0.943 208 220 203 0
18.8015 48.7871 -58.4113 0.833 0.411 -0.370 146 193 163 0
18.7310 48.9972 -58.3367 0.833 0.411 -0.370 112 175 141 0
18.6605 49.2074 -58.2620 0.833 0.411 -0.370 98 173 137 0
19.9811 49.3494 -57.2051 0.846 0.533 -0.031 92 175 137 0
29.4277 52.3867 -48.4276 0.971 -0.032 -0.238 62 165 115 0
29.4672 52.5661 -48.2906 0.971 -0.032 -0.238 60 166 114 0
27.8852 55.4759 -47.7026 0.987 0.127 0.102 51 162 111 0
27.8518 55.6634 -47.6142 0.987 0.127 0.102 49 162 111 0
26.6234 60.5959 -45.5484 0.889 0.430 0.155 42 152 103 0
20.6897 74.4168 -41.5928 0.976 0.144 -0.161 120 156 137 0
11.7365 78.0318 -46.0025 0.994 -0.103 0.038 161 172 164 0
14.9620 77.2533 -44.0985 0.615 -0.320 0.721 164 174 166 0
17.4380 76.6918 -42.6152 0.632 -0.396 0.666 165 174 167 0
8.3705 94.2085 -38.7399 0.291 0.280 0.915 172 162 153 0
8.1167 94.5128 -38.7434 0.291 0.278 0.915 171 161 153 0
14.0244 40.9782 -66.9645 0.933 0.281 -0.225 229 231 211 0
13.9826 41.1999 -66.8619 0.933 0.281 -0.225 229 231 211 0
5.5501 47.1394 -69.5114 0.575 -0.670 0.469 214 224 208 0
18.5503 48.9063 -58.8439 0.833 0.411 -0.370 167 207 182 0
18.4796 49.1171 -58.7691 0.833 0.411 -0.370 132 185 158 0
18.4088 49.3280 -58.6943 0.833 0.411 -0.370 112 178 148 0
18.3379 49.5390 -58.6195 0.833 0.411 -0.370 105 177 145 0
19.0343 51.7625 -56.7652 0.852 0.471 -0.228 73 169 126 0
30.3303 51.6817 -48.4700 0.397 0.468 0.790 64 169 123 0
0.4744 65.8222 -62.0021 0.616 -0.603 0.507 40 154 102 0
20.6261 74.5586 -41.8521 0.976 0.144 -0.161 122 157 138 0
13.4937 77.2423 -45.5033 0.966 -0.246 0.083 153 164 158 0
12.4640 77.7482 -45.9591 0.994 -0.107 0.036 156 167 160 0
15.1517 77.3264 -44.2280 0.615 -0.320 0.721 164 173 167 0
17.6192 76.7642 -42.7441 0.632 -0.396 0.666 165 173 167 0
8.6567 94.2319 -38.8381 0.291 0.280 0.915 172 162 152 0
14.8800 41.1102 -66.5892 0.935 0.278 -0.219 227 230 209 0
14.8384 41.3303 -66.4873 0.935 0.278 -0.219 227 230 209 0
13.8212 41.5262 -67.1236 0.933 0.281 -0.225 226 229 208 0
18.2264 49.2377 -59.2044 0.833 0.411 -0.370 169 212 190 0
18.1553 49.4494 -59.1295 0.833 0.411 -0.370 148 200 176 0
18.0842 49.6612 -59.0545 0.833 0.411 -0.370 136 195 169 0
20.5623 74.7009 -42.1122 0.976 0.144 -0.161 123 156 139 0
13.5421 77.3602 -45.7153 0.966 -0.246 0.083 152 164 159 0
11.5254 78.1653 -46.7254 0.993 -0.110 0.042 156 167 161 0
19.3549 76.1732 -42.1197 0.608 -0.379 0.698 164 173 168 0
17.8002 76.8365 -42.8728 0.632 -0.396 0.666 165 173 168 0
8.9421 94.2551 -38.9360 0.291 0.280 0.915 172 162 152 0
8.6769 94.5642 -38.9463 0.291 0.280 0.915 172 162 152 0
26.7307 92.0048 -27.0991 0.487 -0.035 0.873 154 141 132 0
45.5379 48.6466 -39.5414 0.631 -0.272 0.726 168 218 197 0
18.1756 54.3069 -56.5033 0.793 0.609 0.016 69 170 126 0
31.9196 56.7084 -44.8166 0.789 0.541 0.292 54 161 114 0
23.4622 59.9501 -49.1584 0.785 0.552 0.282 50 158 113 0
17.1859 75.0610 -44.7089 0.996 -0.092 0.022 53 134 92 0
20.5087 74.6559 -42.4787 0.976 0.144 -0.161 95 143 119 0
12.4920 77.8091 -46.5456 0.994 -0.107 0.036 151 164 159 0
11.4607 78.3200 -47.0052 0.995 -0.099 0.018 157 168 162 0
