ply
format ascii 1.0
element vertex 815
property float x
property float y
property float z
property float nx
property float ny
property float nz
property uchar diffuse_red
property uchar diffuse_green
property uchar diffuse_blue
property uchar class
end_header
28.2863 24.4349 -24.2418 -0.694 -0.633 -0.343 202 175 118 0
29.6193 20.5029 -25.0595 0.029 -0.639 -0.768 189 163 112 0
18.6755 7.5200 -20.4492 -0.266 -0.627 0.732 184 160 113 0
-47.0389 56.0303 12.9048 0.313 -0.794 -0.520 255 255 255 0
-46.2828 49.5555 12.2536 0.039 -0.997 -0.063 222 200 165 0
-46.2808 48.4140 12.2015 -0.626 -0.011 0.780 222 200 165 0
-46.5118 45.5482 12.1834 -0.877 0.073 0.474 221 198 163 0
-39.3987 78.3648 10.2579 -0.513 -0.746 0.425 224 200 160 0
-39.1562 78.6532 10.1550 -0.444 -0.795 0.414 223 199 159 0
-37.0872 53.9875 8.0619 -0.401 -0.425 0.812 228 207 164 0
-32.4363 66.2232 6.3897 -0.101 -0.551 0.829 229 207 166 0
-29.9785 69.1172 5.3459 0.288 -0.957 0.036 231 209 169 0
-25.7630 59.8900 2.9198 -0.592 -0.384 -0.709 248 227 187 0
-25.6219 59.6884 2.8434 -0.611 -0.367 -0.701 246 226 187 0
-21.1880 66.8159 1.0459 -0.675 -0.712 -0.194 249 229 189 0
-21.2495 65.9271 1.0354 -0.657 -0.698 -0.286 248 230 189 0
-21.8078 62.1335 1.1320 -0.294 -0.641 0.709 247 230 188 0
-20.1236 62.7659 0.3562 -0.246 -0.948 0.202 250 228 189 0
-17.0901 60.9594 -1.1730 -0.856 -0.192 0.480 250 231 191 0
-0.2435 49.1369 -9.7460 -0.799 -0.507 -0.324 239 224 181 0
13.9395 44.3680 -16.7312 0.015 -0.999 -0.039 233 214 170 0
14.2074 44.0094 -16.8752 -0.283 -0.959 -0.017 229 212 167 0
14.4253 43.9471 -16.9820 -0.283 -0.959 -0.017 229 212 165 0
16.9801 40.2957 -18.3654 -0.219 -0.962 -0.164 229 206 155 0
20.0115 42.8027 -19.7003 -0.675 -0.275 0.684 227 206 153 0
19.3329 40.2207 -19.4921 -0.460 -0.557 0.692 223 205 153 0
19.1357 39.6356 -19.4242 -0.581 -0.498 0.644 222 206 153 0
19.8822 39.5548 -19.7842 -0.438 -0.290 0.851 225 204 150 0
19.7234 38.6913 -19.7470 -0.840 -0.283 0.463 223 202 149 0
15.6370 22.8904 -18.5041 -0.841 -0.541 0.004 216 188 135 0
26.9431 33.3550 -23.4331 -0.088 -0.726 -0.682 213 185 135 0
28.0776 33.9564 -23.9478 0.641 -0.717 0.274 212 184 136 0
23.4570 24.6045 -22.1609 0.393 -0.913 -0.111 209 180 124 0
28.4604 24.9397 -24.5346 -0.792 -0.390 -0.470 201 175 119 0
29.1996 25.3756 -24.8681 -0.772 -0.407 -0.487 199 174 117 0
25.6652 9.7786 -23.8795 0.433 -0.896 -0.101 172 148 104 0
26.1333 9.5143 -24.1149 -0.193 -0.974 -0.118 169 145 102 0
-46.4113 52.8967 12.2637 -0.625 -0.753 0.204 222 200 163 0
-46.2738 52.7481 12.1915 -0.643 -0.735 0.216 223 199 166 0
-46.3697 49.5942 12.1012 0.018 -0.998 -0.054 224 201 166 0
-46.5939 45.5980 12.0360 -0.879 0.073 0.470 222 199 164 0
-32.4603 69.2971 6.2962 -0.997 0.074 -0.003 229 206 165 0
-32.5269 66.3030 6.1988 -0.119 -0.583 0.804 229 207 165 0
-33.1632 58.4630 6.1649 -0.903 0.119 0.413 229 207 168 0
-31.6421 64.1945 5.6844 0.164 -0.337 0.927 229 207 168 0
-27.6705 66.5610 3.8862 -0.968 -0.163 -0.191 231 212 169 0
-25.3074 72.3508 3.0054 -0.725 -0.404 -0.558 234 213 171 0
-25.3722 60.2139 2.5125 -0.585 -0.382 -0.716 247 228 187 0
-23.1435 66.3769 1.7122 0.555 -0.825 0.106 248 229 187 0
-22.8838 66.5364 1.5948 0.555 -0.825 0.106 248 229 187 0
-21.9598 61.9905 0.9564 -0.310 -0.639 0.704 248 230 190 0
-21.9370 60.7521 0.8921 -0.148 -0.404 0.903 249 230 191 0
-21.8470 60.3854 0.8332 -0.158 -0.869 0.469 249 229 189 0
-21.6944 60.2147 0.7528 -0.185 -0.876 0.446 251 229 189 0
-20.8086 61.6513 0.3910 -0.415 -0.910 0.002 251 229 190 0
-20.6921 61.3636 0.3228 0.025 -0.989 0.144 251 229 189 0
-20.1438 62.3843 0.1045 -0.002 -0.990 -0.140 251 229 189 0
-19.8714 62.5624 -0.0181 0.094 -0.980 0.176 250 231 190 0
-19.9705 61.6252 -0.0112 -0.646 -0.694 0.318 251 232 192 0
6.4232 42.0261 -13.4863 -0.935 -0.352 0.038 235 218 175 0
19.9768 42.8779 -19.9347 -0.571 -0.296 0.766 227 207 155 0
20.0714 42.6484 -19.9899 -0.474 -0.284 0.833 228 208 155 0
20.2388 42.5120 -20.0759 -0.484 -0.326 0.812 227 206 153 0
19.1210 39.7307 -19.6611 -0.558 -0.519 0.648 221 206 150 0
18.7174 38.8903 -19.5042 -0.429 -0.483 0.764 221 205 151 0
20.1060 39.9444 -20.1232 -0.362 -0.360 0.860 223 202 150 0
19.3479 38.6718 -19.8154 -0.677 -0.327 0.660 223 202 150 0
19.9904 39.1303 -20.1030 -0.470 -0.331 0.818 223 201 150 0
19.7658 38.5217 -20.0218 -0.689 -0.262 0.676 222 200 150 0
15.4973 23.6331 -18.6221 -0.862 -0.506 0.020 214 188 134 0
15.9442 22.7672 -18.8733 0.166 -0.942 -0.292 216 186 133 0
26.9578 33.7640 -23.6685 -0.131 -0.714 -0.687 211 186 134 0
16.8196 16.0319 -19.5829 -0.635 -0.755 0.162 206 177 124 0
16.8412 15.8122 -19.6027 -0.612 -0.769 0.187 204 176 123 0
30.2054 25.8632 -25.5634 -0.596 -0.585 -0.550 199 172 117 0
29.7447 25.1589 -25.3734 -0.611 -0.622 -0.490 199 172 119 0
30.6705 24.6906 -25.8366 -0.954 -0.185 0.236 196 167 118 0
32.2599 22.7338 -26.6816 0.166 -0.713 -0.682 188 162 113 0
22.4131 7.8175 -22.6139 0.214 -0.697 -0.684 173 149 104 0
25.4640 9.6652 -23.9939 0.407 -0.903 -0.140 170 146 100 0
30.9557 13.4324 -26.4590 -0.009 -0.950 -0.312 169 145 101 0
-46.5020 52.9295 12.1072 -0.625 -0.753 0.204 226 203 166 0
-32.3102 71.4339 6.0699 -0.997 0.072 -0.017 228 207 164 0
-33.1938 58.7724 5.9679 -0.915 0.130 0.383 228 207 167 0
-31.3844 64.9215 5.3555 0.078 -0.229 0.970 229 207 168 0
-30.9681 65.8571 5.1947 0.231 -0.533 0.814 231 208 169 0
-27.6297 70.3748 3.7814 -0.885 -0.343 -0.316 233 212 169 0
-25.6263 61.0862 2.4350 -0.619 -0.414 -0.667 250 229 187 0
-20.3225 62.1676 -0.0635 -0.006 -0.995 -0.101 253 231 190 0
-19.4725 61.5239 -0.4978 -0.901 -0.086 0.425 249 230 190 0
12.2252 52.2381 -16.0837 -0.925 -0.308 -0.224 238 218 175 0
19.8303 42.1117 -20.1510 -0.597 -0.401 0.695 224 204 152 0
19.8809 40.1161 -20.2581 -0.507 -0.338 0.793 222 203 147 0
22.7417 36.6403 -21.7743 -0.009 0.161 0.987 216 194 152 0
14.8093 22.1524 -18.5719 -0.589 -0.799 0.119 216 186 133 0
8.1063 11.9939 -15.7792 -0.846 -0.524 -0.092 210 184 133 0
30.6158 27.1457 -25.9444 -0.900 -0.094 0.426 200 173 118 0
30.9193 27.1602 -26.0894 -0.887 -0.227 0.403 198 173 117 0
30.4767 26.4653 -25.9060 -0.883 -0.287 0.372 200 174 120 0
24.5295 17.5828 -23.4228 -0.302 -0.553 -0.777 194 164 112 0
24.5695 17.3767 -23.4505 -0.265 -0.560 -0.785 193 163 111 0
31.4697 22.8672 -26.5316 0.115 -0.700 -0.705 189 163 112 0
18.3858 7.2173 -20.9069 -0.055 -0.978 0.202 180 157 107 0
-42.4118 58.4379 10.1595 -0.581 -0.060 0.812 226 203 162 0
-42.1122 56.0418 9.9200 -0.986 -0.160 -0.049 226 203 163 0
-36.1096 43.0091 6.5157 -0.115 -0.906 -0.408 232 213 171 0
-26.5159 71.8783 3.0557 -0.602 -0.587 -0.542 234 215 172 0
-25.7992 72.9890 2.7555 -0.752 -0.392 -0.531 235 216 173 0
-25.4563 73.4729 2.6100 -0.798 -0.368 -0.478 235 215 172 0
-25.1158 73.9410 2.4650 -0.819 -0.299 -0.490 238 217 174 0
-27.2583 61.3603 2.9932 0.473 -0.821 0.319 240 220 177 0
-27.3556 60.2860 2.9972 0.413 -0.873 0.260 240 221 178 0
-27.1798 60.2064 2.9095 0.400 -0.907 0.131 240 221 178 0
-20.8072 61.6624 -0.0951 -0.236 -0.972 -0.002 252 230 191 0
12.2036 51.9512 -16.3472 -0.996 -0.092 0.006 239 220 178 0
14.2484 44.0960 -17.6430 -0.362 -0.914 0.183 230 213 163 0
14.4425 43.9996 -17.7401 -0.362 -0.914 0.183 229 211 161 0
21.8927 42.7360 -21.3710 -0.278 -0.434 0.857 221 203 150 0
22.4990 43.1416 -21.6462 -0.431 -0.439 0.788 222 202 149 0
21.4917 34.9759 -21.4876 -0.000 0.125 0.992 215 196 156 0
23.1481 8.7283 -23.3299 0.262 -0.732 -0.629 172 149 104 0
27.1141 11.5419 -25.1238 0.232 -0.732 -0.641 170 147 102 0
27.0325 11.2556 -25.0961 -0.733 -0.612 0.298 170 147 101 0
27.2683 11.2276 -25.2105 -0.847 -0.468 0.252 168 145 100 0
-46.5813 52.5601 11.7278 -0.568 -0.810 0.146 224 203 163 0
-46.7110 50.2882 11.7035 -0.699 -0.711 0.074 223 204 164 0
-42.7804 56.6793 10.0545 -0.436 -0.415 0.799 225 202 162 0
-42.7655 54.6219 9.9687 -0.732 -0.015 0.681 227 203 164 0
-42.6331 50.3514 9.7418 0.566 -0.781 -0.264 226 204 165 0
-38.7337 43.8867 7.6167 0.393 -0.827 0.403 230 208 167 0
-32.6982 60.1875 5.3324 0.614 -0.786 0.077 232 214 172 0
-36.1091 43.3867 6.3334 -0.302 -0.877 -0.374 232 214 171 0
-26.2672 66.8851 2.4907 -0.659 -0.424 -0.621 238 220 176 0
-27.1893 61.9978 2.7481 -0.104 -0.975 0.197 240 221 178 0
-27.2741 60.9620 2.7494 0.418 -0.907 0.057 241 223 179 0
-3.9924 17.1768 -10.1371 0.643 -0.765 -0.034 230 209 159 0
-4.5262 2.2100 -10.4518 0.742 -0.633 0.220 213 190 140 0
11.3402 18.2717 -17.4803 -0.935 -0.285 -0.212 212 187 132 0
28.2535 28.3384 -25.2421 0.304 -0.127 0.944 204 177 124 0
25.6702 22.8232 -24.2086 -0.908 -0.377 0.182 201 173 115 0
25.9817 22.8596 -24.3572 -0.334 -0.936 0.110 200 175 116 0
25.8405 22.4632 -24.3043 -0.333 -0.827 0.454 198 174 115 0
29.8965 24.7144 -26.1719 -0.959 -0.215 0.186 191 167 113 0
29.6188 24.1888 -26.0582 0.238 -0.928 0.286 189 166 112 0
29.7670 24.0622 -26.1345 0.264 -0.945 0.193 192 167 114 0
12.2863 6.7385 -18.3766 -0.012 0.011 1.000 191 163 115 0
34.7666 24.9058 -28.5103 -0.568 -0.295 0.768 186 160 111 0
15.4166 4.9886 -19.9512 0.091 -0.947 0.308 178 156 106 0
15.1708 4.5778 -19.8486 0.069 -0.915 0.397 177 155 107 0
41.0580 24.7923 -31.5449 -0.645 -0.124 0.754 174 152 104 0
23.5515 9.1096 -23.7120 0.268 -0.747 -0.609 171 148 104 0
-38.8209 47.8170 7.6069 -0.463 -0.082 0.883 230 208 168 0
-32.4895 72.1831 5.4412 -0.976 0.119 0.183 231 212 170 0
-26.7083 72.0192 2.6445 -0.607 -0.560 -0.564 236 217 174 0
-28.2990 61.2262 3.0179 -0.076 -0.995 0.072 237 218 175 0
-28.1261 61.1332 2.9311 -0.126 -0.992 0.025 238 219 176 0
-27.6941 61.2654 2.7274 0.340 -0.930 0.140 239 220 177 0
-27.3388 61.8387 2.5768 -0.124 -0.934 0.336 240 221 178 0
-27.4140 60.8357 2.5764 0.419 -0.904 0.087 240 223 179 0
13.3807 43.5155 -17.7487 0.444 -0.879 0.171 232 214 166 0
8.8317 20.4941 -16.3942 -0.683 -0.560 0.468 214 195 162 0
8.9539 20.3687 -16.4578 -0.677 -0.645 0.355 213 195 161 0
10.2307 17.3927 -17.1829 0.755 -0.608 0.244 212 186 136 0
28.0261 29.0412 -25.3472 -0.151 -0.499 0.854 206 175 127 0
28.0511 27.9355 -25.3997 0.314 -0.113 0.943 203 178 123 0
28.8805 26.2538 -25.8615 0.443 -0.726 -0.527 203 173 114 0
25.6958 22.3960 -24.4652 -0.419 -0.907 -0.033 198 174 115 0
25.7068 22.1463 -24.4797 -0.408 -0.836 0.368 195 171 112 0
30.1876 25.8679 -26.5066 -0.615 -0.617 -0.491 196 171 115 0
29.0047 23.9501 -26.0057 0.421 -0.261 0.869 192 168 114 0
29.2892 23.9517 -26.1430 0.421 -0.261 0.869 189 166 112 0
28.9928 23.4115 -26.0196 0.493 -0.450 0.745 191 166 113 0
32.7132 26.3313 -27.7088 -0.954 -0.291 -0.078 191 166 114 0
34.5239 24.7572 -28.6404 -0.638 -0.259 0.726 186 158 110 0
24.5914 14.9620 -24.2038 -0.813 -0.564 -0.142 182 159 105 0
16.3821 5.8646 -20.5736 0.395 -0.775 0.493 179 155 107 0
-46.7850 52.4431 11.4189 0.213 -0.848 -0.485 225 202 162 0
-47.0305 46.8184 11.3415 -0.486 0.009 0.874 223 204 164 0
-44.2765 58.0846 10.4022 0.566 -0.652 0.504 221 202 160 0
-32.4267 84.4273 5.5886 -0.929 -0.265 0.259 230 208 167 0
-39.0184 47.2942 7.4821 -0.471 -0.078 0.879 229 207 166 0
-32.4580 71.9112 5.1671 -0.895 -0.445 0.028 230 213 170 0
-32.4228 71.1296 5.1228 -0.825 -0.412 -0.388 230 212 170 0
-28.1214 61.5452 2.7075 0.161 -0.910 0.382 239 220 177 0
-28.0179 61.1916 2.6451 0.374 -0.797 0.473 240 221 178 0
-27.7954 61.2808 2.5406 0.448 -0.698 0.559 240 221 179 0
-27.6795 60.9760 2.4739 -0.069 -0.890 0.450 241 222 180 0
-27.4278 61.1698 2.3589 0.412 -0.900 0.138 242 224 181 0
6.5592 42.9462 -14.7189 -0.791 -0.604 0.094 235 217 178 0
5.4481 40.5043 -14.2665 -0.855 -0.504 0.123 234 216 175 0
4.2095 16.7320 -14.4967 0.554 -0.544 0.630 217 197 166 0
27.1848 28.2761 -25.2088 -0.072 -0.650 0.756 206 176 125 0
26.0902 22.5822 -24.8779 -0.178 -0.948 -0.264 195 170 115 0
30.9065 26.0763 -27.0860 -0.440 -0.654 0.615 194 169 115 0
28.4836 23.0069 -26.0209 0.519 -0.422 0.744 192 167 114 0
22.2648 12.0668 -23.3941 0.150 -0.919 0.365 182 156 108 0
16.1306 5.6993 -20.6487 0.406 -0.778 0.480 179 154 106 0
14.7944 4.3544 -20.0492 0.313 -0.947 0.066 179 153 108 0
24.8813 10.0871 -24.7290 0.313 -0.772 -0.553 168 145 101 0
29.3007 12.8072 -26.7721 0.124 -0.695 -0.709 165 140 99 0
34.0582 13.8804 -29.0362 -0.927 -0.288 0.241 255 255 254 0
-46.4658 54.5353 11.1320 0.195 -0.883 -0.426 223 204 164 0
-45.0607 60.4893 10.6485 0.570 -0.819 0.068 223 207 164 0
-44.6450 61.0865 10.4668 0.482 -0.831 0.278 223 204 164 0
-32.4429 73.4819 4.9626 -0.836 -0.542 -0.090 230 213 169 0
-32.3688 72.8654 4.9062 -0.881 -0.473 -0.020 230 213 170 0
-29.2960 60.4738 3.0048 0.150 -0.988 0.038 239 221 176 0
-29.1223 60.3908 2.9178 -0.405 -0.908 -0.105 238 220 175 0
-27.9767 60.9999 2.3826 -0.228 -0.831 0.507 239 222 178 0
-27.4939 61.3144 2.1589 -0.131 -0.914 0.385 245 227 185 0
-27.3710 61.0350 2.0901 -0.183 -0.916 0.357 246 227 187 0
7.0674 45.0231 -15.1389 -0.819 -0.521 0.240 238 220 177 0
6.5392 43.4389 -14.9354 -0.694 -0.717 0.067 235 218 176 0
5.1508 40.5584 -14.3580 -0.455 -0.846 0.277 236 219 177 0
5.2033 40.2709 -14.3930 -0.597 -0.732 0.328 233 217 175 0
27.0811 21.7683 -25.6148 0.559 -0.556 0.616 190 166 111 0
36.3922 28.4824 -29.9061 0.614 -0.789 0.029 189 164 110 0
21.2653 10.8096 -23.1592 0.177 -0.982 0.067 181 155 109 0
15.0376 4.6112 -20.3457 0.069 -0.993 -0.097 178 150 105 0
13.8817 3.4258 -19.8246 0.035 -0.999 -0.002 177 151 104 0
31.9151 14.5173 -28.1994 -0.071 -0.767 -0.637 161 136 96 0
-46.5578 54.5718 10.9720 0.197 -0.883 -0.426 223 205 164 0
-44.7841 60.8046 10.3068 0.488 -0.810 0.326 221 202 162 0
-46.4787 45.5878 10.6500 0.511 -0.855 -0.092 220 203 160 0
-42.5632 51.1212 8.9221 0.620 -0.740 -0.261 224 207 164 0
-26.9509 75.8526 2.1166 0.414 -0.167 0.895 235 216 176 0
-26.7063 75.9613 2.0011 0.387 -0.156 0.909 236 217 178 0
-28.8271 61.1704 2.5649 -0.707 -0.707 -0.008 239 220 179 0
6.8229 44.7919 -15.2743 -0.788 -0.447 0.424 239 220 177 0
7.0672 44.7845 -15.3932 -0.612 -0.772 -0.170 239 220 177 0
6.9172 44.1678 -15.3398 -0.817 -0.389 0.426 236 219 176 0
9.0626 47.0844 -16.2902 -0.837 -0.504 -0.214 236 219 177 0
2.3481 15.1917 -14.0341 0.609 -0.436 0.662 216 197 167 0
3.1367 15.6251 -14.4036 0.561 -0.389 0.731 213 195 165 0
3.3362 15.6084 -14.5011 0.546 -0.382 0.746 212 195 165 0
10.4150 21.7731 -17.7461 -0.765 -0.571 0.298 212 196 163 0
-8.3450 -3.1142 -9.4160 0.620 -0.392 0.680 208 186 138 0
26.5098 30.9232 -25.2778 -0.293 -0.298 0.909 204 181 130 0
8.8772 11.5817 -17.3205 -0.216 -0.968 0.129 204 179 126 0
25.9404 20.7721 -25.3215 -0.473 -0.844 0.254 191 166 112 0
25.5821 20.1839 -25.1659 -0.278 -0.481 0.831 188 165 111 0
-45.4307 60.5007 10.3942 0.609 -0.733 0.302 224 205 167 0
-44.8719 60.9142 10.1344 0.471 -0.833 0.290 221 202 162 0
-46.4944 45.0292 10.4497 0.181 -0.884 0.432 221 202 161 0
-46.3566 44.9543 10.3804 0.128 -0.866 0.484 222 201 162 0
-46.2047 44.9821 10.3073 0.014 -0.911 0.412 222 199 161 0
-43.1672 48.9445 8.9465 0.616 -0.784 0.068 225 206 164 0
-35.2636 54.3360 5.2589 0.259 -0.915 0.311 232 213 172 0
-28.9022 61.2870 2.3688 -0.754 -0.656 0.033 240 221 181 0
-27.5710 61.8102 1.7363 -0.639 -0.754 0.153 247 228 188 0
-27.4120 61.6589 1.6543 -0.639 -0.754 0.153 248 229 189 0
8.4928 47.1443 -16.2639 -0.984 -0.176 -0.029 237 218 176 0
8.7662 47.1725 -16.3962 -0.892 -0.395 0.220 237 218 176 0
8.6708 46.6316 -16.3659 -0.883 -0.432 0.186 237 219 178 0
9.0391 46.8053 -16.5400 -0.942 -0.312 0.126 237 218 178 0
13.9676 44.5023 -19.0089 0.307 -0.816 0.490 230 213 170 0
14.4266 44.7737 -19.2243 0.170 -0.889 0.425 231 213 170 0
17.4647 47.4884 -20.6226 0.740 -0.618 0.265 228 208 165 0
14.9965 32.8789 -19.8573 -0.628 -0.090 0.773 217 200 168 0
10.4070 21.8502 -17.9520 -0.756 -0.518 0.400 212 196 163 0
18.5693 19.5725 -21.9949 0.012 -0.971 -0.239 206 177 127 0
21.3933 22.1479 -23.2930 -0.778 -0.475 0.411 206 177 127 0
25.4105 20.0915 -25.3107 -0.643 -0.719 0.264 190 165 112 0
17.1323 8.1843 -21.6355 -0.373 -0.869 -0.326 179 156 104 0
38.2317 24.0366 -31.4363 -0.525 -0.849 -0.059 178 149 103 0
37.8194 23.1669 -31.2616 -0.623 -0.737 -0.262 176 148 104 0
29.9442 13.4861 -27.7159 0.426 -0.650 0.629 163 138 98 0
29.4693 12.6498 -27.5097 0.306 -0.654 0.692 158 133 93 0
-47.1183 52.8246 10.7836 0.157 -0.830 -0.536 225 203 167 0
-45.1286 61.0296 10.0440 0.505 -0.815 0.284 227 205 168 0
-27.6661 61.8520 1.5450 -0.639 -0.754 0.153 248 229 189 0
-27.4716 61.8302 1.4495 -0.608 -0.774 0.175 248 229 189 0
7.9293 46.4210 -16.2621 -0.968 -0.251 -0.008 236 217 176 0
8.5400 46.9738 -16.5445 -0.967 -0.241 0.079 235 216 176 0
9.2600 47.2947 -16.8869 -0.896 -0.427 0.122 235 215 178 0
16.5092 35.8166 -20.7485 -0.093 -0.467 0.879 216 202 169 0
16.6872 35.3871 -20.8475 0.015 -0.899 0.437 217 200 170 0
1.6303 13.9980 -14.1028 0.563 -0.375 0.736 213 196 167 0
16.0144 27.2430 -20.7490 -0.795 -0.005 0.607 213 194 164 0
18.1168 19.4448 -21.9951 0.451 -0.808 0.380 205 177 127 0
18.4237 19.4988 -22.1433 0.223 -0.893 0.391 204 177 127 0
31.9378 29.8789 -28.4457 0.524 -0.753 -0.398 197 172 117 0
28.3623 14.9955 -27.1208 -0.582 -0.802 -0.134 172 148 103 0
28.6352 14.9921 -27.2541 -0.518 -0.833 -0.196 171 147 103 0
28.3175 14.4929 -27.1131 -0.298 -0.844 -0.446 172 148 104 0
-46.7943 45.2244 10.2201 0.261 -0.935 -0.238 223 204 164 0
-41.6926 63.9669 8.2223 -0.929 -0.365 -0.058 224 205 165 0
-32.8175 64.5995 3.8983 -0.445 -0.685 -0.577 234 217 174 0
-29.0509 61.5283 1.9746 0.355 -0.814 0.460 242 225 182 0
-28.8596 61.5038 1.8804 0.397 -0.838 0.375 242 225 182 0
-28.7212 61.2772 1.8066 0.155 -0.987 0.035 241 224 181 0
-27.5779 61.8308 1.2621 -0.614 -0.767 0.188 248 229 189 0
8.5831 47.1923 -16.8128 -0.939 -0.341 -0.049 234 215 177 0
13.0542 44.5993 -19.0684 -0.725 -0.469 -0.504 232 213 177 0
13.1922 43.3138 -19.1700 -0.188 -0.973 -0.131 231 212 178 0
21.0752 21.7157 -23.5989 -0.698 -0.581 0.419 202 176 125 0
21.9976 22.3740 -24.0325 -0.520 -0.650 0.554 202 176 125 0
31.1247 28.3187 -28.3388 -0.679 -0.661 -0.318 195 172 117 0
28.5446 14.9720 -27.4312 -0.593 -0.805 0.031 172 148 105 0
29.1081 14.9780 -27.7066 -0.434 -0.752 -0.496 172 147 106 0
28.8002 14.4886 -27.5690 -0.451 -0.759 -0.470 172 147 106 0
30.2226 15.4393 -28.2394 -0.424 -0.624 -0.656 170 145 104 0
-46.0534 49.2376 9.7655 0.418 -0.381 0.825 225 202 164 0
-41.5757 64.2530 7.9441 -0.936 -0.323 -0.143 225 203 164 0
-38.0819 48.9641 5.8513 0.558 -0.827 0.071 233 211 172 0
-32.8784 64.8106 3.6948 -0.445 -0.685 -0.577 234 216 174 0
-28.9078 61.7262 1.6718 0.281 -0.855 0.436 242 224 182 0
-28.7511 61.5670 1.5911 0.353 -0.897 0.265 243 226 184 0
-28.4394 61.9972 1.4490 0.094 -0.973 0.210 244 226 185 0
-27.9737 62.2460 1.2269 -0.482 -0.865 0.137 248 229 189 0
-27.7147 62.4640 1.1053 -0.623 -0.781 -0.027 248 229 189 0
8.4463 46.3435 -17.0206 -0.910 -0.402 -0.103 235 217 179 0
10.2155 21.8890 -18.4959 -0.803 -0.540 0.252 213 197 164 0
10.3753 21.8007 -18.5764 -0.354 -0.934 -0.051 214 196 165 0
13.8786 13.1592 -20.5085 0.500 -0.753 -0.428 202 176 122 0
24.0044 22.5796 -25.2376 0.500 -0.753 -0.428 199 173 118 0
28.9698 25.2262 -27.6057 -0.873 -0.116 0.474 194 168 119 0
29.0346 25.0171 -27.6426 -0.876 -0.165 0.454 194 167 119 0
43.3339 34.3118 -34.4206 0.005 -0.924 -0.382 188 159 110 0
33.3772 20.3403 -29.8876 -0.111 -0.849 -0.517 180 151 106 0
37.3565 23.2223 -31.7664 0.032 -0.871 -0.491 176 150 105 0
30.0053 15.7846 -28.3480 -0.510 -0.456 -0.729 172 147 106 0
30.3971 15.6403 -28.5437 -0.424 -0.624 -0.656 170 145 104 0
30.6187 15.5891 -28.6536 -0.400 -0.655 -0.641 168 143 102 0
29.3355 13.1496 -28.0853 0.478 -0.855 -0.200 163 138 98 0
31.3138 12.0333 -29.0827 -0.677 -0.735 -0.037 255 255 255 0
-44.2018 57.6491 8.8520 -0.822 -0.553 0.136 227 205 164 0
-38.6141 48.4478 5.8937 0.587 -0.809 -0.024 230 211 173 0
-29.2499 61.5789 1.5981 0.367 -0.892 0.263 240 222 184 0
-28.1045 62.1561 1.0488 -0.544 -0.819 0.184 247 229 193 0
-27.8158 62.4862 0.9146 -0.650 -0.729 0.215 247 229 192 0
12.7257 42.9251 -19.4546 -0.042 -0.996 -0.079 226 211 181 0
19.8553 18.8502 -23.5152 0.506 -0.754 -0.418 203 174 124 0
40.6529 35.8182 -33.3384 0.637 -0.658 0.402 192 166 119 0
32.8450 20.4478 -29.8593 0.071 -0.876 -0.478 177 151 104 0
33.1917 20.4943 -30.0285 -0.144 -0.840 -0.523 178 151 106 0
33.5391 20.5404 -30.1981 -0.144 -0.840 -0.523 180 150 107 0
31.2219 15.6730 -29.1726 -0.399 -0.670 -0.625 167 142 101 0
31.1489 12.4001 -29.2127 -0.642 -0.765 -0.045 254 254 255 0
31.2490 12.0322 -29.2704 -0.681 -0.732 -0.031 255 255 255 0
-45.2538 63.3164 9.2763 0.293 -0.103 0.951 225 204 167 0
-44.3132 61.2892 8.7697 -0.640 -0.758 -0.125 224 202 164 0
-44.0267 62.1376 8.6468 -0.824 -0.567 0.000 225 203 163 0
-44.3146 58.7739 8.7162 -0.847 -0.528 -0.063 227 205 164 0
-38.7415 53.4049 5.8570 -0.264 0.005 0.965 230 212 174 0
-34.2600 63.8869 3.8762 0.523 -0.654 0.546 235 214 171 0
-32.8521 66.8091 3.2458 0.497 -0.850 0.177 237 215 174 0
-30.0758 61.8475 1.7724 -0.540 -0.708 0.455 240 222 182 0
-28.2986 61.8269 0.8970 -0.438 -0.692 0.573 246 228 192 0
8.1983 47.0516 -17.3888 0.198 -0.944 -0.264 234 217 181 0
10.0479 21.5961 -18.8468 -0.331 -0.939 0.096 214 198 164 0
10.5382 21.3449 -19.0936 -0.817 -0.575 -0.039 212 195 162 0
8.7709 10.9522 -18.4470 -0.143 -0.883 -0.448 204 177 130 0
39.5451 34.5498 -33.0902 0.514 -0.854 0.084 193 167 120 0
44.4273 34.5614 -35.4935 0.453 -0.458 0.765 184 158 110 0
33.0081 20.6506 -30.1708 0.072 -0.876 -0.477 177 150 106 0
29.5998 16.0310 -28.5922 -0.349 -0.617 -0.706 171 145 103 0
30.9765 12.5387 -29.3451 -0.650 -0.758 -0.055 245 244 244 0
31.2807 12.1069 -29.5041 -0.694 -0.719 -0.039 255 255 255 0
-47.7181 54.4984 10.0932 0.186 -0.865 -0.467 226 206 176 0
-45.7942 59.7871 9.2488 0.589 -0.433 0.682 224 204 167 0
-44.1611 61.9105 8.4851 -0.823 -0.569 0.005 225 204 163 0
-41.2257 77.8830 7.3534 -0.601 0.045 0.798 224 204 163 0
-37.3537 62.1124 5.1304 -0.072 -0.995 -0.072 229 211 171 0
-34.9135 62.1977 3.9281 -0.227 -0.973 0.030 234 212 171 0
-30.0197 61.7112 1.5039 -0.524 -0.713 0.465 240 222 182 0
5.5434 44.2242 -16.3892 0.131 -0.986 -0.108 233 218 180 0
13.2353 45.0293 -20.1684 -0.597 -0.747 -0.293 225 212 185 0
10.2772 21.9480 -19.1664 -0.725 -0.350 0.593 213 199 163 0
10.4976 21.3839 -19.2863 -0.568 -0.783 -0.254 211 195 162 0
10.7506 21.4020 -19.4108 -0.530 -0.799 -0.283 211 195 163 0
16.5728 21.3540 -22.2844 0.726 -0.532 0.435 206 184 138 0
35.9532 32.7019 -31.6216 0.431 -0.875 0.222 195 172 120 0
35.9910 32.4426 -31.6453 0.617 -0.766 0.178 194 171 120 0
44.0908 34.3350 -35.6042 0.449 -0.487 0.750 186 159 111 0
30.2910 16.6716 -29.1456 -0.068 -0.751 -0.656 172 146 106 0
30.9572 12.5741 -29.5555 -0.662 -0.747 -0.055 246 244 244 0
31.2693 12.3716 -29.7135 -0.652 -0.758 -0.040 254 255 255 0
-43.3898 68.4442 7.9988 0.240 -0.025 0.970 222 203 161 0
-42.4774 62.2360 7.4351 -0.798 -0.068 0.599 226 204 165 0
-37.5211 61.7842 4.9761 -0.167 -0.984 -0.069 229 212 170 0
-37.1748 62.6350 4.8203 -0.597 -0.802 -0.014 228 213 171 0
-34.7071 62.7833 3.6029 -0.329 -0.944 -0.000 236 214 173 0
-30.1346 61.6769 1.3218 -0.524 -0.713 0.465 242 223 182 0
-29.9356 61.6862 1.2236 0.294 -0.791 0.537 243 224 184 0
6.3193 47.1959 -16.9661 -0.607 -0.795 -0.008 236 220 184 0
5.1112 43.6930 -16.4322 -0.320 -0.929 -0.186 233 218 182 0
5.0950 42.8964 -16.4387 0.266 -0.929 0.256 231 217 181 0
16.2446 47.8995 -21.8610 -0.456 -0.836 -0.306 223 209 183 0
10.6107 21.3278 -19.5572 -0.621 -0.783 -0.044 213 196 166 0
10.8720 21.3549 -19.6859 -0.557 -0.829 -0.036 213 196 166 0
17.6624 22.3139 -23.0261 0.726 -0.565 0.392 207 184 142 0
22.0845 24.1866 -25.1787 0.689 -0.648 0.326 205 178 130 0
35.6489 23.8408 -31.8921 0.256 -0.875 0.410 180 154 108 0
37.7986 24.6449 -32.9405 0.185 -0.929 -0.320 177 149 109 0
38.3258 24.8323 -33.1978 0.189 -0.928 -0.320 177 148 108 0
29.8919 16.6318 -29.1762 0.069 -0.933 0.354 173 148 107 0
30.8812 16.7468 -29.6634 -0.828 -0.521 -0.208 168 143 103 0
30.9333 12.6060 -29.7642 -0.670 -0.740 -0.063 246 244 244 0
31.0692 12.4887 -29.8335 -0.670 -0.740 -0.063 254 254 255 0
31.2170 12.3808 -29.9086 -0.662 -0.748 -0.045 254 255 255 0
-44.2761 78.6718 8.3706 -0.493 -0.022 0.870 222 205 171 0
-44.2537 69.6346 8.2109 -0.831 -0.329 0.448 229 209 172 0
-44.1776 63.3451 8.0697 0.241 -0.024 0.970 223 201 162 0
-36.4873 65.8081 4.2993 -0.494 -0.821 -0.287 229 214 171 0
-35.1175 62.2342 3.5618 -0.227 -0.973 0.030 236 214 175 0
-33.5157 65.2647 2.8179 -0.669 -0.592 0.450 236 216 176 0
-30.6339 62.4737 1.3439 0.146 -0.927 0.346 239 224 181 0
-30.2242 62.5369 1.1419 0.250 -0.770 0.587 242 223 181 0
-30.0615 61.6082 1.0460 0.229 -0.656 0.719 243 224 183 0
13.2643 44.5935 -20.7038 -0.670 -0.742 -0.019 222 211 183 0
8.9295 16.1356 -19.0236 -0.842 -0.509 -0.179 209 191 161 0
21.9150 23.5497 -25.3367 0.684 -0.711 0.164 204 178 128 0
37.1631 34.6323 -32.7105 -0.316 -0.593 -0.740 196 173 121 0
24.5536 16.1254 -26.7663 -0.139 -0.799 0.585 180 156 112 0
38.1945 24.5195 -33.3879 0.224 -0.895 -0.386 176 148 108 0
34.9383 18.9689 -31.8656 0.535 -0.647 0.543 166 141 100 0
30.9144 12.6421 -29.9757 -0.678 -0.734 -0.040 246 244 244 0
31.1944 12.4134 -30.1182 -0.662 -0.748 -0.045 254 255 255 0
31.2359 12.2217 -30.1419 -0.685 -0.728 -0.038 255 255 255 0
-44.5568 78.9257 8.2614 -0.496 0.006 0.869 223 204 172 0
-44.5135 77.6465 8.2211 -0.479 -0.029 0.877 221 204 170 0
-44.5356 75.8403 8.2054 -0.533 -0.039 0.845 222 205 170 0
-44.4901 74.6396 8.1651 -0.552 -0.044 0.832 224 205 169 0
-44.2929 70.2016 8.0017 -0.800 -0.331 0.500 227 208 170 0
-44.1959 68.1006 7.9225 -0.258 -0.349 0.901 225 205 165 0
-44.0975 67.4676 7.8643 0.162 -0.312 0.936 224 203 163 0
-42.8341 64.8956 7.1989 -0.908 -0.217 0.359 225 203 164 0
-42.4713 62.5000 6.9834 -0.891 -0.352 0.286 227 205 166 0
-40.6650 70.8790 6.2100 -0.539 -0.651 -0.534 227 205 167 0
-37.2306 75.2233 4.5684 -0.743 -0.639 0.201 228 209 169 0
-36.9239 74.6834 4.4081 -0.669 -0.742 0.032 227 208 169 0
-36.5806 75.4891 4.2496 -0.277 -0.959 0.067 227 208 170 0
-35.1013 60.1375 3.2884 -0.571 -0.045 0.820 236 214 174 0
-35.0866 59.3340 3.2692 -0.497 -0.038 0.867 236 215 175 0
-31.5622 70.1229 1.6781 -0.530 -0.847 0.035 237 218 180 0
-30.8613 61.9796 1.2099 0.006 -0.716 0.698 240 223 180 0
-30.4041 62.2417 0.9867 -0.045 -0.668 0.743 242 223 180 0
-29.8110 60.6878 0.6692 0.335 -0.807 0.486 247 229 187 0
-5.6779 18.1441 -11.9436 -0.604 -0.565 0.562 222 213 184 0
13.6758 21.6864 -21.5029 0.045 -0.264 0.964 209 191 161 0
31.8930 24.8791 -30.5029 0.125 -0.870 -0.476 185 162 111 0
24.1719 15.8454 -26.8017 -0.264 -0.625 0.735 180 156 112 0
38.0540 24.9962 -33.5609 0.123 -0.919 -0.373 177 150 107 0
38.4285 25.0515 -33.7461 0.038 -0.972 -0.230 176 149 107 0
39.1745 25.1563 -34.1150 0.154 -0.976 -0.157 173 148 105 0
30.8914 12.6749 -30.1856 -0.678 -0.734 -0.040 246 245 244 0
31.1477 12.4271 -30.3165 -0.684 -0.728 -0.047 254 255 255 0
31.2132 12.2541 -30.3516 -0.685 -0.728 -0.038 255 255 255 0
-47.9129 54.8155 9.3641 0.245 -0.878 -0.411 225 206 173 0
-44.7670 71.7235 8.0192 -0.559 -0.013 0.829 225 206 167 0
-44.3858 73.3470 7.8507 0.363 -0.613 0.702 226 207 169 0
-44.1676 73.6052 7.7454 0.338 -0.394 0.855 226 206 169 0
-44.4051 70.1895 7.8190 -0.785 -0.366 0.501 226 206 169 0
-44.5118 67.8870 7.8421 -0.555 -0.178 0.813 225 206 166 0
-44.2970 68.1630 7.7388 -0.287 -0.682 0.672 224 205 165 0
-42.6054 63.5087 6.8361 -0.888 -0.360 0.287 228 206 165 0
-37.4313 75.9030 4.4227 0.037 -0.957 0.288 228 209 169 0
-37.3235 75.3597 4.3619 -0.799 -0.576 0.173 228 209 169 0
-36.9333 75.2926 4.1669 -0.575 -0.817 0.045 229 209 170 0
-36.5879 76.1093 4.0057 -0.369 -0.923 0.113 229 209 171 0
-36.4863 75.5397 3.9476 -0.212 -0.899 0.383 229 209 172 0
-41.6417 43.9249 6.1007 0.359 -0.929 -0.094 229 210 170 0
-41.2229 44.4993 5.8998 0.095 -0.949 -0.299 230 211 171 0
-30.6479 61.6855 0.8609 0.062 -0.828 0.558 244 225 182 0
-28.7074 67.8945 -0.0238 -0.261 -0.936 0.235 246 227 187 0
-29.7442 61.3668 0.4070 0.378 -0.770 0.514 247 229 189 0
-29.5173 61.4819 0.2955 0.378 -0.797 0.471 247 230 188 0
12.1652 20.3711 -20.9870 -0.892 -0.167 0.421 209 192 162 0
38.3305 25.0330 -33.9489 -0.235 -0.853 -0.466 179 153 108 0
32.0122 16.4235 -30.9166 0.619 -0.760 0.197 165 140 99 0
31.4088 14.9831 -30.6351 -0.714 -0.669 -0.206 158 133 93 0
31.6202 14.9214 -30.7411 -0.710 -0.670 -0.219 157 132 92 0
30.8699 12.7090 -30.3966 -0.661 -0.749 -0.038 246 245 245 0
31.0834 12.4269 -30.5066 -0.769 -0.640 -0.004 254 255 255 0
-44.5089 70.2458 7.6329 -0.714 -0.406 0.571 226 206 169 0
-44.6216 67.8793 7.6622 -0.504 -0.193 0.842 225 205 168 0
-44.5047 67.3822 7.5982 -0.506 -0.200 0.839 223 203 166 0
-42.7422 63.2937 6.6726 -0.874 -0.416 0.251 227 206 165 0
-37.5674 76.9845 4.2470 -0.066 -0.926 0.372 228 208 171 0
-37.6005 75.5951 4.2478 -0.097 -0.864 0.495 228 208 171 0
-37.4434 75.3395 4.1665 -0.808 -0.567 0.162 227 208 170 0
-41.3056 44.5404 5.7430 0.095 -0.949 -0.299 231 212 172 0
-41.2994 43.7273 5.7307 -0.061 -0.956 -0.287 232 213 173 0
-31.9417 70.3549 1.3657 -0.531 -0.846 0.045 234 219 176 0
-31.0546 62.8766 0.8383 -0.022 -0.971 0.239 241 222 181 0
-31.1360 61.7259 0.8658 0.001 -0.867 0.498 242 222 183 0
-29.0312 67.8735 -0.1143 -0.230 -0.939 0.258 245 226 186 0
-28.8521 67.7630 -0.2048 -0.259 -0.931 0.259 247 228 189 0
-29.8346 61.4299 0.2133 0.261 -0.918 0.299 247 229 191 0
4.3582 44.2748 -17.0367 -0.370 -0.763 -0.529 227 216 186 0
28.4825 23.7315 -29.3031 -0.202 -0.601 0.773 191 163 115 0
28.6423 23.6144 -29.3841 -0.208 -0.811 0.547 190 162 114 0
28.3717 23.0953 -29.2551 0.148 -0.761 0.631 189 162 115 0
34.0860 27.8723 -32.0511 0.235 -0.828 -0.509 186 162 114 0
34.1710 27.6716 -32.0957 0.304 -0.872 -0.384 185 161 113 0
33.5858 26.0290 -31.8225 -0.471 -0.850 -0.236 185 161 113 0
29.5212 21.2773 -29.8491 -0.245 -0.962 0.117 182 155 108 0
22.7986 14.0316 -26.5783 -0.875 -0.440 0.202 180 155 111 0
31.2656 15.1551 -30.7887 -0.809 -0.543 -0.223 159 134 94 0
30.8452 12.7407 -30.6065 -0.678 -0.734 -0.040 246 246 245 0
-48.1858 54.0962 9.0759 0.257 -0.906 -0.335 226 207 173 0
-47.2514 53.9768 8.6076 -0.970 -0.012 0.243 225 205 167 0
-44.8016 70.2498 7.5403 -0.747 -0.603 0.279 226 207 167 0
-44.6814 69.7430 7.4753 -0.748 -0.525 0.406 226 207 169 0
-44.7591 67.6490 7.4939 -0.373 -0.323 0.870 226 206 169 0
-38.6144 77.4709 4.5172 -0.986 0.121 0.119 228 207 170 0
-37.9286 75.5294 4.1556 -0.096 -0.851 0.516 229 209 172 0
-37.7415 75.4511 4.0614 -0.096 -0.851 0.516 229 209 172 0
-41.8469 43.7823 5.8076 -0.020 -0.982 -0.185 231 212 172 0
-32.4742 70.3015 1.3786 -0.379 -0.653 0.656 236 220 178 0
-29.2065 67.6160 -0.2808 -0.321 -0.921 0.222 247 228 189 0
-28.9958 67.6345 -0.3859 -0.143 -0.977 0.160 248 229 190 0
-28.6287 68.2792 -0.5632 -0.170 -0.937 0.306 248 228 190 0
8.7746 16.0218 -19.7652 -0.905 -0.358 0.228 206 191 160 0
17.3778 22.6835 -24.0013 -0.897 -0.442 -0.006 205 186 150 0
21.2284 22.8935 -25.9241 0.625 -0.334 0.705 201 179 132 0
28.2617 23.5956 -29.4331 0.133 -0.950 0.281 191 163 116 0
28.3512 23.4129 -29.4796 0.154 -0.951 0.268 191 163 116 0
34.2869 28.1333 -32.4012 0.237 -0.828 -0.508 186 162 114 0
22.9506 13.9918 -26.8710 -0.826 -0.252 0.505 181 154 111 0
27.8925 13.1306 -29.3497 0.548 -0.833 -0.071 165 140 99 0
30.8214 12.7731 -30.8172 -0.680 -0.730 -0.068 246 246 245 0
32.0903 13.0974 -31.4484 -0.582 -0.794 -0.178 255 255 255 0
-47.2311 54.9852 8.3969 -0.946 0.011 0.323 225 206 171 0
-45.7730 51.3645 7.6377 -0.358 0.078 0.930 225 203 165 0
-46.5602 44.3338 7.9760 0.046 0.018 0.999 224 202 164 0
-37.8109 76.9385 3.8524 -0.012 -0.987 0.158 228 208 171 0
-37.6827 76.4970 3.7847 -0.045 -0.899 0.435 229 209 172 0
-35.6234 62.3542 2.6405 -0.566 0.183 0.804 235 215 178 0
-30.5321 67.6795 0.1323 0.487 -0.871 0.060 239 221 185 0
-30.1718 67.4780 -0.0498 -0.269 -0.959 0.093 241 223 184 0
-29.9021 67.7501 -0.1827 -0.423 -0.899 0.114 241 222 184 0
-29.7544 67.5123 -0.2586 -0.334 -0.921 0.201 242 225 183 0
-29.3201 67.6087 -0.4754 -0.321 -0.921 0.222 247 229 190 0
7.6545 54.1719 -19.1053 0.239 -0.599 0.764 231 219 192 0
22.5062 13.8908 -26.8660 -0.850 -0.510 0.130 179 155 109 0
22.8549 13.9664 -27.0401 -0.826 -0.252 0.505 178 154 108 0
28.9054 14.4883 -30.0671 0.171 -0.727 0.665 166 140 100 0
28.4061 13.8408 -29.8221 0.398 -0.560 0.727 164 140 98 0
30.8031 12.8101 -31.0311 -0.680 -0.730 -0.068 245 246 245 0
-39.5174 79.6917 4.4680 -0.774 -0.530 0.347 227 207 170 0
-37.7719 76.6672 3.5728 0.008 -0.977 0.215 231 212 172 0
-37.3899 76.5338 3.3801 0.076 -0.955 0.286 231 212 172 0
-38.9425 44.1646 3.9572 0.543 -0.717 0.436 232 217 175 0
-30.3937 69.6272 -0.1755 -0.877 -0.275 0.393 239 222 186 0
-29.7621 67.9444 -0.5031 -0.345 -0.904 0.253 242 226 185 0
-29.5718 67.8805 -0.5991 -0.329 -0.899 0.290 245 230 187 0
-29.3893 67.7840 -0.6913 -0.329 -0.899 0.290 246 231 190 0
-29.0097 68.4891 -0.8775 -0.559 -0.758 0.336 246 229 191 0
28.2450 23.9923 -29.9006 0.194 -0.514 0.836 190 166 119 0
30.9023 22.7267 -31.2426 0.228 -0.386 0.894 185 158 113 0
29.2744 14.1505 -30.4790 0.492 -0.847 -0.200 160 137 95 0
30.3802 14.8283 -31.0299 0.470 -0.863 -0.185 159 136 95 0
30.6134 14.3188 -31.1502 -0.514 -0.857 -0.040 156 132 94 0
29.9383 13.5380 -30.8161 -0.303 -0.929 -0.211 154 130 93 0
30.7797 12.8431 -31.2429 -0.693 -0.720 -0.036 245 246 245 0
-45.5874 58.0449 7.1621 -0.346 0.076 0.935 226 205 166 0
-47.0879 42.8026 7.8478 -0.358 0.078 0.930 226 205 167 0
-39.7311 79.0670 4.3111 -0.747 -0.527 0.405 228 208 171 0
-39.8477 75.6614 4.3542 -0.682 -0.547 0.486 230 210 173 0
-39.2849 43.7237 3.9259 0.478 -0.599 0.643 235 218 179 0
-30.5129 68.7185 -0.3741 0.311 -0.943 0.119 240 222 186 0
-30.1422 68.5463 -0.5614 -0.183 -0.980 -0.081 242 224 186 0
-30.0469 68.0818 -0.6114 -0.230 -0.969 -0.089 242 225 187 0
-29.8991 67.8410 -0.6869 -0.356 -0.924 0.141 244 227 188 0
-29.6887 67.8608 -0.7926 -0.329 -0.899 0.290 246 228 189 0
-29.2299 68.0505 -1.0226 -0.596 -0.668 0.445 247 229 192 0
-9.7340 41.4595 -10.9527 -0.692 -0.140 0.708 240 227 191 0
-7.5976 40.1788 -12.0335 -0.851 -0.205 0.484 237 224 190 0
10.6670 39.6710 -21.2255 -0.585 -0.105 0.804 221 209 184 0
25.4659 20.9142 -28.7567 0.539 -0.842 0.031 188 164 116 0
25.2546 19.6893 -28.6560 0.648 -0.663 0.376 189 161 114 0
30.7085 22.8827 -31.3855 0.305 -0.558 0.772 184 158 111 0
30.5781 22.2395 -31.3229 -0.056 -0.472 0.880 182 158 110 0
30.3618 21.7840 -31.2161 -0.274 -0.352 0.895 182 158 112 0
23.7252 15.3349 -27.9062 -0.075 -0.927 0.368 180 156 112 0
22.6021 14.0957 -27.3468 -0.127 -0.992 0.022 179 155 110 0
22.4733 13.7467 -27.2836 -0.512 -0.394 0.763 178 154 110 0
28.8001 14.7465 -30.4623 -0.330 -0.618 -0.713 168 143 103 0
30.9810 14.6728 -31.5600 -0.605 -0.789 0.105 156 133 93 0
30.0097 13.6495 -31.0759 -0.330 -0.913 -0.238 155 131 92 0
30.7527 12.8733 -31.4533 -0.703 -0.711 -0.017 245 246 243 0
-46.2337 59.0326 7.2724 -0.097 0.049 0.994 225 208 172 0
-31.4476 66.0506 -0.1634 -0.191 -0.981 0.014 240 223 187 0
-31.0057 66.2202 -0.3858 -0.507 -0.857 0.092 241 223 187 0
-30.3038 68.3392 -0.7337 -0.206 -0.976 -0.069 243 225 188 0
15.0851 49.0943 -23.6749 -0.737 -0.676 0.012 224 212 184 0
10.7432 40.6279 -21.5096 -0.761 -0.106 0.640 221 209 183 0
10.7536 40.2813 -21.5158 -0.756 -0.105 0.646 221 209 183 0
10.6010 39.7079 -21.4405 -0.602 -0.121 0.789 221 209 183 0
19.1135 39.4041 -25.7337 -0.402 -0.891 0.211 217 203 174 0
-2.9207 7.6312 -14.7133 -0.491 -0.660 -0.569 214 198 170 0
19.5290 29.0530 -25.9725 -0.853 -0.474 -0.218 208 191 162 0
20.0137 29.2940 -26.2162 -0.963 -0.269 -0.005 207 190 160 0
19.3207 27.6476 -25.8714 -0.819 -0.096 0.565 208 189 159 0
27.8923 29.3981 -30.1886 0.641 -0.455 0.619 203 181 143 0
27.9299 24.1091 -30.2226 -0.335 -0.897 -0.289 190 166 120 0
31.6675 24.0903 -32.1073 0.628 -0.731 0.268 184 158 114 0
29.7654 14.4323 -31.1755 0.527 -0.847 -0.070 158 136 94 0
30.7941 14.8090 -31.6931 -0.806 -0.424 0.413 157 135 93 0
30.0629 13.7465 -31.3275 -0.296 -0.906 -0.304 156 133 92 0
30.7615 12.9322 -31.6820 -0.700 -0.714 -0.028 245 246 243 0
-44.0823 46.1212 5.9510 -0.860 -0.162 0.484 231 208 175 0
-39.6260 42.9363 3.6956 0.433 -0.699 0.569 236 216 179 0
-30.9580 70.4566 -0.6538 -0.543 -0.640 0.544 237 222 186 0
-31.7536 66.0724 -0.2567 -0.231 -0.973 -0.009 239 223 187 0
-31.6352 65.7156 -0.3169 -0.129 -0.990 0.050 240 224 188 0
-31.3833 65.9378 -0.4439 -0.161 -0.987 0.018 242 224 190 0
-31.1758 65.9657 -0.5488 -0.227 -0.974 -0.013 243 225 191 0
-30.2395 66.5008 -1.0213 -0.766 -0.559 -0.319 246 227 193 0
-1.0684 46.6994 -15.7845 0.686 -0.336 0.645 229 219 194 0
14.3083 47.3369 -23.5541 -0.868 -0.485 0.107 222 207 183 0
10.5997 40.5570 -21.6877 -0.754 -0.104 0.649 221 210 183 0
10.6301 40.2384 -21.7034 -0.754 -0.104 0.649 222 212 185 0
10.4329 39.6018 -21.6044 -0.610 -0.122 0.783 220 210 183 0
23.4127 38.9643 -28.1643 -0.600 0.007 0.800 213 198 169 0
28.3853 29.3964 -30.6878 0.639 -0.399 0.657 202 179 144 0
26.0727 21.6255 -29.5279 0.308 -0.930 -0.200 188 164 119 0
25.0615 19.3907 -29.0194 0.621 -0.771 0.142 185 162 116 0
17.9505 5.5641 -25.4414 0.021 -0.991 0.133 163 139 99 0
18.2258 5.5874 -25.5805 0.309 -0.915 0.257 161 138 97 0
29.3987 14.1850 -31.2169 0.557 -0.825 -0.089 159 138 95 0
30.9062 14.7210 -31.9781 -0.752 -0.460 0.472 157 134 93 0
30.0252 13.7696 -31.5340 -0.566 -0.823 0.053 156 133 92 0
30.7483 12.9737 -31.9003 -0.688 -0.723 -0.057 245 246 243 0
-39.6960 43.0338 3.5313 0.496 -0.748 0.440 236 216 179 0
-30.8790 65.9833 -0.9475 -0.556 -0.810 0.188 248 229 196 0
-0.8012 46.9278 -16.1684 0.751 -0.411 0.517 230 220 195 0
14.9664 49.2152 -24.1549 -0.737 -0.676 0.012 221 211 185 0
14.4037 47.6167 -23.8689 0.300 -0.808 0.507 221 209 185 0
-1.3446 9.6317 -15.8709 -0.595 -0.678 -0.433 212 197 169 0
23.5039 35.2454 -28.4701 -0.818 0.004 0.575 210 193 167 0
19.6796 29.4046 -26.5299 -0.838 -0.444 -0.317 207 190 160 0
24.3208 19.0235 -28.8742 0.671 -0.695 0.259 185 163 117 0
17.7115 5.4138 -25.5189 0.048 -0.984 0.170 163 139 99 0
30.9665 14.8251 -32.2372 -0.756 -0.461 0.464 157 134 93 0
30.7282 13.0097 -32.1155 -0.688 -0.723 -0.057 246 246 243 0
-32.1986 65.9668 -0.5270 0.100 -0.993 0.066 239 222 185 0
-31.5130 66.3350 -0.8758 0.236 -0.970 0.056 242 224 189 0
-10.1727 56.6076 -11.6840 0.421 -0.906 0.043 246 231 198 0
-8.5614 39.8639 -12.4630 -0.955 0.139 0.264 231 222 192 0
1.9635 20.4903 -17.7598 0.700 -0.693 0.173 219 205 179 0
2.8040 21.2878 -18.1882 0.702 -0.693 0.165 219 205 179 0
25.7083 37.8456 -29.8510 0.591 -0.800 0.104 209 193 167 0
32.2269 31.9229 -33.1456 0.698 -0.446 0.560 199 177 138 0
34.3766 24.8607 -34.2203 0.318 -0.251 0.914 178 154 110 0
29.0021 13.9676 -31.4674 0.555 -0.824 -0.110 158 137 94 0
30.7355 13.0677 -32.3450 -0.598 -0.783 -0.175 246 246 243 0
31.1810 12.7373 -32.5704 -0.693 -0.707 -0.140 255 255 255 0
-45.5248 45.5005 6.0855 0.240 -0.917 -0.318 227 209 173 0
-32.3136 65.9469 -0.7165 0.108 -0.992 0.065 242 223 186 0
-31.7151 66.8184 -1.0245 -0.299 -0.882 0.364 241 223 187 0
-0.9228 47.0632 -16.6064 -0.501 -0.748 -0.434 230 219 192 0
1.4589 19.9365 -17.7083 0.713 -0.686 0.146 218 205 179 0
2.4305 20.9054 -18.2064 0.702 -0.693 0.165 218 204 178 0
0.0530 11.1887 -16.9579 0.214 -0.848 -0.486 207 195 169 0
33.5915 24.2277 -34.0690 -0.763 -0.388 0.518 181 157 113 0
24.7969 10.5473 -29.5406 0.647 -0.744 0.167 158 137 94 0
30.7130 13.1021 -32.5600 -0.674 -0.737 -0.046 246 246 243 0
30.8293 12.9660 -32.6186 -0.713 -0.701 -0.012 254 254 254 0
30.8824 12.7797 -32.6448 -0.713 -0.699 -0.064 254 255 255 0
30.8059 12.4912 -32.6047 -0.757 -0.626 0.187 255 255 255 0
-44.4888 45.8574 5.3568 -0.843 -0.180 0.507 229 211 173 0
-44.4317 45.2211 5.3313 -0.835 -0.159 0.527 228 210 172 0
-32.2953 66.5237 -0.9776 -0.371 -0.927 -0.063 241 223 187 0
-32.1098 66.4558 -1.0717 -0.371 -0.927 -0.063 242 224 187 0
-31.6157 65.9776 -1.3208 -0.502 -0.824 -0.261 244 227 191 0
-12.3816 23.2697 -10.8789 -0.577 -0.609 0.545 229 219 193 0
-11.7662 23.6731 -11.1949 -0.744 -0.634 -0.213 227 217 192 0
3.4049 33.5566 -18.9848 0.801 -0.444 0.400 221 214 185 0
12.3816 41.0362 -23.6036 0.638 -0.693 -0.334 219 210 180 0
-0.1243 18.5386 -17.0994 0.722 -0.459 0.518 216 205 180 0
2.7138 20.8003 -18.5591 0.744 -0.647 0.169 213 204 175 0
19.4569 41.1144 -27.2105 -0.936 -0.322 0.142 216 203 177 0
0.1225 11.3483 -17.1838 0.239 -0.848 -0.473 206 195 168 0
24.4744 37.3034 -29.7461 -0.098 -0.816 0.570 205 191 165 0
24.1707 36.6296 -29.5874 -0.914 -0.204 0.352 205 191 165 0
14.9510 16.1781 -24.7700 -0.574 0.021 0.819 195 176 147 0
33.9004 25.1146 -34.4805 -0.724 -0.290 0.626 180 156 113 0
31.4170 15.3595 -33.1585 -0.850 -0.488 0.200 159 136 94 0
30.7507 12.4988 -32.8023 -0.757 -0.626 0.187 255 255 255 0
-42.8415 67.1108 4.1555 -0.291 -0.883 0.368 226 208 172 0
-44.6238 45.5691 5.2273 -0.856 -0.264 0.445 229 211 173 0
-44.5774 44.8625 5.2089 -0.888 -0.102 0.448 227 209 171 0
-32.2124 66.4938 -1.2695 0.055 -0.998 -0.013 243 225 189 0
-32.0174 66.4672 -1.3689 -0.365 -0.928 -0.076 245 227 191 0
4.7577 35.3149 -19.9213 0.808 -0.464 0.364 222 213 187 0
8.3645 38.7577 -21.7895 0.705 -0.635 0.315 222 210 186 0
9.8489 38.3600 -22.5448 0.660 -0.695 -0.285 221 209 183 0
7.0176 32.0653 -21.0513 -0.350 -0.936 0.032 219 207 181 0
24.1201 36.6745 -29.8223 -0.899 -0.314 0.304 204 190 164 0
33.2647 35.9881 -34.4884 -0.975 -0.203 0.085 195 175 149 0
33.2045 35.6127 -34.4549 -0.942 -0.031 0.335 193 174 148 0
28.7176 22.6012 -32.0654 -0.414 -0.756 -0.507 185 161 119 0
32.9050 24.5571 -34.2191 -0.900 -0.348 0.261 180 157 115 0
33.5059 24.2888 -34.5240 -0.781 -0.387 0.490 178 153 112 0
33.0740 23.6345 -34.2985 -0.858 -0.340 0.385 177 152 111 0
32.9138 17.1271 -34.1679 0.340 -0.863 -0.374 158 135 93 0
30.6954 12.5064 -33.0001 -0.757 -0.626 0.187 255 255 255 0
-44.7490 59.0835 4.9665 -0.975 -0.221 -0.006 224 208 172 0
-40.9320 64.6495 2.9611 -0.581 -0.008 0.814 229 209 172 0
-41.5985 59.3072 3.3516 -0.734 -0.400 0.548 230 210 173 0
-31.8861 66.6491 -1.6881 -0.496 -0.797 -0.345 245 227 193 0
8.0153 38.0314 -21.8511 0.763 -0.570 0.306 221 209 185 0
8.7360 36.5830 -22.2067 -0.574 -0.755 -0.318 218 206 183 0
9.9879 35.8901 -22.8412 -0.378 -0.800 -0.466 218 206 184 0
15.5899 40.9597 -25.7557 -0.741 -0.319 0.590 216 204 178 0
15.6666 40.3497 -25.7894 -0.753 -0.410 0.516 215 203 177 0
16.4082 40.9690 -26.1747 -0.844 -0.459 0.279 214 202 176 0
16.3143 40.4912 -26.1222 -0.510 -0.825 0.244 215 203 177 0
19.1497 40.9641 -27.5782 -0.946 -0.261 0.195 210 202 173 0
18.5255 39.8255 -27.2481 -0.861 -0.497 -0.104 211 202 173 0
23.9630 36.9247 -30.0050 0.293 -0.816 0.498 203 191 165 0
24.7205 37.1352 -30.3947 0.589 -0.807 0.048 203 188 165 0
5.9739 6.5924 -20.5162 -0.932 -0.089 0.352 192 173 145 0
14.1727 8.5406 -24.7314 0.435 -0.891 -0.131 182 157 117 0
32.6709 24.4152 -34.3475 -0.763 -0.429 0.484 179 157 116 0
32.5941 24.0762 -34.3050 -0.820 -0.302 0.487 179 156 115 0
33.0691 23.6984 -34.5447 -0.694 -0.681 0.234 178 155 115 0
32.7035 16.7682 -34.2937 -0.514 -0.557 -0.652 158 135 94 0
-47.7045 57.5960 6.2752 -0.792 -0.541 -0.283 225 208 178 0
-41.8815 59.2839 3.2693 -0.785 -0.361 0.503 230 210 174 0
-31.9252 66.9701 -1.9228 0.086 -0.996 0.036 244 228 194 0
-6.7229 46.5221 -14.6286 0.123 -0.881 0.457 228 219 198 0
-6.9259 45.6752 -14.5152 0.597 -0.741 0.307 227 219 198 0
-7.5341 44.0397 -14.1852 0.371 -0.687 0.625 227 219 198 0
-7.1709 43.8790 -14.3698 0.432 -0.697 0.573 227 216 195 0
-6.9879 43.8011 -14.4628 0.434 -0.686 0.584 228 217 196 0
-4.0088 48.6637 -16.0445 -0.528 -0.805 -0.269 228 217 195 0
1.4523 52.9765 -18.8935 0.183 -0.813 0.552 227 216 196 0
0.2870 49.5219 -18.2578 -0.640 -0.572 -0.513 227 216 195 0
-11.8938 25.5286 -11.7458 0.056 -0.993 0.104 228 217 195 0
-11.6998 25.5292 -11.8454 0.056 -0.993 0.104 227 216 194 0
7.2612 37.0829 -21.6996 0.777 -0.524 0.348 221 209 185 0
16.4012 41.0836 -26.4326 -0.092 -0.583 0.807 214 202 176 0
15.4271 39.1033 -25.9111 -0.602 -0.676 0.425 213 201 175 0
17.4544 38.9342 -26.9494 -0.482 -0.651 0.587 209 202 173 0
17.5933 38.7653 -27.0187 -0.458 -0.674 0.580 210 202 173 0
12.1479 22.6259 -24.0483 0.369 -0.173 0.913 203 188 165 0
13.3352 8.0479 -24.4978 0.363 -0.916 -0.172 183 158 118 0
15.1699 9.0688 -25.4503 0.416 -0.893 -0.172 181 156 116 0
32.5020 24.0626 -34.5064 -0.697 -0.572 -0.432 179 157 117 0
32.6565 23.9331 -34.5843 -0.697 -0.572 -0.432 178 154 116 0
18.4401 10.0058 -27.1382 -0.598 -0.799 -0.066 176 153 116 0
41.6375 26.0688 -39.2153 -0.038 -0.691 -0.722 165 142 103 0
32.5327 17.1707 -34.4467 -0.464 -0.609 -0.644 159 137 94 0
30.6136 12.5446 -33.4115 -0.736 -0.661 0.145 255 255 255 0
-50.2542 55.5574 7.3935 0.171 -0.880 -0.444 255 255 255 0
-47.7980 57.6633 6.1040 -0.800 -0.541 -0.259 225 208 178 0
-41.8738 59.9966 3.0285 -0.773 -0.460 0.437 231 211 176 0
-41.7793 59.4736 2.9865 -0.746 -0.421 0.517 230 212 176 0
-41.2119 61.9345 2.6636 -0.669 0.016 0.743 231 212 175 0
-6.5156 47.5806 -14.9932 0.045 -0.780 0.624 229 218 198 0
-6.6079 46.9444 -14.9377 0.039 -0.757 0.653 227 218 197 0
-6.9789 45.7626 -14.7319 0.191 -0.881 0.433 226 218 197 0
-7.3668 44.1189 -14.5116 0.404 -0.679 0.612 228 218 196 0
-3.7659 48.4210 -16.4176 -0.481 -0.808 -0.340 227 215 191 0
-3.3758 46.9406 -16.5994 -0.010 -0.775 -0.632 227 215 191 0
1.2628 52.8214 -19.0589 0.183 -0.813 0.552 226 215 193 0
11.4664 44.7600 -24.2028 0.588 -0.606 0.535 220 212 191 0
9.7485 41.5157 -23.2783 0.630 -0.468 0.620 221 210 188 0
15.3580 40.1898 -26.1456 -0.704 -0.357 0.614 214 202 176 0
15.3845 39.8710 -26.1552 -0.714 -0.352 0.605 214 202 176 0
15.3653 39.4937 -26.1405 -0.726 -0.339 0.598 215 201 176 0
15.3794 39.1619 -26.1436 -0.919 -0.229 0.322 214 202 176 0
24.0197 36.5421 -30.5527 0.600 -0.770 0.218 201 189 167 0
12.0574 21.5044 -24.2116 -0.213 -0.142 0.967 200 185 162 0
12.7456 11.6119 -24.4399 0.355 -0.783 -0.510 195 176 148 0
13.2679 8.0435 -24.6632 0.360 -0.917 -0.173 183 160 119 0
31.5265 23.2505 -34.2436 -0.591 -0.768 -0.247 179 156 116 0
30.3380 16.3692 -33.5453 0.019 -0.738 -0.674 165 139 104 0
31.0478 16.7220 -33.9147 0.021 -0.736 -0.677 164 139 103 0
32.3934 17.3575 -34.6146 -0.210 -0.748 -0.630 161 135 99 0
30.5633 12.5565 -33.6128 -0.736 -0.661 0.145 255 255 255 0
-50.3469 55.6228 7.2280 0.171 -0.880 -0.444 255 255 255 0
-44.8926 60.3435 4.3495 -0.735 -0.538 -0.412 228 209 173 0
-43.2115 61.1820 3.4713 -0.906 -0.400 0.139 228 210 175 0
-41.7672 64.9027 2.6734 -0.251 -0.181 0.951 228 212 178 0
-41.9770 60.0027 2.8522 -0.773 -0.460 0.437 231 212 177 0
-6.7769 47.2574 -15.1010 0.086 -0.640 0.763 228 217 198 0
-6.5519 47.2512 -15.2168 0.285 -0.653 0.701 227 217 198 0
-7.4787 44.0879 -14.6936 0.318 -0.929 0.190 228 218 196 0
-3.6168 48.8973 -16.7529 -0.656 -0.706 -0.266 227 215 192 0
0.2732 49.8629 -18.7711 -0.794 -0.521 -0.311 226 215 190 0
10.8291 44.3573 -24.1307 0.592 -0.671 0.447 220 212 190 0
10.9641 44.1709 -24.1975 0.497 -0.718 0.487 221 213 193 0
11.1365 44.0396 -24.2845 0.457 -0.577 0.677 220 212 192 0
19.4448 17.2154 -28.1784 0.355 -0.766 -0.536 193 171 141 0
14.3088 8.6184 -25.4081 0.246 -0.921 -0.303 180 157 116 0
14.3910 8.4733 -25.4483 -0.215 -0.953 -0.212 180 156 116 0
37.4833 25.0976 -37.5865 -0.230 -0.302 0.925 172 149 108 0
30.5131 12.5683 -33.8144 -0.736 -0.661 0.145 255 255 255 0
-50.4356 55.7365 7.0593 0.158 -0.876 -0.455 255 255 255 0
-49.3667 55.3312 6.5138 -0.861 -0.260 0.437 227 207 179 0
-42.4039 62.5725 2.8015 -0.283 -0.920 0.273 227 212 179 0
-42.2250 62.5698 2.7091 -0.207 -0.915 0.346 228 212 178 0
-16.2847 30.3737 -10.1651 0.281 -0.953 -0.113 229 219 197 0
-7.6831 46.5471 -14.8681 0.430 -0.896 0.111 228 218 197 0
-7.3402 46.7824 -15.0490 0.395 -0.917 0.048 229 218 197 0
-0.3523 48.4773 -18.6847 -0.477 -0.879 -0.015 228 216 191 0
-1.1046 46.2641 -18.2604 -0.236 -0.960 0.153 226 216 191 0
11.6261 46.4483 -24.8371 0.471 -0.723 0.505 220 213 189 0
12.3428 22.2735 -24.8164 -0.036 0.014 0.999 205 190 169 0
9.0020 8.7481 -22.8727 0.658 -0.694 0.290 190 174 146 0
14.0487 7.9989 -25.4665 -0.351 -0.656 -0.668 179 155 117 0
37.2143 24.9315 -37.7021 -0.227 -0.303 0.925 172 149 108 0
31.0066 17.0485 -34.3693 -0.152 -0.861 -0.485 167 138 105 0
31.1873 16.9559 -34.4611 -0.352 -0.935 0.053 166 137 106 0
30.4437 12.5650 -34.0061 -0.734 -0.666 0.134 255 255 255 0
-50.5429 55.6396 6.9033 0.165 -0.878 -0.449 255 255 255 0
-50.3812 55.6878 6.8188 0.079 -0.906 -0.415 255 255 255 0
-35.9504 74.4166 -0.9842 0.129 -0.974 0.186 234 216 180 0
-7.3550 46.9505 -15.2898 0.417 -0.905 0.089 227 217 192 0
-1.2304 44.9453 -18.4233 -0.126 -0.664 0.737 228 216 194 0
