ply
format ascii 1.0
element vertex 808
property float x
property float y
property float z
property float nx
property float ny
property float nz
property uchar diffuse_red
property uchar diffuse_green
property uchar diffuse_blue
property uchar class
end_header
15.1095 21.5849 -70.6589 -0.402 -0.620 -0.674 160 149 140 0
10.3923 14.5637 -64.8049 -0.464 -0.431 -0.774 157 144 136 0
11.6629 15.4664 -66.0692 -0.464 -0.431 -0.774 155 145 136 0
20.6505 15.1204 -72.8842 -0.813 -0.534 0.232 255 255 254 0
-66.4265 74.7798 -24.9531 -0.214 -0.916 -0.340 68 66 65 0
-66.2575 74.7644 -25.0787 -0.217 -0.913 -0.345 227 218 217 0
-29.2343 53.7089 -46.9598 -0.310 -0.903 -0.299 223 209 209 0
-29.3785 52.6197 -46.5017 -0.511 -0.835 -0.204 220 207 207 0
-29.1406 52.6763 -46.7034 -0.031 -0.999 -0.027 218 206 206 0
-28.9217 52.6741 -46.8717 -0.031 -0.999 -0.027 218 206 206 0
-28.8481 52.2448 -46.7919 -0.410 -0.904 0.122 217 206 205 0
-28.5813 52.3819 -47.0415 -0.633 -0.773 0.044 217 204 203 0
-27.3565 48.4212 -46.7261 -0.094 -0.911 0.401 189 158 168 0
-27.1841 48.2961 -46.8193 -0.085 -0.910 0.406 184 150 161 0
-27.2106 47.6361 -46.5887 0.037 -0.696 0.717 175 140 151 0
-27.1435 47.2325 -46.5120 -0.020 -0.738 0.675 169 129 141 0
-27.2250 45.2969 -45.8327 0.336 -0.875 0.350 157 102 116 0
-26.9068 40.6739 -44.6064 -0.942 -0.312 -0.122 154 81 98 0
-26.9768 39.9796 -44.3313 -0.879 -0.476 -0.039 154 80 97 0
-27.4129 37.8847 -43.3276 -0.217 -0.752 0.623 150 74 93 0
-26.1090 33.7221 -43.0089 -1.000 -0.024 -0.012 137 57 71 0
-25.3691 32.1912 -43.0928 -0.299 -0.928 0.224 127 48 64 0
-24.5141 33.6047 -44.2030 0.242 -0.897 0.371 127 47 63 0
-22.2081 30.5747 -45.0187 -0.127 -0.970 -0.208 112 41 55 0
-20.1157 33.0059 -47.4083 -0.077 -0.155 0.985 109 44 59 0
-19.9783 32.8477 -47.4640 -0.281 -0.032 0.959 108 45 61 0
-17.9664 35.0046 -49.7041 -0.593 -0.008 0.805 106 48 61 0
-17.9598 34.5873 -49.5763 0.152 -0.360 0.921 104 49 62 0
-18.9490 32.2942 -48.0825 -0.789 -0.586 0.184 101 49 62 0
-18.9135 31.9455 -47.9988 -0.168 -0.919 -0.356 99 49 63 0
-18.6808 31.9677 -48.1855 -0.906 -0.330 0.264 98 50 64 0
-18.4160 32.0484 -48.4158 -0.432 -0.847 -0.311 99 52 65 0
-18.2207 31.9985 -48.5506 -0.432 -0.847 -0.311 101 54 68 0
-18.0972 31.8157 -48.5878 -0.576 -0.788 -0.218 99 54 67 0
-17.9806 31.6208 -48.6158 -0.578 -0.816 0.012 96 51 64 0
-8.9169 41.7489 -58.8386 0.059 -0.933 0.355 93 72 84 0
-9.0749 41.0363 -58.4897 -0.727 -0.431 0.534 95 76 88 0
-9.2486 37.7385 -57.3056 -0.208 -0.814 -0.542 134 121 133 0
-10.3223 34.7342 -55.5200 -0.222 -0.540 0.812 147 143 155 0
-10.8515 30.3654 -53.7204 -0.241 -0.970 0.032 171 169 175 0
-14.9458 14.5709 -45.5301 -0.019 -0.864 -0.503 173 171 172 0
-14.6255 14.7182 -45.8243 0.019 -0.872 -0.489 174 172 173 0
-8.2863 21.8441 -52.9877 -0.810 -0.205 0.549 175 174 170 0
-8.1985 21.6386 -52.9901 -0.755 -0.161 0.636 174 174 169 0
-7.8936 21.7257 -53.2532 -0.875 -0.320 0.362 173 175 169 0
-4.9055 21.4687 -55.4784 -0.797 -0.342 -0.499 174 168 165 0
-16.0246 6.0249 -41.9761 -0.979 -0.097 0.180 176 167 167 0
-16.9907 3.8372 -40.5336 -0.587 -0.693 0.418 171 165 162 0
1.8008 22.0474 -60.8406 -0.732 -0.648 -0.210 172 162 161 0
1.9470 21.9041 -60.9078 -0.732 -0.648 -0.210 171 161 160 0
1.8693 21.5043 -60.7206 -0.286 -0.950 -0.124 171 161 160 0
2.0105 21.3568 -60.7826 -0.388 -0.918 -0.086 172 162 161 0
2.2121 21.2781 -60.9132 -0.137 -0.990 0.005 172 162 160 0
11.2168 24.2343 -68.8069 0.778 -0.501 0.379 166 155 150 0
5.8922 18.0981 -62.7421 0.375 -0.530 0.760 166 155 153 0
16.3037 22.2169 -72.0921 -0.871 -0.480 -0.106 157 147 137 0
20.5737 15.1294 -73.1323 -0.813 -0.534 0.232 255 255 255 0
20.1694 14.5267 -72.6282 -0.798 -0.583 0.153 255 255 255 0
-66.5533 74.8970 -25.1887 -0.214 -0.916 -0.340 68 65 64 0
-29.6874 52.7057 -46.5975 0.062 -0.997 -0.042 222 209 210 0
-29.5214 52.5483 -46.6755 0.073 -0.995 -0.064 220 208 209 0
-29.2705 52.6443 -46.9005 0.191 -0.979 0.068 219 207 208 0
-29.0256 52.7196 -47.1141 -0.131 -0.985 -0.113 219 207 207 0
-28.9553 52.2788 -47.0271 -0.467 -0.872 0.145 218 206 206 0
-29.1119 51.1784 -46.5531 -0.549 -0.826 0.132 219 205 205 0
-29.3939 49.7247 -45.8687 -0.720 -0.658 0.222 218 204 204 0
-29.9242 46.9611 -44.5722 -0.294 -0.805 0.516 216 200 203 0
-27.4505 48.4797 -46.9731 -0.025 -0.846 0.533 193 168 176 0
-27.2796 48.3500 -47.0638 -0.074 -0.823 0.564 188 161 170 0
-27.2804 47.7575 -46.8732 -0.204 -0.484 0.851 184 154 164 0
-27.1693 47.4700 -46.8670 -0.200 -0.480 0.854 179 144 155 0
-27.0344 47.2481 -46.9002 -0.197 -0.488 0.851 176 137 148 0
-27.2753 45.4608 -46.1406 0.182 -0.912 0.369 161 117 127 0
-26.8528 41.0779 -45.0620 -0.943 -0.303 -0.141 158 88 104 0
-27.0342 40.1033 -44.6092 -0.881 -0.473 -0.033 156 85 102 0
-25.4130 32.3137 -43.3656 -0.249 -0.928 0.279 126 48 64 0
-24.3405 34.2041 -44.8017 0.253 -0.875 0.412 126 48 65 0
-24.0300 34.4229 -45.1121 0.105 -0.807 0.581 124 46 63 0
-22.2450 30.6985 -45.2989 -0.167 -0.961 -0.219 115 45 61 0
-20.3218 32.8027 -47.4618 -0.071 -0.157 0.985 114 51 65 0
-17.7967 36.8455 -50.7120 -0.966 0.026 -0.258 110 51 65 0
-18.2533 34.6568 -49.6569 -0.514 -0.010 0.858 105 52 62 0
-18.2431 34.2473 -49.5334 -0.364 -0.039 0.931 104 52 64 0
-19.1279 32.1481 -48.1756 -0.642 -0.276 0.715 102 51 63 0
-18.9767 32.0174 -48.2507 -0.555 -0.677 0.484 101 53 65 0
-18.3974 31.8591 -48.6482 -0.229 -0.915 -0.334 101 55 68 0
-18.2274 31.7624 -48.7487 -0.230 -0.922 -0.310 101 55 68 0
-18.1438 31.5069 -48.7315 -0.635 -0.772 0.033 99 55 68 0
-12.9141 38.8906 -55.1457 -0.553 -0.765 -0.329 99 59 73 0
-12.7896 38.6759 -55.1732 -0.284 -0.830 -0.480 98 62 75 0
-9.2047 37.9936 -57.7282 -0.179 -0.823 -0.539 144 133 147 0
-9.6358 34.8151 -56.3754 -0.748 -0.341 0.570 165 160 168 0
-9.5867 34.4927 -56.3100 -0.614 -0.299 0.730 169 164 171 0
-9.5565 34.1417 -56.2209 -0.744 -0.208 0.635 171 164 172 0
-9.9342 32.3590 -55.3569 -0.362 -0.505 0.784 172 169 175 0
-10.3679 31.2878 -54.6778 -0.083 -0.886 0.456 171 170 175 0
-14.5317 14.9653 -46.2218 0.023 -0.878 -0.478 174 172 173 0
-9.4313 18.5312 -51.3118 -0.618 -0.765 0.182 172 171 167 0
-8.6145 18.6791 -51.9912 -0.875 -0.298 -0.382 171 170 167 0
-17.1547 3.9680 -40.6657 -0.542 -0.829 0.137 170 165 162 0
-17.1145 3.7739 -40.6346 -0.567 -0.819 0.088 170 165 160 0
-0.6451 15.5236 -57.1456 0.132 -0.677 0.724 168 159 150 0
-0.2190 14.8616 -57.2631 0.722 -0.663 0.201 168 159 149 0
-66.6804 75.0144 -25.4249 -0.214 -0.916 -0.340 68 65 65 0
-29.8234 52.6547 -46.7832 -0.015 -0.997 0.081 222 210 212 0
-29.6580 52.4955 -46.8600 0.100 -0.993 -0.069 221 209 211 0
-29.4630 52.4254 -46.9886 0.052 -0.998 0.024 221 209 211 0
-29.2657 52.3610 -47.1208 0.058 -0.997 0.049 220 208 209 0
-29.1210 52.1408 -47.1619 -0.407 -0.880 0.244 220 208 209 0
-26.8859 47.3674 -47.3534 -0.356 -0.324 0.876 177 143 152 0
-26.5955 46.9781 -47.4528 -0.282 -0.024 0.959 159 116 128 0
-26.5966 46.4021 -47.2660 -0.282 -0.120 0.952 159 112 125 0
-26.9515 41.1025 -45.2793 -0.936 -0.316 -0.157 160 91 109 0
-27.2351 39.8707 -44.6615 -0.093 -0.884 0.458 157 87 106 0
-26.9344 40.0974 -44.9679 -0.576 -0.804 0.151 157 85 104 0
-23.9371 31.7182 -44.5860 -0.042 -0.415 0.909 124 50 67 0
-22.0326 32.1745 -46.2101 -0.595 -0.789 0.153 116 47 64 0
-22.3397 31.1300 -45.6347 -0.578 -0.783 -0.232 116 47 65 0
-22.2143 30.9584 -45.6765 -0.524 -0.849 -0.069 115 46 64 0
-21.9649 31.0337 -45.8942 -0.162 -0.975 -0.149 113 47 62 0
-20.5330 32.5887 -47.5067 -0.077 -0.155 0.985 119 57 70 0
-18.9204 32.3151 -48.6688 -0.899 -0.177 0.400 102 54 66 0
-17.5007 34.1382 -50.3584 -0.673 -0.730 -0.118 102 56 69 0
-17.4153 33.8741 -50.3393 -0.679 -0.725 -0.116 101 55 68 0
-12.8592 40.5233 -56.0196 -0.859 0.175 0.482 101 59 71 0
-12.6133 40.5216 -56.2097 -0.970 -0.236 0.060 99 59 73 0
-12.8286 39.6850 -55.7726 -0.367 -0.674 -0.641 98 61 74 0
-10.1443 41.3465 -58.3906 -0.335 -0.941 -0.051 94 75 87 0
-9.4366 40.3646 -58.6223 -0.746 -0.465 0.476 112 101 114 0
-8.7706 40.1897 -59.0822 -0.267 -0.679 -0.684 134 127 139 0
-9.0744 38.8188 -58.4039 -0.295 -0.813 -0.502 145 137 151 0
-10.9045 34.9365 -55.7310 -0.402 -0.352 0.845 154 148 160 0
-10.8889 34.5561 -55.6203 -0.141 -0.630 0.764 154 151 162 0
-9.7057 34.8746 -56.6406 -0.795 -0.228 0.562 167 163 171 0
-9.7000 34.4813 -56.5180 -0.768 -0.218 0.602 169 164 171 0
-9.6365 34.1833 -56.4710 -0.757 -0.221 0.614 171 164 172 0
-8.7544 33.9984 -57.0953 0.690 -0.718 -0.090 170 169 174 0
-12.0649 28.3981 -52.7196 0.095 -0.951 0.295 171 170 174 0
-9.3776 19.0321 -51.7786 -0.460 -0.880 -0.121 172 171 167 0
-9.5100 18.5454 -51.5188 -0.618 -0.765 0.182 172 171 167 0
-7.7977 20.4977 -53.4770 -0.914 -0.370 -0.170 171 170 166 0
-4.1077 22.4035 -56.9538 -0.631 -0.470 -0.617 171 166 163 0
-10.5807 6.1501 -46.6854 0.635 -0.772 -0.041 169 160 154 0
6.6903 20.0049 -64.5521 0.761 -0.522 0.385 164 153 149 0
-2.8462 5.2711 -52.3991 0.058 -0.855 -0.515 158 148 136 0
17.7065 23.4339 -74.2016 -0.201 -0.817 -0.541 157 143 136 0
13.5686 18.0473 -69.2534 -0.285 -0.813 -0.507 151 141 132 0
-66.8078 75.1321 -25.6616 -0.214 -0.916 -0.340 68 65 65 0
-29.9854 52.5248 -46.9229 0.107 -0.992 -0.065 222 210 214 0
-29.7760 52.4987 -47.0771 0.100 -0.993 -0.069 221 209 212 0
-29.2328 51.5163 -47.1797 -0.558 -0.829 -0.041 219 205 208 0
-26.6863 46.4657 -47.5159 -0.349 -0.120 0.929 163 123 136 0
-26.6357 46.0278 -47.4128 -0.181 -0.205 0.962 157 112 125 0
-26.9585 36.7552 -44.1462 -0.723 -0.656 -0.217 153 77 96 0
-24.3958 34.9925 -45.5644 -0.078 -0.234 0.969 128 51 71 0
-24.5438 31.0855 -44.1786 -0.318 -0.738 0.595 125 51 68 0
-24.2745 31.2190 -44.4313 -0.338 -0.673 0.658 126 53 70 0
-24.0691 31.2164 -44.5901 0.344 -0.933 -0.102 127 52 71 0
-23.7562 31.4366 -44.9049 0.052 -0.998 0.032 128 54 74 0
-22.1040 32.2344 -46.4483 -0.547 -0.815 0.192 117 49 67 0
-21.8196 32.3772 -46.7157 -0.789 -0.570 0.230 117 49 68 0
-22.2796 31.0271 -45.9191 -0.777 -0.626 0.066 117 49 68 0
-18.9280 32.4932 -49.0004 -0.909 -0.155 0.387 105 55 68 0
-17.5328 34.2731 -50.6635 -0.839 -0.519 -0.164 102 56 69 0
-12.6786 40.1579 -56.3495 -0.469 -0.621 -0.628 101 68 82 0
-12.4294 40.1618 -56.5444 -0.475 -0.617 -0.628 100 70 83 0
-9.6193 40.2441 -58.7549 -0.430 -0.892 0.136 128 118 132 0
-9.5562 39.9157 -58.6971 -0.419 -0.884 0.206 131 124 137 0
-11.2806 34.8960 -55.7245 0.043 -0.551 0.833 156 151 164 0
-10.4885 34.9858 -56.3693 -0.765 -0.250 0.593 163 160 171 0
-10.4689 34.6121 -56.2629 -0.776 -0.259 0.575 163 162 173 0
-10.3932 34.3323 -56.2308 0.268 -0.594 0.758 165 163 173 0
-10.5246 33.7173 -55.9286 0.167 -0.591 0.789 167 164 172 0
-11.7647 17.4878 -49.6866 0.380 -0.820 -0.429 172 172 172 0
-10.4488 18.9652 -51.1897 0.385 -0.815 -0.432 172 172 172 0
-9.4743 19.0232 -51.9658 -0.453 -0.879 -0.147 171 170 166 0
-9.5931 18.5539 -51.7209 -0.640 -0.762 -0.096 171 170 166 0
-7.8663 20.5285 -53.7049 -0.977 0.084 0.194 171 170 166 0
-8.7816 18.6953 -52.3974 -0.346 -0.918 0.195 167 166 162 0
-8.4438 18.5188 -52.6025 -0.230 -0.944 0.237 172 168 165 0
13.7268 18.2808 -69.7534 -0.274 -0.817 -0.507 153 140 132 0
9.5701 11.9901 -64.4774 0.264 -0.203 0.943 149 136 128 0
-66.9355 75.2501 -25.8989 -0.214 -0.916 -0.340 68 65 64 0
-30.7266 43.2552 -43.6176 -0.230 -0.844 0.485 214 199 202 0
-30.2303 42.9197 -43.8942 -0.534 -0.822 -0.196 209 193 201 0
-26.7941 45.9109 -47.5498 -0.215 -0.183 0.959 168 131 145 0
-26.7174 45.5437 -47.4892 -0.212 -0.199 0.957 161 119 134 0
-27.2112 39.9441 -45.2707 -0.754 -0.596 0.275 158 94 114 0
-27.0582 39.8039 -45.3439 -0.919 -0.329 0.215 156 90 111 0
-26.9593 37.0034 -44.5038 -0.727 -0.635 -0.261 150 79 98 0
-26.0667 37.1495 -45.2467 -0.830 -0.558 0.023 148 71 89 0
-26.1798 34.0188 -44.1333 -0.952 -0.288 0.101 137 59 77 0
-25.7197 33.6668 -44.3763 -0.927 -0.373 0.030 131 56 76 0
-24.1502 32.5719 -45.2399 -0.737 -0.553 0.388 126 52 69 0
-24.4217 31.1185 -44.5525 -0.349 -0.672 0.653 124 52 70 0
-22.1955 32.2539 -46.6580 -0.552 -0.809 0.203 119 51 70 0
-22.4731 31.2639 -46.1176 -0.846 -0.384 0.369 119 51 72 0
-12.7681 42.0145 -57.1963 -0.976 0.057 0.209 102 65 81 0
-13.0620 40.5615 -56.4916 -0.040 -0.651 -0.758 101 69 83 0
-12.0502 41.9574 -57.7367 -0.027 -0.655 -0.755 99 69 85 0
-9.7491 40.2142 -58.9578 -0.241 -0.956 0.169 142 133 146 0
-10.7102 33.1886 -55.9083 -0.770 -0.293 0.566 169 163 173 0
-9.6332 18.6198 -51.9755 -0.640 -0.762 -0.096 171 170 166 0
-8.9069 18.6489 -52.5506 -0.378 -0.907 0.185 168 167 163 0
-11.5181 7.0063 -46.7040 -0.147 -0.502 0.852 165 156 151 0
-10.9737 6.1254 -46.8394 0.731 -0.665 0.155 165 156 149 0
13.1053 18.6475 -69.6921 0.033 -0.792 -0.609 155 140 135 0
9.0474 11.8548 -64.3073 0.126 -0.426 0.896 148 138 128 0
9.3665 11.8820 -64.5647 0.157 -0.358 0.920 148 136 127 0
5.8808 6.5254 -60.0958 -0.249 -0.933 0.261 149 135 127 0
19.3079 16.2854 -73.7487 -0.876 -0.411 0.253 142 130 118 0
-67.5178 71.5614 -24.5266 0.100 -0.883 -0.459 255 255 255 0
-67.0634 75.3683 -26.1367 -0.214 -0.916 -0.340 68 66 64 0
-66.8941 75.3610 -26.2664 -0.220 -0.914 -0.342 229 220 217 0
-32.7724 43.5201 -42.3943 -0.356 -0.608 0.710 220 210 211 0
-31.6670 45.6163 -43.9483 0.399 -0.673 0.623 220 208 210 0
-27.8276 44.6220 -46.6168 -0.387 -0.083 0.918 190 160 173 0
-26.7289 45.8093 -47.8658 -0.831 -0.159 -0.533 176 142 157 0
-27.2930 39.4877 -45.3406 -0.822 -0.163 0.545 155 95 115 0
-27.0482 39.0605 -45.3908 -0.677 -0.216 0.704 156 92 111 0
-26.5586 37.2207 -45.1661 -0.760 -0.596 -0.261 150 77 97 0
-26.4138 37.0704 -45.2295 -0.760 -0.584 -0.286 151 76 98 0
-26.0736 34.0255 -44.4909 -0.847 -0.486 0.215 136 62 79 0
-24.4110 31.7895 -45.0509 -0.631 -0.414 0.656 125 54 71 0
-23.4507 32.0553 -45.8880 -0.113 -0.889 0.443 122 53 71 0
-20.5551 35.7912 -49.3799 -0.165 -0.147 0.975 123 54 74 0
-20.7597 34.9293 -48.9360 -0.023 -0.207 0.978 122 54 75 0
-21.9697 31.1988 -46.7613 -0.252 -0.961 -0.116 119 56 75 0
-21.9750 30.7662 -46.6145 0.055 -0.979 0.196 119 57 76 0
-21.8424 30.6085 -46.6660 0.062 -0.986 0.156 118 57 73 0
-11.9396 43.2935 -58.5779 -0.009 -0.716 -0.698 99 69 84 0
-9.5943 40.6742 -59.5444 -0.672 -0.565 0.479 152 144 157 0
-9.2428 40.8372 -59.8725 -0.490 -0.867 0.094 156 147 160 0
-9.0326 40.7563 -60.0098 -0.737 -0.674 0.045 158 150 163 0
-7.5888 36.3551 -59.6850 0.736 -0.664 -0.135 172 169 177 0
-10.9348 18.5487 -51.2011 0.009 -0.779 -0.627 172 172 170 0
-5.9897 18.5008 -55.0446 0.218 -0.856 0.470 171 164 158 0
-5.6725 18.5905 -55.3217 0.274 -0.907 0.321 171 164 158 0
-5.3209 18.7210 -55.6391 0.256 -0.908 0.331 169 162 156 0
-5.3996 18.3193 -55.4452 -0.516 -0.516 0.684 168 162 156 0
-9.7956 7.0437 -48.2958 0.717 -0.681 0.148 164 157 148 0
-9.0841 2.0541 -47.2054 0.458 -0.851 0.258 159 149 143 0
18.9265 16.0371 -73.6771 -0.806 -0.540 0.244 143 129 118 0
19.8437 14.8890 -74.0143 -0.840 -0.524 0.144 255 255 255 0
18.2920 13.3369 -72.2914 -0.951 -0.272 0.151 255 255 255 0
-67.1917 75.4868 -26.3750 -0.214 -0.916 -0.340 68 65 64 0
-66.8245 71.9907 -25.5012 -0.043 -0.911 -0.410 234 224 222 0
-36.9682 40.3786 -38.3533 -0.809 -0.227 0.543 225 214 218 0
-31.6502 45.3871 -44.1757 0.394 -0.693 0.603 222 207 210 0
-26.5402 44.3433 -47.8256 0.132 -0.629 0.767 166 124 143 0
-26.5225 38.0571 -45.7518 -0.771 -0.386 0.506 150 81 105 0
-26.4116 37.8219 -45.7604 -0.786 -0.380 0.488 149 79 101 0
-26.3304 37.5173 -45.7228 -0.813 -0.298 0.501 149 78 99 0
-26.0670 36.6620 -45.6447 -0.655 -0.696 0.295 145 74 91 0
-24.7769 38.6755 -47.3224 -0.792 -0.406 -0.456 140 72 87 0
-24.6268 38.5272 -47.3905 -0.784 -0.423 -0.454 141 70 88 0
-24.4910 38.3465 -47.4368 -0.775 -0.427 -0.466 140 68 87 0
-25.8466 34.7740 -45.1901 -0.991 0.080 0.110 139 66 85 0
-25.8246 33.8887 -44.9133 -0.975 -0.128 0.180 137 65 83 0
-25.9283 32.7365 -44.4496 -0.892 -0.126 0.435 134 62 81 0
-24.3901 32.0474 -45.4237 -0.737 -0.367 0.568 125 57 72 0
-20.5133 36.0907 -49.7985 -0.038 -0.417 0.908 125 57 76 0
-11.1582 35.2254 -56.8278 0.194 -0.498 0.845 165 163 174 0
-10.9593 34.3300 -56.6859 -0.662 0.126 0.739 164 160 176 0
-10.9427 33.9532 -56.5738 -0.681 0.103 0.725 167 163 177 0
-10.4869 33.4935 -56.7776 0.493 -0.800 -0.342 170 167 178 0
-7.9893 35.8912 -59.5272 0.734 -0.666 -0.134 171 170 178 0
-9.1239 18.2901 -52.7945 -0.085 -0.963 -0.255 167 166 164 0
-8.8484 18.3422 -53.0273 -0.074 -0.964 -0.257 168 165 163 0
-6.0568 18.5298 -55.2730 -0.212 -0.962 0.172 172 162 158 0
-5.8350 18.5007 -55.4367 0.274 -0.907 0.321 171 162 157 0
-5.4269 18.3970 -55.7215 -0.369 -0.778 0.508 165 160 154 0
-5.4439 18.0727 -55.6004 -0.603 -0.444 0.663 165 160 154 0
-8.0754 11.1986 -51.2595 -0.427 -0.901 -0.076 166 156 150 0
-0.0859 16.3375 -59.2147 -0.486 -0.820 -0.302 163 155 144 0
0.3370 16.2263 -59.5085 -0.707 -0.671 -0.222 162 153 146 0
0.0507 15.6278 -59.0858 -0.631 -0.722 -0.285 162 153 146 0
-0.5616 14.6796 -58.2921 -0.132 -0.991 0.015 162 153 146 0
-8.1430 5.2292 -49.2242 -0.554 -0.581 -0.597 161 150 147 0
-8.0547 5.0810 -49.2441 -0.616 -0.588 -0.525 161 150 147 0
-8.3090 4.0952 -48.7177 -0.741 -0.224 -0.633 160 149 144 0
-8.2964 3.8717 -48.6534 -0.741 -0.224 -0.633 159 148 142 0
-2.5257 5.6400 -53.7539 -0.376 -0.921 0.099 154 141 132 0
14.6252 20.8610 -72.2224 0.172 -0.882 -0.439 155 141 134 0
17.7241 22.9007 -75.3233 0.064 -0.818 -0.572 156 139 135 0
11.5507 15.3817 -67.9982 0.385 -0.896 -0.223 151 139 133 0
19.8869 14.9978 -74.3904 -0.838 -0.535 0.112 255 255 255 0
18.2146 13.3439 -72.5332 -0.948 -0.278 0.155 255 255 255 0
-67.6044 71.8115 -25.1226 -0.014 -0.921 -0.390 255 255 255 0
-67.2783 71.9874 -25.4370 -0.028 -0.918 -0.397 68 65 64 0
-66.9493 72.0861 -25.7278 -0.032 -0.913 -0.407 233 223 220 0
-66.7844 72.1599 -25.8818 -0.043 -0.911 -0.410 233 223 222 0
-31.6151 45.2124 -44.4353 0.403 -0.688 0.603 220 205 208 0
-31.0379 43.8957 -44.4474 -0.501 -0.726 -0.471 217 202 205 0
-30.6834 43.1488 -44.4755 -0.346 -0.849 -0.400 212 196 203 0
-30.4960 43.0975 -44.6052 -0.342 -0.858 -0.382 211 194 202 0
-29.0516 41.4020 -45.1704 -0.128 0.054 0.990 196 172 185 0
-26.9898 44.0313 -47.6655 0.251 -0.611 0.751 181 148 164 0
-26.6836 44.2637 -47.9833 0.265 -0.620 0.738 175 139 156 0
-27.4328 40.1986 -46.0367 -0.559 -0.822 0.108 157 109 129 0
-25.4467 44.0853 -48.8930 0.205 -0.187 0.961 158 101 120 0
-25.8794 40.3728 -47.3125 -0.326 -0.905 -0.272 156 90 116 0
-25.7832 40.0892 -47.2930 -0.715 -0.692 0.103 155 87 113 0
-25.8426 39.4355 -47.0279 -0.990 -0.018 0.138 153 84 109 0
-25.9908 38.0753 -46.4568 -0.990 -0.144 -0.004 150 81 102 0
-24.5959 39.3432 -47.9741 -0.704 -0.629 -0.329 139 71 88 0
-24.5208 39.0183 -47.9243 -0.748 -0.576 -0.328 138 71 88 0
-24.3478 38.9199 -48.0270 -0.746 -0.585 -0.317 139 70 88 0
-24.5466 33.2703 -45.9820 0.119 -0.349 0.930 134 65 78 0
-24.5298 32.4082 -45.7068 -0.743 -0.475 0.471 128 60 75 0
-21.8528 34.9110 -48.6420 -0.495 -0.110 0.862 125 60 77 0
-21.3357 33.7425 -48.6565 -0.595 -0.459 0.660 123 60 80 0
-15.2347 42.6547 -56.4185 -0.131 -0.611 0.780 111 65 80 0
-11.6414 43.3346 -59.4622 0.286 -0.958 0.020 103 83 102 0
-11.3694 43.3669 -59.6862 0.638 -0.717 0.282 106 88 106 0
-11.2370 40.4172 -58.8036 0.253 -0.248 0.935 151 140 152 0
-11.9988 33.5917 -55.9241 0.571 -0.499 0.652 167 164 177 0
-5.7277 18.4412 -55.7729 -0.420 -0.747 0.516 168 161 155 0
-5.5393 18.3697 -55.8967 -0.341 -0.771 0.537 166 162 154 0
-8.0145 11.3654 -51.6145 -0.408 -0.903 -0.132 166 155 149 0
-13.0723 4.4778 -45.3471 -0.221 -0.768 0.601 163 155 146 0
0.8230 16.8554 -60.3769 -0.911 -0.366 -0.188 162 152 145 0
2.1099 17.6757 -61.6598 0.577 -0.522 0.628 162 152 146 0
-7.9100 5.0720 -49.5918 -0.786 -0.252 -0.565 161 150 146 0
-7.7556 4.9935 -49.6866 -0.810 -0.194 -0.553 161 150 146 0
-5.7255 6.8809 -51.9089 0.486 -0.837 -0.253 160 149 143 0
-10.4188 1.2789 -46.3572 -0.952 -0.189 0.239 157 149 138 0
17.3414 22.9372 -75.3573 0.180 -0.882 -0.435 154 139 133 0
11.2174 15.1552 -67.9552 0.532 -0.841 -0.098 151 138 132 0
18.8969 16.1644 -74.3116 -0.812 -0.528 0.248 143 131 119 0
20.8496 15.8705 -75.7439 -0.892 -0.415 0.178 255 255 255 0
18.1647 13.3738 -72.8046 -0.948 -0.284 0.146 255 255 255 0
-67.4038 72.1176 -25.6746 -0.031 -0.917 -0.397 68 66 64 0
-67.0745 72.1936 -25.9588 -0.047 -0.917 -0.396 231 222 218 0
-66.9096 72.2668 -26.1130 -0.043 -0.911 -0.410 231 221 219 0
-46.2226 27.8058 -27.3917 -0.971 -0.138 0.194 230 224 224 0
-27.7574 40.1804 -46.0617 -0.470 -0.361 0.805 171 135 152 0
-27.4824 40.3455 -46.3333 -0.589 -0.775 0.230 164 125 142 0
-26.1763 40.9564 -47.5649 -0.274 -0.956 -0.106 157 101 120 0
-25.9819 40.3877 -47.5261 -0.207 -0.903 -0.376 157 95 120 0
-25.7943 40.3239 -47.6520 -0.239 -0.924 -0.298 159 95 121 0
-25.3370 38.8676 -47.5208 -0.921 0.173 0.350 146 80 98 0
-24.6630 39.4384 -48.2424 -0.441 -0.734 0.517 141 74 91 0
-24.6795 38.9005 -48.0483 -0.910 -0.406 0.086 140 74 91 0
-24.3198 39.2318 -48.4424 -0.508 -0.783 -0.358 141 74 92 0
-24.4528 38.4317 -48.0685 -0.573 -0.522 -0.632 142 74 92 0
-24.8138 33.3647 -46.0790 -0.424 -0.391 0.817 134 66 79 0
-24.6371 33.2952 -46.1943 0.562 -0.804 0.194 133 67 78 0
-23.6885 33.9787 -47.1696 0.261 -0.938 0.227 130 63 80 0
-22.7854 34.5360 -48.0666 -0.139 -0.944 0.298 130 65 83 0
-21.5838 36.6038 -49.7066 -0.361 0.109 0.926 130 65 83 0
-22.3434 34.1091 -48.2700 -0.772 0.083 0.630 129 65 84 0
-21.7474 33.5570 -48.5523 -0.349 -0.634 0.690 126 63 82 0
-21.5455 33.5265 -48.7005 -0.367 -0.703 0.609 125 64 82 0
-15.4766 42.4041 -56.4565 -0.275 -0.565 0.778 110 67 84 0
-11.5008 42.8733 -59.7372 0.502 -0.855 0.130 134 122 139 0
-11.3318 41.8017 -59.5092 -0.046 -0.992 0.114 149 141 155 0
-11.9858 40.1777 -58.4487 -0.041 -0.982 -0.185 151 144 158 0
-11.4462 33.4725 -56.6149 -0.639 0.019 0.769 167 163 177 0
-5.9388 18.2912 -55.8292 -0.307 -0.901 -0.308 166 161 155 0
-5.7577 18.2112 -55.9445 -0.375 -0.858 -0.351 167 163 154 0
-8.8551 11.2915 -51.1817 -0.113 -0.993 -0.037 167 157 151 0
2.9337 23.9371 -64.6991 0.745 -0.645 0.171 164 154 147 0
-13.1387 4.4866 -45.5260 -0.251 -0.836 0.489 162 153 148 0
-13.3059 3.0943 -44.9259 0.756 -0.547 0.358 162 153 146 0
1.2876 18.0516 -61.4245 -0.675 -0.715 -0.182 162 154 144 0
0.4289 6.6910 -56.9249 -0.802 -0.453 0.389 152 139 131 0
0.5146 6.5284 -56.9375 -0.802 -0.453 0.389 153 138 131 0
0.6029 6.3686 -56.9531 -0.782 -0.488 0.388 153 138 132 0
7.3378 12.4369 -64.2862 0.458 -0.876 -0.149 152 139 133 0
11.9562 15.3652 -68.8997 0.331 -0.932 -0.150 148 135 127 0
7.7767 8.7104 -63.3762 0.214 -0.926 -0.312 148 132 124 0
19.0236 16.3491 -74.7821 -0.803 -0.564 0.193 142 130 118 0
19.0565 16.0991 -74.7238 -0.828 -0.533 0.175 141 129 117 0
18.1140 13.4033 -73.0758 -0.948 -0.284 0.146 255 255 255 0
-67.5293 72.2212 -25.9039 -0.031 -0.917 -0.397 68 65 64 0
-67.3237 68.9088 -24.9428 0.228 -0.820 -0.525 227 220 215 0
-67.1995 72.2601 -26.1766 -0.052 -0.921 -0.387 231 222 217 0
-67.0349 72.3555 -26.3386 -0.047 -0.917 -0.396 232 222 218 0
-45.5063 31.9555 -29.5888 -0.534 -0.680 -0.502 229 225 224 0
-41.7731 27.9234 -31.1603 -0.733 -0.610 0.302 223 217 217 0
-28.0821 39.6306 -45.9059 -0.080 -0.478 0.874 181 154 168 0
-27.6923 40.0890 -46.3681 -0.516 -0.830 0.211 176 146 160 0
-27.3661 40.3818 -46.7242 -0.617 -0.725 0.306 171 138 151 0
-27.0283 40.6986 -47.0974 -0.541 -0.687 0.486 168 131 144 0
-25.5562 41.1623 -48.4134 -0.954 -0.151 0.259 152 95 119 0
-25.6324 40.4592 -48.1150 -0.890 -0.003 0.456 153 94 120 0
-25.3842 40.5379 -48.3371 -0.739 0.191 0.646 153 94 119 0
-25.3066 39.1920 -47.9419 -0.496 -0.638 0.589 151 89 109 0
-25.0497 39.2911 -48.1777 -0.378 -0.742 0.554 148 87 105 0
-24.7907 39.3928 -48.4160 -0.441 -0.734 0.517 145 84 101 0
-24.5220 39.5148 -48.6689 -0.733 -0.577 0.360 145 82 100 0
-26.0491 34.0746 -45.6226 -0.940 0.067 0.335 148 79 98 0
-25.6145 34.5889 -46.1390 -0.810 -0.076 0.581 145 76 95 0
-25.3197 34.7831 -46.4370 -0.670 -0.224 0.708 143 75 93 0
-25.1598 34.6726 -46.5253 -0.605 -0.256 0.754 142 74 92 0
-25.0797 33.9217 -46.3338 -0.709 0.258 0.657 139 72 88 0
-25.0795 33.4626 -46.1783 -0.426 -0.400 0.812 138 71 87 0
-23.6387 34.3063 -47.5985 0.272 -0.855 0.442 132 68 85 0
-22.8485 34.6219 -48.3275 -0.537 -0.721 0.438 133 68 87 0
-12.3740 41.4888 -58.9003 0.473 -0.808 0.352 149 141 156 0
-12.6947 39.9996 -58.1430 0.460 -0.871 0.170 156 151 164 0
-13.0179 38.9701 -57.5396 -0.292 -0.954 0.066 159 154 168 0
-10.2761 41.6164 -60.5949 -0.013 -0.380 0.925 166 159 168 0
-7.3537 37.8469 -61.6174 0.499 -0.772 -0.394 170 169 177 0
-5.9511 18.3883 -56.1247 -0.293 -0.904 -0.310 166 161 155 0
-5.7580 18.3227 -56.2545 -0.395 -0.848 -0.354 167 163 154 0
-1.0024 22.5914 -61.4450 0.192 -0.833 -0.519 166 159 151 0
2.2342 23.2354 -64.2109 0.707 -0.681 0.190 163 152 147 0
-13.1301 4.3380 -45.7108 -0.235 -0.970 0.067 163 152 149 0
0.4878 6.8208 -57.2716 -0.514 -0.666 0.540 151 138 130 0
0.1837 6.2889 -56.8520 -0.932 -0.286 0.222 151 138 130 0
0.4650 6.3116 -57.0811 -0.874 -0.272 0.403 151 138 131 0
18.8802 16.3035 -74.9637 -0.784 -0.584 0.210 144 132 120 0
18.9888 16.1178 -74.9863 -0.828 -0.533 0.175 141 129 117 0
19.5973 14.9771 -75.0785 -0.856 -0.497 0.141 255 255 255 0
18.1657 13.5177 -73.4569 -0.929 -0.369 0.008 255 255 255 0
-67.6550 72.3249 -26.1337 -0.031 -0.917 -0.397 68 66 64 0
-67.3252 72.3639 -26.4072 -0.052 -0.921 -0.387 233 224 219 0
-67.1601 72.4163 -26.5553 -0.033 -0.925 -0.379 233 224 219 0
-66.9639 69.1975 -25.6115 0.284 -0.826 -0.488 233 224 219 0
-45.5615 32.1249 -29.8407 -0.492 -0.736 -0.465 228 224 223 0
-31.3738 47.5677 -46.3032 -0.372 -0.472 0.799 220 208 212 0
-26.8663 53.6839 -51.9464 0.041 0.011 0.999 209 196 205 0
-26.5452 53.9439 -52.2885 0.285 -0.106 0.953 210 195 205 0
-29.5018 41.6257 -45.7518 -0.245 0.035 0.969 208 190 199 0
-29.0457 38.4944 -45.0428 -0.219 -0.459 0.861 195 172 185 0
-28.3165 39.3077 -45.8957 -0.313 -0.714 0.626 191 167 180 0
-27.9169 39.7942 -46.3769 -0.561 -0.791 0.245 187 161 174 0
-27.5475 40.1980 -46.8061 -0.618 -0.690 0.377 183 154 166 0
-24.6611 36.4983 -47.8202 -0.950 -0.148 -0.274 147 80 100 0
-24.9082 35.4674 -47.2734 -0.961 -0.155 -0.229 146 78 98 0
-25.4821 32.8001 -45.9103 0.149 -0.331 0.932 142 77 94 0
-25.2815 32.7866 -46.0640 0.495 -0.868 0.052 140 76 91 0
-25.0088 32.9293 -46.3278 0.476 -0.877 0.068 138 74 88 0
-24.4774 33.6312 -46.9865 0.542 -0.743 0.392 136 73 88 0
-22.6576 35.7064 -49.1303 -0.376 -0.926 -0.014 137 74 91 0
-22.4359 35.7156 -49.3084 -0.279 -0.956 -0.095 136 73 90 0
-21.9871 36.2018 -49.8283 -0.374 0.122 0.919 136 73 90 0
-18.4106 39.3818 -53.7350 -0.347 -0.555 0.756 119 72 88 0
-18.3106 39.1159 -53.7231 -0.343 -0.545 0.765 116 73 87 0
-17.9205 38.0461 -53.6657 -0.908 -0.215 0.360 101 70 87 0
-12.7475 44.2829 -59.8750 0.218 -0.971 0.101 129 113 131 0
-12.6193 44.0476 -59.8958 -0.070 -0.951 0.301 135 120 138 0
-13.0023 40.5468 -58.3988 0.320 -0.697 0.642 157 151 165 0
-12.8259 39.9650 -58.3394 -0.014 -0.452 0.892 161 157 171 0
-12.7584 39.6388 -58.2813 -0.530 -0.843 0.090 161 157 171 0
-5.7400 19.0727 -56.7980 -0.472 -0.783 -0.406 166 161 155 0
-5.4016 18.8774 -56.9983 0.165 -0.836 -0.523 167 163 154 0
0.3491 24.0237 -63.2911 0.212 -0.838 -0.502 165 158 150 0
-0.6316 21.8772 -61.7849 0.043 -0.973 -0.225 165 157 149 0
1.7845 22.8236 -64.0138 0.707 -0.681 0.190 166 154 150 0
-2.9644 9.2514 -55.6353 0.350 -0.905 -0.243 157 146 141 0
10.1075 18.3242 -69.0435 -0.370 -0.928 -0.046 151 140 133 0
0.3638 6.2892 -57.2496 -0.972 -0.200 0.126 151 138 131 0
18.0043 13.9928 -73.7943 -0.918 -0.396 0.034 254 254 254 0
-67.4508 72.4442 -26.6303 -0.060 -0.923 -0.381 232 222 218 0
-67.2857 72.4927 -26.7775 -0.101 -0.921 -0.376 233 223 219 0
-27.1267 53.2928 -51.9262 0.055 -0.016 0.998 208 195 205 0
-26.9374 53.1852 -52.0389 0.218 -0.043 0.975 211 196 206 0
-29.5834 39.5021 -45.2452 -0.018 -0.510 0.860 204 188 195 0
-28.1046 30.3049 -43.2537 -0.469 0.182 0.864 149 90 107 0
-24.8127 35.4418 -47.6212 -0.943 -0.288 -0.165 150 85 107 0
-24.1830 35.4257 -48.1135 -0.065 -0.874 -0.481 143 79 96 0
-23.5460 35.8822 -48.7740 -0.002 -0.905 -0.425 137 75 91 0
-23.4248 35.6779 -48.7996 0.109 -0.983 0.148 136 74 90 0
-21.1282 37.2992 -51.1722 -0.354 -0.271 0.895 133 74 91 0
-18.7782 40.2769 -54.0531 -0.908 -0.315 0.275 127 74 93 0
-18.5793 40.2075 -54.1865 -0.582 -0.767 0.269 126 76 96 0
-18.4190 40.0592 -54.2623 -0.582 -0.767 0.269 121 75 95 0
-18.4237 39.5778 -54.0932 -0.885 -0.375 0.276 117 74 92 0
-18.3377 39.2821 -54.0595 -0.883 -0.378 0.278 113 75 91 0
-18.1616 39.1685 -54.1597 -0.899 -0.057 0.434 111 74 92 0
-18.1520 37.8044 -53.6986 -0.878 -0.035 0.477 102 73 91 0
-15.8979 40.8285 -56.5196 -0.228 -0.340 0.913 103 83 98 0
-12.9248 43.6907 -59.8535 0.003 -0.949 0.316 145 132 149 0
-13.1085 31.6376 -55.5664 0.238 -0.869 -0.434 170 168 176 0
-1.6059 35.9423 -66.1386 0.293 -0.768 -0.569 172 167 170 0
-2.8544 21.5172 -60.1947 0.046 -0.827 -0.561 165 162 153 0
0.4154 22.9233 -63.2627 0.178 -0.902 -0.395 164 155 148 0
-3.2040 14.2108 -57.4077 0.465 -0.693 0.551 166 152 145 0
-3.6151 9.6920 -55.5299 -0.499 -0.764 -0.408 159 147 141 0
-2.9807 9.3185 -55.9030 0.355 -0.908 -0.222 159 145 142 0
0.1968 11.8172 -59.2735 0.594 -0.799 0.096 158 146 140 0
10.7043 19.5916 -70.2515 0.269 -0.838 -0.474 154 141 133 0
-5.0999 2.3340 -51.8277 0.041 -0.768 0.639 153 140 130 0
17.8875 14.2384 -74.0903 -0.918 -0.396 0.034 245 246 244 0
17.9732 14.0398 -74.0898 -0.918 -0.396 0.034 254 255 254 0
-27.6081 52.9136 -51.7329 -0.763 -0.088 0.641 210 197 207 0
-27.5948 52.3096 -51.5345 -0.751 0.129 0.648 210 197 207 0
-27.5968 51.6681 -51.3110 -0.755 0.128 0.643 210 197 206 0
-24.7421 35.3601 -47.9308 -0.328 -0.851 -0.411 153 93 113 0
-24.5738 35.2630 -48.0304 0.188 -0.925 -0.330 151 91 110 0
-24.5103 34.9348 -47.9672 0.041 -0.863 -0.503 147 89 105 0
-24.2109 35.1259 -48.2705 0.041 -0.863 -0.503 144 85 101 0
-19.1710 42.6121 -54.8531 -0.950 0.242 0.196 137 81 95 0
-18.8114 40.4368 -54.3854 -0.888 -0.427 0.171 128 81 101 0
-18.5531 40.0120 -54.4431 -0.888 -0.414 0.199 118 78 99 0
-18.5277 39.5908 -54.3175 -0.921 -0.232 0.312 112 76 96 0
-18.4663 39.2450 -54.2465 -0.926 -0.204 0.319 106 75 94 0
-18.3251 39.0613 -54.2948 -0.898 -0.096 0.430 105 77 94 0
-15.7491 40.8674 -56.9604 0.629 -0.777 0.032 129 115 130 0
-14.5714 41.2599 -58.0291 0.641 -0.745 0.187 153 139 155 0
-8.4721 23.1377 -56.5917 0.218 -0.973 0.077 170 164 164 0
1.3007 30.2592 -66.7975 -0.969 -0.095 -0.229 168 160 158 0
-3.6602 21.2727 -59.7585 -0.822 -0.453 0.346 168 161 152 0
-14.6313 2.1549 -44.4532 0.416 -0.862 0.291 161 149 146 0
-2.5845 14.4361 -58.2455 0.716 -0.679 0.162 163 152 145 0
-2.1496 11.0632 -57.4232 -0.174 -0.820 -0.545 159 146 140 0
-2.2560 10.4213 -57.1168 0.479 -0.840 -0.254 160 146 140 0
8.7008 9.8129 -65.5864 -0.341 -0.914 -0.221 143 129 118 0
9.0329 9.8509 -65.8627 0.023 -0.987 -0.159 142 128 117 0
-27.7750 52.1402 -51.6493 -0.803 0.024 0.595 210 197 207 0
-28.2706 47.6451 -49.6903 -0.527 -0.271 0.805 211 193 205 0
-27.6017 47.0850 -50.0263 0.293 -0.687 0.665 210 194 206 0
-26.7382 45.3134 -50.0948 0.109 -0.466 0.878 205 186 201 0
-27.1377 43.7158 -49.2212 0.234 -0.544 0.806 205 186 201 0
-26.9166 43.7283 -49.4011 0.146 -0.538 0.830 203 185 199 0
-25.0727 34.3867 -47.6116 -0.538 -0.662 -0.522 146 96 115 0
-24.7313 34.6764 -47.9835 -0.356 -0.809 -0.468 143 92 110 0
-24.4043 34.9302 -48.3315 -0.364 -0.832 -0.419 143 90 106 0
-24.2535 34.7949 -48.4040 -0.383 -0.825 -0.416 142 90 104 0
-18.6889 39.0178 -54.2926 -0.966 -0.081 0.245 107 86 103 0
-14.6595 42.2479 -58.6166 -0.966 -0.237 0.101 157 145 159 0
-13.0662 42.4431 -59.9495 -0.941 -0.101 0.322 168 159 173 0
-12.5582 41.9881 -60.1943 -0.974 -0.157 -0.165 170 160 174 0
-13.3834 31.9231 -56.0338 -0.144 -0.680 -0.719 172 171 175 0
-12.7955 32.5070 -56.7039 -0.144 -0.680 -0.719 172 171 176 0
-17.8919 21.1518 -48.7030 -0.197 -0.237 0.951 171 170 177 0
-0.5598 15.6350 -60.5417 0.739 -0.549 0.391 162 147 142 0
-5.5997 9.3047 -54.3358 -0.257 -0.541 0.800 161 148 142 0
-5.6109 8.7726 -54.1416 -0.601 -0.520 0.607 161 148 141 0
-3.7578 9.1921 -55.7589 0.524 -0.852 -0.006 158 146 140 0
-3.4874 9.2169 -55.9822 0.294 -0.935 -0.200 157 146 140 0
12.6322 14.7281 -70.6992 -0.386 -0.376 0.842 146 133 124 0
8.6642 9.8532 -65.8511 -0.339 -0.914 -0.224 144 130 119 0
8.9989 9.8934 -66.1308 0.023 -0.987 -0.159 143 129 119 0
17.9840 13.9248 -74.6683 -0.926 -0.373 0.055 254 255 255 0
-40.6923 49.5301 -40.7738 -0.151 -0.708 0.690 230 226 227 0
-27.5192 52.5703 -52.3204 -0.663 -0.175 0.728 212 198 209 0
-27.8948 48.3993 -50.5592 -0.441 -0.072 0.895 211 193 207 0
-26.2709 50.3914 -52.5496 0.136 -0.885 0.444 211 194 206 0
-26.5162 45.6161 -50.6802 0.179 -0.295 0.939 206 188 202 0
-25.8224 34.8174 -47.4460 -0.014 -0.002 1.000 154 114 134 0
-24.9535 35.3549 -48.3259 -0.632 -0.691 -0.351 144 100 121 0
-24.5830 35.2351 -48.5786 -0.634 -0.689 -0.351 140 95 115 0
-18.2409 37.3591 -54.3691 -0.488 -0.467 0.737 156 139 155 0
-15.8196 41.1681 -57.6310 -0.158 -0.738 0.657 162 150 164 0
-15.7170 40.8974 -57.6177 0.044 -0.702 0.711 167 155 169 0
-15.4983 40.8517 -57.7757 0.094 -0.702 0.706 169 157 171 0
-15.2812 40.8020 -57.9310 -0.220 -0.706 0.674 170 158 172 0
-14.3000 40.8086 -58.7140 -0.517 -0.410 0.752 171 160 176 0
-14.2508 40.4399 -58.6239 -0.496 -0.425 0.757 171 160 176 0
-19.3730 27.6231 -50.0549 -0.750 -0.487 0.447 173 165 178 0
-17.2177 23.8141 -50.4342 -0.747 0.232 0.622 171 170 177 0
-8.7407 23.0302 -56.9037 0.208 -0.977 0.040 171 165 165 0
-7.6339 16.8465 -55.6163 0.771 -0.579 0.265 166 158 154 0
-2.7797 20.3743 -60.7153 -0.857 -0.503 -0.114 162 155 149 0
-0.5130 15.4965 -60.8084 0.737 -0.549 0.393 161 147 140 0
0.0065 15.7777 -61.3203 0.732 -0.543 0.411 160 147 141 0
-3.4255 9.3667 -56.3421 0.308 -0.933 -0.186 156 147 140 0
-6.6910 1.2317 -50.8918 0.362 -0.911 0.196 149 138 129 0
14.2638 13.7979 -71.9695 0.480 -0.860 0.172 143 129 120 0
20.0969 18.0232 -78.0918 -0.967 -0.026 0.252 141 127 118 0
17.9022 14.2005 -75.0054 -0.938 -0.346 0.023 254 255 254 0
-68.7743 72.5306 -26.7906 -0.000 -0.900 -0.436 255 255 255 0
-68.6131 72.6546 -26.9629 -0.012 -0.900 -0.435 255 255 255 0
-68.4506 72.7453 -27.1245 -0.013 -0.925 -0.379 133 133 133 0
-68.2867 72.7940 -27.2723 0.002 -0.931 -0.366 68 65 64 0
-62.6280 61.0800 -27.6498 -0.767 -0.122 0.630 231 221 218 0
-41.0978 48.2965 -40.3043 0.606 -0.779 0.161 230 226 227 0
-40.7404 49.0017 -40.8382 0.091 -0.929 0.359 229 225 226 0
-28.3110 53.8985 -52.4766 -0.656 -0.477 0.585 215 202 212 0
-27.8620 52.5820 -52.3700 -0.489 0.017 0.872 213 200 210 0
-28.4637 46.5508 -49.7616 -0.460 -0.833 0.307 210 194 207 0
-27.9819 42.6610 -48.7729 -0.865 -0.270 0.423 208 190 204 0
-28.2741 41.3483 -48.0766 -0.851 -0.398 0.343 207 188 202 0
-27.4042 40.8676 -48.6005 0.426 -0.376 0.823 207 184 197 0
-25.6835 33.9510 -47.5313 0.174 -0.122 0.977 158 120 143 0
-25.0235 34.4888 -48.2473 0.363 -0.232 0.903 150 112 133 0
-24.8605 34.3830 -48.3400 0.363 -0.232 0.903 140 103 124 0
-19.0536 40.1460 -55.0039 -0.972 -0.074 0.221 121 97 113 0
-14.6240 40.4107 -58.6291 -0.538 -0.566 0.625 173 161 177 0
-14.2726 40.1507 -58.8175 -0.511 -0.428 0.745 172 163 176 0
-14.3772 35.5331 -57.1044 -0.191 -0.978 -0.083 172 169 180 0
-4.4506 34.4115 -64.6231 0.125 -0.959 0.253 173 171 172 0
-3.3410 35.6493 -65.9447 0.476 -0.853 -0.215 175 171 172 0
-8.2960 16.4263 -55.2094 0.715 -0.685 0.142 165 157 153 0
-2.0029 20.1723 -61.5491 0.213 -0.943 -0.257 163 153 150 0
-12.8063 4.2423 -47.3130 -0.411 -0.816 -0.407 161 151 142 0
-0.9627 17.1330 -61.3058 -0.138 -0.860 0.492 160 150 142 0
-0.7018 17.1317 -61.5134 -0.084 -0.859 0.506 162 152 143 0
-1.5117 15.9298 -60.4434 -0.384 -0.383 0.840 162 152 142 0
-10.4955 2.9561 -48.7016 -0.862 -0.427 -0.273 159 145 140 0
-10.0945 3.1475 -49.0888 -0.605 -0.612 -0.510 158 145 139 0
-10.0123 2.9990 -49.1019 -0.185 -0.889 -0.418 155 144 138 0
-3.0314 9.3437 -56.9072 0.018 -0.979 0.203 152 144 136 0
-2.6540 9.4764 -57.2550 0.000 -0.987 -0.161 153 144 135 0
-5.6994 3.1888 -52.6077 -0.843 -0.193 0.502 149 140 131 0
-7.0070 0.9942 -50.7906 0.565 -0.687 0.457 146 136 129 0
11.7096 13.7807 -70.2265 0.233 -0.473 0.850 144 131 123 0
11.2353 12.5476 -69.4131 0.176 -0.980 0.097 144 131 123 0
11.8205 12.8008 -69.9691 0.374 -0.927 0.016 144 131 123 0
12.2468 12.9105 -70.3477 0.370 -0.929 0.015 144 130 122 0
19.0047 17.7301 -77.4369 0.421 -0.761 0.494 144 130 119 0
19.0476 17.4815 -77.3833 0.064 -0.906 0.419 142 128 119 0
17.8756 14.2521 -75.3091 -0.938 -0.346 0.023 254 255 254 0
-68.9015 72.6324 -27.0208 0.004 -0.904 -0.427 255 255 255 0
-68.7407 72.7701 -27.1982 -0.012 -0.900 -0.435 255 255 255 0
-62.6489 58.6970 -27.0659 -0.838 0.047 0.544 232 222 222 0
-62.4998 58.3976 -27.0786 -0.831 -0.099 0.548 231 223 220 0
-41.0181 48.3085 -40.6585 0.163 -0.902 0.399 229 225 226 0
-28.9210 54.4617 -52.5105 -0.909 -0.406 -0.098 218 205 214 0
-28.2250 55.1842 -53.3233 -0.885 -0.438 0.159 216 203 213 0
-28.1445 54.7491 -53.2331 -0.898 -0.420 0.133 215 202 212 0
-28.3172 52.2676 -52.2134 -0.467 0.037 0.883 214 201 210 0
-29.6946 45.2352 -48.6144 -0.385 -0.558 0.735 212 196 209 0
-29.3556 45.5884 -49.0107 -0.205 -0.430 0.879 212 196 209 0
-25.2698 44.3133 -51.8224 0.661 -0.745 -0.089 204 185 198 0
-24.5219 44.5072 -52.4889 0.443 -0.645 0.623 201 181 194 0
-18.3247 44.3698 -57.3917 -0.965 0.253 -0.070 145 118 135 0
-18.9722 38.1767 -54.6741 -0.652 0.061 0.755 167 152 169 0
-18.9065 37.8452 -54.6088 -0.671 0.104 0.734 171 155 173 0
-18.1882 36.9798 -54.8753 -0.683 0.071 0.727 174 162 176 0
-18.7605 35.4151 -53.8621 -0.180 -0.369 0.912 175 163 177 0
-14.3840 41.0772 -59.3707 -0.674 -0.148 0.724 176 165 179 0
-13.7608 41.3193 -59.9546 -0.523 -0.214 0.825 174 166 179 0
-13.1013 36.6969 -58.8393 0.306 -0.946 -0.103 172 170 181 0
-17.9222 27.0439 -51.5579 -0.745 -0.004 0.667 172 169 178 0
-3.6609 34.9448 -65.7600 -0.666 -0.746 -0.009 173 169 170 0
-11.5314 19.7363 -54.0680 -0.575 -0.817 -0.047 170 164 164 0
-0.9962 17.1971 -61.5837 -0.005 -0.726 0.687 159 148 142 0
-10.2862 3.4956 -49.2929 -0.672 -0.495 -0.550 158 145 139 0
-10.2329 3.3150 -49.2714 -0.682 -0.482 -0.550 157 145 139 0
-10.0110 3.3146 -49.4485 -0.579 -0.529 -0.620 156 144 138 0
-3.4962 9.2026 -56.7459 -0.221 -0.969 -0.113 154 145 138 0
-3.2226 9.2290 -56.9739 -0.079 -0.987 0.140 154 144 138 0
-2.9488 9.2545 -57.2017 0.146 -0.988 -0.051 154 144 138 0
-0.8845 10.8668 -59.4239 0.548 -0.828 0.119 154 143 137 0
-7.6799 0.6319 -50.3580 -0.172 -0.958 0.228 148 137 131 0
-2.8666 4.6094 -55.6171 -0.554 -0.802 0.225 146 135 130 0
-2.8540 4.3836 -55.5469 0.105 -0.991 0.086 146 135 129 0
-2.3674 4.6125 -56.0171 0.071 -0.908 0.414 146 135 129 0
4.7484 10.6327 -63.8416 -0.566 -0.611 -0.553 148 135 127 0
9.5205 13.2224 -68.5747 -0.069 -0.639 0.766 148 136 124 0
-69.0291 72.7419 -27.2541 0.004 -0.904 -0.427 255 255 255 0
-68.8681 72.8690 -27.4284 -0.015 -0.921 -0.388 255 255 255 0
-62.8915 59.8450 -27.5565 -0.741 0.112 0.662 234 222 223 0
-62.7406 59.5426 -27.5691 -0.772 -0.004 0.635 234 223 223 0
-62.6030 58.7793 -27.4063 -0.772 -0.004 0.635 233 223 222 0
-46.4477 34.7403 -31.7455 -0.753 -0.544 -0.371 230 228 229 0
-40.7797 49.7943 -41.6677 0.460 -0.854 0.244 228 226 225 0
-29.0002 54.5932 -52.8162 -0.923 -0.382 -0.052 218 205 214 0
-28.7402 54.0215 -52.8200 -0.918 -0.395 0.033 217 204 213 0
-29.5679 45.3128 -49.0427 -0.337 -0.283 0.898 210 196 209 0
-32.4088 28.2425 -40.6632 -0.253 -0.952 0.171 206 188 202 0
-25.1851 44.2549 -52.1739 0.439 -0.764 -0.472 205 187 199 0
-19.4311 39.8256 -55.1973 -0.591 0.228 0.774 172 157 169 0
-19.4818 39.2434 -54.9485 -0.516 0.230 0.825 172 160 172 0
-19.4696 38.7946 -54.7977 -0.516 0.226 0.826 173 161 173 0
-18.8462 35.4558 -54.1029 -0.485 -0.202 0.851 174 164 178 0
-19.2497 33.7924 -53.1849 -0.230 -0.196 0.953 176 165 179 0
-13.3616 40.4265 -60.2722 0.007 -0.937 0.348 173 170 179 0
-17.8160 26.2510 -51.6360 -0.542 0.013 0.840 172 170 178 0
-4.0783 27.7591 -63.1755 0.683 -0.698 0.213 167 165 162 0
-9.4002 16.4519 -54.8704 -0.933 0.151 0.327 164 156 155 0
-8.9012 16.7890 -55.3905 -0.794 0.210 0.570 165 156 155 0
-12.5670 10.9684 -50.3736 -0.561 -0.544 0.624 162 154 152 0
-12.2003 10.8728 -50.6331 -0.514 -0.619 0.593 162 156 153 0
-0.8135 17.8049 -62.2300 -0.550 -0.201 0.811 158 148 143 0
-1.8960 15.9885 -60.7135 -0.184 -0.542 0.820 159 148 143 0
-1.7903 15.8167 -60.7368 -0.581 -0.419 0.698 158 147 140 0
-10.1107 3.7636 -49.7639 -0.695 -0.446 -0.565 157 145 139 0
-3.2711 9.2631 -57.2074 -0.073 -0.989 0.130 153 143 138 0
-3.0174 9.2676 -57.4121 0.153 -0.988 -0.011 153 142 139 0
-5.9634 3.0738 -52.8381 -0.875 -0.183 0.448 151 141 131 0
-5.4484 2.8815 -53.1817 -0.692 -0.262 0.672 147 136 129 0
-2.4701 4.8255 -56.2617 -0.081 -0.861 0.503 146 136 128 0
17.5259 15.7589 -76.1833 0.145 -0.983 -0.111 141 125 115 0
-40.7160 50.5512 -42.2828 0.644 -0.727 0.238 226 225 223 0
-29.0720 54.7482 -53.1373 -0.569 -0.805 0.170 219 206 215 0
-28.9395 54.4671 -53.1425 -0.646 -0.752 0.134 217 204 213 0
-28.7849 54.2537 -53.1897 -0.680 -0.725 0.112 216 203 212 0
-28.5020 53.7525 -53.2363 -0.907 -0.133 0.399 216 203 213 0
-33.2019 30.2761 -41.0140 -0.949 -0.263 0.171 212 195 208 0
-25.1358 48.6488 -54.1003 -0.955 -0.288 0.071 209 191 205 0
-25.1232 48.0962 -53.9114 -0.995 -0.089 -0.034 209 191 205 0
-24.8945 44.7033 -52.8737 0.409 -0.758 -0.508 205 185 196 0
-24.9041 44.1306 -52.6598 0.606 -0.795 -0.030 204 184 195 0
-24.6156 44.2893 -52.9485 0.621 -0.784 -0.018 204 184 196 0
-18.4269 38.7802 -55.9314 -0.987 -0.161 -0.008 178 165 182 0
-20.0104 32.5232 -52.4084 -0.660 0.188 0.728 176 165 179 0
-14.3528 41.0997 -60.0357 -0.789 -0.332 0.516 176 169 181 0
-14.7574 35.8619 -57.8255 -0.008 -0.986 0.164 174 168 178 0
-14.4294 36.0191 -58.1453 0.011 -1.000 -0.027 175 166 177 0
-17.6476 27.0912 -52.3491 -0.768 -0.002 0.640 172 171 180 0
-18.6313 24.6434 -50.6786 -0.578 0.014 0.816 172 171 179 0
-11.8874 19.8191 -54.3536 -0.291 -0.806 0.515 167 165 163 0
-9.2221 17.1008 -55.5139 -0.944 0.021 0.330 162 156 156 0
-8.7671 17.0754 -55.8699 0.142 -0.914 -0.381 164 155 155 0
1.7884 26.4079 -67.6995 -0.410 -0.892 -0.189 163 154 149 0
-5.9923 2.8848 -52.9883 -0.856 -0.178 0.486 146 136 127 0
-5.8246 2.8174 -53.0986 0.206 -0.887 0.414 145 134 128 0
-5.5385 2.8653 -53.3454 -0.755 -0.380 0.535 145 135 127 0
-3.2241 4.4103 -55.7588 0.074 -0.943 0.326 146 137 128 0
11.2459 14.1450 -70.8744 -0.457 -0.531 0.713 145 133 121 0
9.8575 11.5462 -68.8249 -0.788 -0.516 0.334 142 129 121 0
17.0706 15.7222 -76.1162 0.118 -0.985 -0.127 141 125 115 0
-69.2875 73.0477 -27.7514 -0.011 -0.921 -0.391 255 255 255 0
-69.1249 73.1110 -27.9051 -0.011 -0.921 -0.391 255 255 255 0
-29.1274 54.9539 -53.4910 0.166 -0.937 0.307 219 206 215 0
-28.9209 54.8937 -53.6353 0.174 -0.904 0.391 217 204 213 0
-28.7767 54.6460 -53.6615 -0.381 -0.870 0.313 216 203 212 0
-25.3353 48.4396 -54.1803 -0.934 -0.250 -0.255 209 191 205 0
-32.2955 27.6119 -41.0367 0.308 -0.926 0.218 205 187 201 0
-27.0124 32.3359 -46.9968 0.190 -0.044 0.981 195 174 191 0
-18.0226 45.7556 -59.0884 -0.958 0.288 -0.001 186 170 180 0
-18.3724 44.4978 -58.3514 -0.959 0.285 -0.006 187 171 181 0
-14.4397 40.2217 -59.9646 -0.664 -0.032 0.747 173 170 181 0
-17.0990 33.5089 -55.3939 0.410 -0.889 0.203 175 172 179 0
-14.4107 36.2478 -58.5481 -0.096 -0.988 -0.119 174 167 177 0
-14.1880 36.2133 -58.7147 -0.050 -0.994 -0.094 175 168 179 0
-13.9812 36.1499 -58.8580 -0.082 -0.993 -0.089 174 168 181 0
-14.0074 35.6729 -58.6641 -0.129 -0.972 -0.198 174 169 183 0
-13.0218 29.2208 -57.1189 -0.436 -0.895 -0.098 174 171 179 0
-12.5951 29.5242 -57.5720 -0.077 -0.967 0.243 174 172 177 0
-8.9634 17.5518 -56.1546 -0.904 0.079 0.419 163 157 157 0
-3.4435 13.5887 -59.1576 0.667 -0.739 0.099 157 146 140 0
-10.8967 3.5537 -49.5281 0.420 -0.905 -0.075 158 145 137 0
-69.4163 73.1679 -27.9897 0.050 -0.895 -0.443 255 255 255 0
-69.2515 73.1494 -28.1158 -0.008 -0.922 -0.387 255 255 255 0
-28.9070 54.6256 -53.8737 -0.365 -0.873 0.324 216 203 212 0
-26.7996 45.5240 -52.2529 0.580 -0.788 0.205 210 193 208 0
-32.6171 27.5062 -40.9939 0.118 -0.934 0.338 206 188 204 0
-25.9453 43.2126 -52.0985 0.637 -0.737 0.226 206 188 202 0
-23.9990 44.7014 -54.2099 0.618 -0.739 0.270 204 184 197 0
-23.7270 44.8096 -54.4685 0.617 -0.713 0.333 204 184 197 0
-23.4509 44.9253 -54.7332 0.617 -0.713 0.333 204 181 198 0
-21.2688 49.5611 -58.1823 -0.439 -0.846 -0.302 203 180 197 0
-19.8540 31.5136 -52.7410 -0.360 -0.048 0.932 177 170 184 0
-14.2816 36.2407 -58.9556 -0.050 -0.994 -0.094 175 169 180 0
-14.1772 35.9943 -58.9499 0.030 -0.997 -0.070 175 169 182 0
-14.1333 35.6417 -58.8567 -0.011 -0.918 0.397 174 170 184 0
-15.1457 32.5932 -56.9291 -0.121 -0.872 0.475 174 172 184 0
-13.6371 28.7717 -56.7512 -0.455 -0.726 0.516 173 170 180 0
-13.2794 28.9685 -57.1112 -0.368 -0.892 0.262 173 170 180 0
-12.7193 29.4887 -57.7523 -0.077 -0.967 0.243 173 171 178 0
-12.5130 29.4354 -57.8991 -0.077 -0.967 0.243 173 171 177 0
-12.3613 29.2943 -57.9699 -0.086 -0.967 0.238 173 171 177 0
-14.3669 25.3556 -54.9172 -0.190 -0.981 -0.028 174 172 175 0
-12.7749 27.1297 -56.8472 -0.015 -0.964 0.265 174 172 177 0
-16.5341 15.3422 -49.5190 0.348 -0.887 0.304 169 169 167 0
-4.4585 28.0149 -63.8721 0.518 -0.855 0.011 168 163 162 0
-15.6879 4.5050 -46.2489 -0.739 -0.491 0.461 159 150 145 0
2.8578 24.5801 -68.5157 -0.019 -0.136 0.991 158 147 143 0
-10.3383 3.9995 -50.3757 0.370 -0.924 -0.100 155 142 134 0
-10.4603 3.6269 -50.1415 0.495 -0.855 0.155 154 141 134 0
3.0522 13.0585 -64.4707 0.050 -0.958 -0.283 148 138 129 0
-2.9809 4.7926 -56.5942 0.126 -0.722 0.681 144 134 126 0
16.2298 15.1486 -75.8525 0.231 -0.867 0.441 141 127 116 0
18.7199 15.6165 -78.0299 -0.836 -0.528 0.148 246 246 245 0
19.2607 15.2384 -78.3278 -0.776 -0.613 0.147 255 255 255 0
-69.5423 73.1814 -28.1918 0.004 -0.912 -0.410 255 255 255 0
-69.3805 73.2681 -28.3544 -0.045 -0.919 -0.393 255 255 255 0
-69.2174 73.3304 -28.5090 0.009 -0.912 -0.410 133 133 133 0
-68.0843 66.0052 -26.7354 -0.298 -0.747 -0.595 235 224 222 0
-24.5972 44.0764 -53.8074 0.614 -0.789 -0.005 203 185 198 0
-24.2221 44.4401 -54.2439 0.666 -0.671 0.326 203 185 199 0
-23.8908 44.6929 -54.6042 0.648 -0.715 0.262 206 185 200 0
-23.6884 44.6333 -54.7458 0.647 -0.713 0.269 206 184 201 0
-20.2716 43.4643 -57.0762 0.023 -0.735 0.678 193 175 188 0
-19.8383 43.8956 -57.5844 0.443 -0.893 -0.078 192 174 189 0
-20.7987 40.3125 -55.4936 -0.175 -0.145 0.974 190 173 189 0
-21.6302 32.9874 -52.1335 -0.125 -0.664 -0.737 183 172 185 0
-14.3708 36.2761 -59.2034 -0.517 -0.855 0.031 175 170 182 0
-14.2790 36.0067 -59.1786 0.038 -0.987 -0.155 176 172 184 0
-14.3322 35.4806 -58.9426 0.041 -0.969 -0.243 176 172 186 0
-15.4105 33.1427 -57.2136 0.132 -0.964 0.231 176 172 186 0
-13.6559 35.8193 -59.6131 -0.310 -0.950 -0.022 175 173 186 0
-13.4321 29.2710 -57.3903 -0.645 -0.622 0.444 172 169 180 0
-14.4503 25.3780 -55.1391 -0.190 -0.981 -0.028 173 171 175 0
-13.2379 26.9289 -56.6875 -0.241 -0.968 0.073 174 172 176 0
-3.6060 28.2409 -64.9479 0.357 -0.744 0.566 166 160 158 0
-5.2725 24.2593 -62.1406 0.363 -0.917 0.166 167 157 156 0
-17.9506 3.8071 -44.3948 0.112 -0.518 0.848 161 151 150 0
-15.6499 4.8926 -46.6513 -0.603 -0.426 0.675 158 149 144 0
-15.6117 4.6877 -46.6069 -0.654 -0.505 0.564 158 149 144 0
-18.3690 0.6432 -42.8957 -0.939 -0.257 -0.231 157 147 142 0
1.9620 23.3174 -67.6376 -0.971 -0.239 0.028 158 146 140 0
-10.5088 3.8956 -50.4375 0.472 -0.881 -0.028 153 141 134 0
-9.9619 4.0037 -50.9188 -0.659 -0.744 0.112 151 139 133 0
-9.7242 4.0175 -51.1158 -0.539 -0.833 0.122 150 139 133 0
-6.8806 6.3101 -54.2538 0.261 -0.934 0.243 151 140 134 0
3.0480 13.1411 -64.7796 0.044 -0.957 -0.288 145 135 126 0
10.2488 13.7480 -70.8178 -0.127 -0.945 -0.301 142 128 121 0
16.5366 15.4932 -76.5364 0.106 -0.961 -0.256 141 127 114 0
18.6676 15.6486 -78.3145 -0.821 -0.561 0.109 246 246 245 0
19.1943 15.2580 -78.5965 -0.776 -0.613 0.147 255 255 255 0
-69.6714 73.2942 -28.4284 0.039 -0.911 -0.409 255 255 255 0
-69.5089 73.3576 -28.5833 0.004 -0.912 -0.410 255 255 255 0
-69.3461 73.4295 -28.7416 0.004 -0.912 -0.410 133 133 133 0
-69.1829 73.5015 -28.9004 0.004 -0.912 -0.410 72 68 67 0
-34.9598 22.4885 -37.7540 0.462 -0.887 -0.001 209 192 208 0
-24.4146 44.2517 -54.3281 0.632 -0.719 0.289 204 186 200 0
-24.1244 44.4074 -54.6205 0.628 -0.724 0.286 206 186 202 0
-20.6034 43.5031 -57.1362 -0.005 -0.742 0.671 196 178 192 0
-14.5082 36.6623 -59.5422 -0.203 -0.958 -0.204 175 172 183 0
-14.4245 36.3758 -59.5041 -0.506 -0.862 0.010 173 170 181 0
