ply
format ascii 1.0
element vertex 821
property float x
property float y
property float z
property float nx
property float ny
property float nz
property uchar diffuse_red
property uchar diffuse_green
property uchar diffuse_blue
property uchar class
end_header
-21.1230 26.3885 -32.7699 0.290 -0.559 0.777 107 18 36 0
-20.9095 26.0819 -32.8747 0.042 -0.854 0.518 106 17 35 0
-20.3042 26.3521 -33.3772 -0.502 -0.471 0.726 103 14 34 0
-20.5733 25.6475 -33.0486 -0.803 -0.336 0.493 104 15 35 0
-20.5693 25.3457 -32.9972 -0.586 -0.490 0.645 103 14 33 0
-15.8578 29.2663 -37.2362 -0.959 -0.150 0.240 95 14 28 0
-15.9871 28.7662 -37.0491 -0.756 -0.649 0.086 93 14 28 0
-16.7684 25.5173 -35.8780 -0.001 -0.210 0.978 84 14 28 0
-15.6197 26.4654 -36.9101 0.031 -0.361 0.932 80 14 24 0
-3.7088 30.9129 -46.6422 -0.428 -0.611 -0.666 76 47 44 0
-3.1205 30.9726 -47.0941 -0.070 -0.885 -0.460 83 56 53 0
-2.4997 31.0650 -47.5762 0.073 -0.951 -0.302 95 73 68 0
13.7266 16.2707 -57.0778 -0.957 -0.286 -0.056 181 170 155 0
21.3533 12.7959 -62.1704 -0.899 -0.437 0.033 255 255 254 0
-60.4072 63.0335 -10.1632 -0.401 -0.900 -0.171 255 255 255 0
-60.0049 65.4425 -10.9044 -0.608 -0.793 -0.042 255 255 255 0
-59.3900 61.5511 -10.6576 -0.973 -0.095 0.208 230 221 214 0
-28.0744 58.4348 -33.6257 0.252 -0.852 0.460 223 219 210 0
-27.8487 58.4529 -33.7986 0.242 -0.851 0.466 225 218 210 0
-27.5915 58.5458 -34.0088 -0.161 -0.710 0.686 223 216 208 0
-27.4462 58.3660 -34.0853 -0.159 -0.703 0.693 221 214 206 0
-26.8804 55.5521 -33.9979 -0.401 -0.297 0.867 211 201 194 0
-25.3565 58.5742 -35.6937 -0.022 -0.373 0.928 208 198 192 0
-28.7982 37.4812 -29.2650 -0.145 -0.934 0.326 136 44 57 0
-26.7671 32.6818 -29.9173 -0.545 -0.836 0.055 131 34 48 0
-25.9198 31.0042 -30.2485 -0.386 -0.291 0.875 130 33 49 0
-25.9584 30.2447 -30.0811 0.038 -0.601 0.798 127 30 44 0
-25.4975 30.6970 -30.5099 -0.166 -0.459 0.873 127 29 43 0
-25.6564 30.0795 -30.2780 -0.306 -0.597 0.741 128 28 43 0
-24.2547 31.7866 -31.6424 0.105 -0.939 0.326 124 26 40 0
-21.1550 29.7078 -33.5934 -0.236 -0.002 0.972 116 22 41 0
-20.6538 25.9800 -33.2911 -0.345 -0.719 0.604 106 17 36 0
-20.6926 25.6133 -33.1951 -0.634 -0.465 0.618 105 16 35 0
-18.8798 26.0734 -34.6413 -0.434 -0.578 -0.691 95 10 29 0
-19.0607 25.2039 -34.3470 -0.552 -0.603 -0.576 94 11 27 0
-17.3215 26.4175 -35.8752 0.556 -0.272 0.786 88 11 27 0
-4.9580 29.8753 -45.7969 0.414 -0.869 -0.270 76 46 45 0
-3.0846 31.1411 -47.4355 -0.067 -0.888 -0.455 85 60 58 0
-2.7003 31.2739 -47.7485 -0.135 -0.935 -0.328 89 65 62 0
-2.4685 31.2271 -47.9142 -0.058 -0.929 -0.365 103 84 78 0
-1.6521 31.2218 -48.5268 0.032 -0.986 0.163 154 144 130 0
4.7794 26.2287 -52.4510 -0.680 -0.685 0.260 192 182 172 0
12.7879 9.3694 -55.3990 0.126 -0.877 0.463 169 155 142 0
15.7466 11.1959 -57.9553 -0.997 0.047 0.061 168 154 141 0
21.1633 12.9751 -62.3504 -0.760 -0.620 -0.193 254 255 255 0
-60.5102 63.1146 -10.3486 -0.401 -0.900 -0.171 255 255 255 0
-60.1105 65.5214 -11.0930 -0.585 -0.810 -0.027 255 255 255 0
-26.3789 57.5256 -35.0312 -0.295 -0.362 0.884 213 204 195 0
-25.8475 58.2470 -35.5643 -0.163 -0.424 0.891 211 202 194 0
-25.6260 58.2410 -35.7301 -0.129 -0.465 0.876 208 199 191 0
-25.3672 58.3197 -35.9396 -0.162 -0.393 0.905 206 196 189 0
-28.7534 50.0144 -31.8591 0.029 -0.964 0.264 204 193 187 0
-27.3169 52.3340 -33.3684 0.493 -0.679 0.544 207 189 183 0
-26.5056 51.7377 -33.8699 -0.930 0.144 0.337 155 105 108 0
-27.9307 41.9230 -30.9887 -0.181 -0.182 0.967 139 52 66 0
-27.7716 41.8313 -31.0917 -0.330 -0.132 0.935 136 48 64 0
-27.6270 41.2919 -31.1013 -0.356 -0.145 0.923 138 47 64 0
-28.4099 37.2821 -29.7730 -0.852 -0.523 0.040 137 41 55 0
-28.3291 37.0498 -29.7912 -0.840 -0.334 0.426 137 41 54 0
-27.2196 32.7607 -29.8371 -0.513 -0.771 0.376 141 37 56 0
-26.7149 32.5986 -30.1874 -0.512 -0.857 0.048 130 34 46 0
-26.2269 31.3384 -30.3229 -0.662 -0.672 0.333 126 31 47 0
-24.9767 30.7257 -31.1519 -0.139 -0.659 0.740 124 27 42 0
-24.7717 29.0330 -30.9946 -0.407 -0.913 -0.027 130 33 48 0
-20.4507 26.7351 -33.8265 0.441 -0.780 0.443 105 16 34 0
-20.1414 25.3243 -33.7997 -0.645 -0.461 0.609 99 12 31 0
-19.1138 25.2650 -34.5629 -0.239 -0.933 0.270 94 11 27 0
-17.9624 25.9675 -35.5597 -0.422 0.327 0.846 90 12 27 0
-17.5277 25.6542 -35.8294 0.578 -0.341 0.741 87 13 28 0
-17.2754 25.6973 -36.0274 0.569 -0.335 0.751 85 14 28 0
-16.6074 25.6983 -36.5309 0.475 -0.878 0.052 80 13 24 0
-16.1025 23.9783 -36.5944 0.211 -0.843 0.495 79 19 31 0
-2.4815 39.3935 -49.6944 -0.673 0.164 0.721 74 25 29 0
-2.4175 39.1213 -49.6925 -0.723 0.070 0.688 72 24 29 0
-4.8426 32.6957 -46.6822 -0.915 -0.392 -0.092 71 30 35 0
-6.4557 28.8372 -44.7564 0.365 -0.890 -0.274 85 53 54 0
-3.0235 31.3398 -47.8028 -0.135 -0.935 -0.328 87 64 63 0
-2.7190 31.3788 -48.0394 -0.135 -0.935 -0.328 90 69 65 0
-2.5186 31.2951 -48.1749 -0.210 -0.966 -0.149 115 97 90 0
-1.6235 31.0633 -48.8066 -0.001 -0.977 0.213 158 149 135 0
3.6277 35.4096 -53.5629 0.678 -0.724 0.128 170 163 151 0
4.8317 26.3849 -52.8078 -0.634 -0.696 0.339 191 181 171 0
5.8969 22.0006 -52.8029 -0.978 -0.079 0.194 187 176 169 0
12.8171 15.9698 -56.9054 0.597 -0.503 0.625 181 167 158 0
12.9726 15.8371 -56.9980 0.496 -0.421 0.760 182 168 159 0
13.3610 15.8834 -57.2991 -0.890 -0.147 0.432 179 168 158 0
12.2804 9.3053 -55.2736 0.137 -0.875 0.464 170 156 143 0
13.7932 8.9781 -56.3530 -0.989 -0.053 0.136 106 97 91 0
21.8554 13.5047 -63.2601 -0.953 -0.304 0.009 254 255 255 0
-60.6134 63.1959 -10.5344 -0.401 -0.900 -0.171 255 255 255 0
-60.2110 65.6514 -11.2954 -0.569 -0.822 -0.034 255 255 255 0
-59.4840 64.0105 -11.5389 -0.881 -0.305 0.363 229 219 210 0
-26.4848 57.5695 -35.2568 -0.242 -0.302 0.922 213 204 197 0
-25.8287 58.0614 -35.8438 -0.130 -0.463 0.877 209 199 190 0
-25.6307 58.0005 -35.9820 -0.128 -0.454 0.882 207 197 188 0
-26.9789 52.3959 -33.9205 0.345 -0.889 0.300 206 182 177 0
-26.2224 52.6345 -34.5362 0.293 -0.868 0.400 157 110 113 0
-25.9837 52.6800 -34.7248 0.227 -0.865 0.448 152 102 105 0
-28.8179 44.5931 -31.0792 -0.996 -0.054 0.071 144 79 87 0
-28.1660 41.6602 -31.0254 -0.495 0.082 0.865 140 53 67 0
-27.9604 41.6658 -31.1817 -0.330 -0.132 0.935 139 50 64 0
-27.8918 41.3882 -31.1818 -0.367 -0.127 0.921 140 48 64 0
-27.8248 41.1084 -31.1803 -0.385 -0.130 0.914 140 47 64 0
-28.0351 39.4461 -30.7120 -0.787 0.130 0.604 137 45 57 0
-28.7974 35.9378 -29.4832 -0.765 -0.343 0.545 137 39 52 0
-28.6502 35.8417 -29.5764 -0.316 -0.909 -0.272 138 40 54 0
-26.2815 31.4177 -30.5414 -0.623 -0.693 0.362 127 29 49 0
-25.9991 29.8276 -30.4586 -0.608 -0.527 0.594 126 27 43 0
-24.5929 31.5523 -31.8415 0.168 -0.876 0.452 125 28 43 0
-24.9902 29.1671 -31.0974 -0.863 -0.501 0.071 129 33 50 0
-24.8762 29.0218 -31.1564 -0.418 -0.902 -0.110 128 33 49 0
-24.6816 29.0105 -31.3013 0.275 -0.944 0.184 129 33 50 0
-23.5357 27.9030 -31.9603 0.192 -0.981 -0.004 117 24 42 0
-23.0668 27.9972 -32.3319 0.275 -0.938 0.211 118 24 44 0
-22.8148 28.0701 -32.5358 0.217 -0.967 0.137 118 23 43 0
-13.4975 34.0486 -40.6842 -0.430 0.335 0.839 96 11 29 0
-17.7032 25.2419 -35.8689 0.651 -0.474 0.593 90 17 33 0
-17.2794 25.2179 -36.1845 0.537 -0.843 -0.031 84 12 26 0
-16.2334 23.9326 -36.7350 0.191 -0.823 0.535 78 21 31 0
-2.6630 39.3106 -49.8449 -0.673 0.164 0.721 73 24 29 0
-5.0804 34.5169 -47.1270 0.094 -0.984 0.149 70 25 31 0
-6.0523 31.9881 -45.9224 -0.602 -0.521 0.605 69 29 34 0
-2.2308 35.0275 -49.3738 0.455 -0.508 0.731 70 35 41 0
-2.9172 31.5924 -48.2159 -0.221 -0.943 0.249 87 66 66 0
-2.7947 31.4173 -48.2758 -0.256 -0.921 0.293 91 73 68 0
-2.6027 31.3236 -48.4033 -0.256 -0.921 0.293 134 119 111 0
7.5721 32.3162 -56.2710 0.397 -0.544 0.739 189 181 168 0
11.4610 16.7623 -56.3116 0.726 -0.498 0.474 176 164 154 0
12.1899 15.8098 -56.6846 0.598 -0.453 0.661 178 165 155 0
12.5451 15.8331 -56.9572 0.602 -0.566 0.564 179 167 156 0
-0.1573 4.9133 -45.3327 0.004 -0.366 0.931 177 166 154 0
0.7289 5.1617 -46.0482 -0.456 -0.473 0.754 176 165 153 0
12.0939 9.2358 -55.3882 0.143 -0.878 0.457 170 157 142 0
12.6111 9.1386 -55.7607 0.085 -0.863 0.499 169 156 143 0
-60.7177 63.2678 -10.7180 -0.414 -0.893 -0.177 255 255 255 0
-59.5715 64.2409 -11.7686 -0.884 -0.306 0.353 230 220 211 0
-31.1594 51.7219 -30.9163 -0.247 -0.464 0.851 223 218 211 0
-27.9458 51.9278 -33.3872 0.526 -0.664 0.531 205 192 186 0
-27.1406 52.3000 -34.0667 0.357 -0.882 0.309 207 184 178 0
-26.3816 52.5470 -34.6877 0.311 -0.867 0.390 162 119 120 0
-26.1513 52.5747 -34.8672 0.244 -0.867 0.435 157 108 111 0
-28.9872 44.4662 -31.1948 -0.967 -0.010 0.254 145 81 89 0
-28.6117 42.6548 -31.1380 -0.358 0.044 0.933 142 60 74 0
-28.6408 42.1648 -31.0238 -0.265 -0.028 0.964 144 58 74 0
-28.5936 41.8388 -30.9982 -0.283 -0.010 0.959 146 57 72 0
-28.5367 41.5348 -30.9840 -0.307 0.041 0.951 146 57 71 0
-28.3990 41.4009 -31.0630 -0.341 0.047 0.939 143 55 69 0
-28.1606 41.4761 -31.2577 -0.318 -0.353 0.880 144 53 68 0
-28.1225 41.1357 -31.2224 -0.267 -0.377 0.887 143 49 65 0
-28.0056 40.9594 -31.2777 -0.385 -0.130 0.914 142 49 64 0
-27.7285 34.0250 -30.1823 -0.480 -0.438 0.760 138 35 54 0
-26.5416 31.4854 -30.6027 -0.651 -0.644 0.402 127 30 49 0
-26.4364 31.3196 -30.6512 -0.625 -0.670 0.401 128 28 48 0
-26.0442 29.9192 -30.6844 -0.588 -0.495 0.640 125 28 45 0
-25.2802 30.8923 -31.4458 0.003 -0.714 0.701 124 27 43 0
-25.1874 29.3375 -31.2234 -0.867 -0.465 0.180 129 34 50 0
-23.3772 27.9850 -32.3389 0.112 -0.991 0.077 119 26 43 0
-23.1239 28.0614 -32.5450 0.062 -0.995 0.080 118 25 43 0
-22.9986 27.9338 -32.6158 0.008 -0.337 0.942 117 23 42 0
-21.4658 27.4069 -33.6768 -0.902 -0.283 0.325 110 22 38 0
-16.6238 25.3342 -36.9514 -0.400 -0.344 0.849 83 13 23 0
-16.8721 23.8040 -36.4755 -0.063 -0.574 0.817 80 18 27 0
-16.7418 23.6819 -36.5511 -0.063 -0.574 0.817 82 22 31 0
-16.4532 23.7692 -36.7859 0.162 -0.833 0.530 76 20 29 0
-5.3353 34.3358 -47.1892 -0.617 -0.779 -0.112 71 26 32 0
-4.8604 34.5982 -47.5979 -0.558 -0.753 0.348 71 26 31 0
-4.6979 34.4671 -47.6962 -0.552 -0.751 0.361 71 26 31 0
-4.5527 34.3145 -47.7775 -0.536 -0.771 0.345 70 28 32 0
-4.2590 34.3460 -48.0057 -0.163 -0.965 -0.205 70 30 35 0
-3.6807 34.7277 -48.5152 -0.128 -0.982 -0.139 70 31 37 0
-3.2644 34.9060 -48.8638 -0.273 -0.959 -0.074 71 31 39 0
-2.9242 31.3929 -48.4602 -0.230 -0.931 0.283 102 86 79 0
-2.7313 31.3003 -48.5887 -0.256 -0.921 0.293 142 129 119 0
2.3639 34.9022 -53.1229 0.608 -0.794 -0.000 165 161 146 0
3.4849 35.8418 -54.1482 0.617 -0.787 0.030 168 163 149 0
0.8947 23.2465 -49.8173 -0.401 -0.708 0.580 191 182 172 0
0.8202 18.0205 -48.7774 -0.838 -0.520 -0.164 185 174 168 0
6.3386 17.2378 -52.8067 -0.286 0.297 0.911 181 171 161 0
10.5083 15.0716 -55.5549 -0.125 -0.749 0.651 178 166 154 0
11.1432 15.3189 -56.0819 0.598 -0.455 0.660 175 163 151 0
11.5983 15.4231 -56.4460 0.604 -0.550 0.577 176 164 152 0
12.0780 15.5446 -56.8319 0.604 -0.550 0.577 176 164 152 0
-0.1808 4.7452 -45.5214 0.037 -0.403 0.915 177 165 153 0
11.9031 9.3930 -55.5418 0.099 -0.797 0.596 168 156 142 0
12.0459 9.2636 -55.6255 -0.051 -0.916 0.397 167 155 141 0
12.4140 9.0621 -55.8662 0.071 -0.866 0.494 167 155 143 0
21.5771 13.4440 -63.6260 -0.895 -0.444 -0.038 254 255 255 0
-60.8210 63.3527 -10.9053 -0.414 -0.893 -0.177 255 255 255 0
-59.6759 64.3230 -11.9586 -0.884 -0.306 0.353 232 221 213 0
-31.0468 51.7840 -31.2919 -0.654 0.013 0.757 222 217 211 0
-25.9485 58.3685 -36.4121 0.179 -0.410 0.894 213 200 192 0
-27.5581 52.1101 -34.0006 0.267 -0.952 0.150 207 188 182 0
-27.3203 52.1630 -34.1910 0.284 -0.941 0.185 208 187 180 0
-26.7963 52.3724 -34.6283 0.360 -0.913 0.191 192 158 156 0
-26.5379 52.4657 -34.8421 0.352 -0.912 0.212 168 128 128 0
-26.2683 52.5817 -35.0687 0.366 -0.906 0.214 165 120 122 0
-26.0375 52.6093 -35.2491 0.130 -0.847 0.516 160 109 113 0
-28.8671 41.9163 -31.0684 -0.357 0.123 0.926 148 62 76 0
-28.5687 42.1206 -31.3337 -0.323 0.088 0.942 153 63 79 0
-28.6194 41.5888 -31.1940 -0.413 0.097 0.906 151 60 77 0
-28.7106 40.9764 -31.0083 -0.738 -0.270 0.619 148 57 72 0
-28.6917 40.5972 -30.9505 -0.804 -0.565 0.186 149 56 72 0
-28.5869 40.3984 -30.9922 -0.797 -0.567 0.206 146 52 67 0
-28.4729 40.2191 -31.0446 -0.797 -0.567 0.206 143 51 66 0
-28.4155 39.9243 -31.0320 -0.843 -0.116 0.525 143 51 64 0
-27.7541 36.8402 -30.9471 -0.584 -0.394 0.710 137 36 56 0
-27.6462 36.6611 -30.9949 -0.593 -0.366 0.717 139 38 58 0
-26.7491 38.0088 -31.9318 -0.990 -0.139 -0.011 135 36 56 0
-26.5503 33.4495 -31.2154 -0.791 -0.206 0.577 132 33 53 0
-26.4665 33.2372 -31.2386 -0.788 -0.199 0.583 131 32 50 0
-26.4315 32.9374 -31.2081 -0.798 -0.168 0.579 132 32 50 0
-25.2862 29.3363 -31.3919 -0.846 -0.533 0.011 126 31 47 0
-25.1874 29.1648 -31.4342 -0.671 -0.739 -0.055 124 29 45 0
-20.7479 27.0440 -34.3987 -0.682 -0.326 0.654 105 16 34 0
-20.6707 26.8423 -34.4188 -0.682 -0.326 0.654 103 14 32 0
-7.1426 33.5119 -45.9503 -0.346 -0.831 0.435 69 24 31 0
-5.2288 34.6100 -47.6110 -0.586 -0.755 0.294 69 26 31 0
-5.0417 34.5103 -47.7340 -0.595 -0.748 0.294 71 26 31 0
-4.6701 34.3066 -47.9771 -0.536 -0.771 0.345 71 29 33 0
-2.8093 31.3362 -48.8237 -0.161 -0.923 0.349 148 136 125 0
-2.3820 31.1979 -49.1216 -0.169 -0.929 0.330 155 142 133 0
4.7049 29.2792 -54.1328 -0.730 -0.383 0.566 189 182 171 0
1.0708 23.5245 -50.2812 -0.453 -0.676 0.581 190 181 172 0
1.3840 23.5544 -50.5246 0.083 -0.541 0.837 192 183 174 0
4.7546 15.4598 -51.5418 -0.206 0.311 0.928 180 169 159 0
2.0230 9.8357 -48.3997 -0.864 -0.372 0.341 176 165 153 0
10.4929 14.8836 -55.7853 0.089 -0.816 0.571 174 163 151 0
11.0143 15.0415 -56.2109 0.591 -0.405 0.697 175 163 151 0
22.1222 17.7103 -65.1453 -0.610 -0.183 0.771 170 156 148 0
21.2132 13.2617 -63.6094 -0.921 -0.390 0.006 254 255 255 0
-60.9215 63.4670 -11.1008 -0.405 -0.897 -0.176 255 255 255 0
-60.5219 65.9660 -11.8851 -0.596 -0.802 -0.035 255 255 255 0
-59.7613 64.5811 -12.1972 -0.882 -0.335 0.331 231 219 213 0
-59.5910 64.7546 -12.3600 -0.909 -0.399 0.121 232 220 214 0
-55.9907 60.5906 -14.2972 0.218 -0.848 0.482 234 225 216 0
-37.0897 46.4708 -25.9547 -0.499 0.212 0.841 231 228 221 0
-31.2789 52.5181 -31.5358 -0.794 -0.091 0.601 224 220 213 0
-26.3626 58.2171 -36.3698 -0.132 -0.171 0.976 215 202 196 0
-27.2076 52.2015 -34.5708 0.329 -0.841 0.430 205 183 177 0
-26.9673 52.2569 -34.7642 0.259 -0.868 0.424 202 171 168 0
-26.5086 52.3132 -35.1238 0.324 -0.832 0.450 166 125 125 0
-26.2353 52.4370 -35.3554 0.508 -0.734 0.451 161 114 116 0
-25.8808 52.7380 -35.6828 0.170 -0.793 0.585 156 101 106 0
-26.6037 50.6592 -34.7335 -0.946 0.156 0.285 151 91 98 0
-28.6955 42.0832 -31.4941 -0.722 0.100 0.684 150 60 76 0
-27.5537 38.2280 -31.6211 -0.843 0.052 0.536 133 38 52 0
-27.5934 37.7531 -31.4997 -0.761 0.088 0.643 135 37 56 0
-26.5401 32.9240 -31.3722 -0.794 -0.208 0.572 132 31 49 0
-25.6988 30.8605 -31.6152 -0.572 -0.473 0.670 123 30 46 0
-25.5830 30.7131 -31.6749 -0.522 -0.533 0.666 122 28 44 0
-25.4469 30.2554 -31.6904 -0.664 -0.203 0.719 122 29 43 0
-25.2226 29.9513 -31.8024 -0.718 -0.670 0.188 124 32 46 0
-25.1301 29.7666 -31.8373 -0.742 -0.636 0.213 126 30 47 0
-25.2469 29.2296 -31.6452 -0.651 -0.756 -0.065 124 27 44 0
-23.8121 28.9201 -32.6767 0.071 -0.675 0.734 119 26 42 0
-23.9077 28.1026 -32.4469 0.071 -0.828 0.556 117 25 39 0
-23.9151 27.7623 -32.3758 0.014 -0.967 -0.256 118 26 41 0
-23.5820 27.9695 -32.6690 -0.093 -0.248 0.964 117 25 40 0
-20.8332 26.1161 -34.4028 -0.911 -0.353 0.212 103 19 34 0
-6.0074 34.4354 -47.2756 -0.886 -0.336 0.320 66 25 31 0
-5.9036 34.2320 -47.3155 -0.638 -0.756 0.148 69 26 33 0
-5.8002 34.0286 -47.3550 -0.552 -0.833 -0.033 69 26 31 0
-5.0387 34.6543 -48.0543 -0.678 -0.685 0.268 71 26 31 0
-4.8465 34.5601 -48.1824 -0.592 -0.743 0.313 73 28 33 0
-2.5411 33.4012 -49.7126 0.144 -0.928 0.345 83 60 63 0
-2.5584 31.1193 -49.2607 -0.142 -0.947 0.289 155 143 134 0
0.2983 33.4565 -51.8822 0.618 -0.784 0.057 161 155 143 0
3.1093 35.0111 -54.3186 0.601 -0.779 -0.181 171 164 154 0
1.0269 23.5826 -50.5380 -0.077 -0.445 0.892 189 180 171 0
-10.9950 11.0447 -38.9861 -0.899 -0.387 0.207 189 180 171 0
0.6207 18.2746 -49.2086 -0.810 -0.355 -0.467 186 177 168 0
7.6858 19.3514 -54.7879 -0.073 0.029 0.997 181 173 160 0
10.4191 14.6502 -55.9624 -0.269 -0.498 0.824 174 164 152 0
23.3699 18.9442 -66.6357 -0.332 0.032 0.943 170 156 148 0
24.4722 18.9318 -67.4715 -0.402 0.051 0.914 170 155 147 0
11.2165 8.8031 -55.4446 0.090 -0.787 0.610 166 154 142 0
11.7802 8.7416 -55.8614 0.230 -0.740 0.632 167 155 143 0
21.2593 13.3566 -63.9565 -0.914 -0.405 0.020 254 255 255 0
-61.0290 63.5136 -11.2785 -0.401 -0.899 -0.177 255 255 255 0
-60.6337 65.9938 -12.0616 -0.582 -0.812 -0.046 255 255 255 0
-59.8678 64.6488 -12.3841 -0.883 -0.332 0.331 230 219 213 0
-31.3230 53.2206 -31.9197 -0.237 -0.239 0.942 225 221 215 0
-25.1174 59.8451 -37.9364 0.272 -0.498 0.823 210 197 189 0
-24.1451 61.0318 -38.9080 0.305 -0.581 0.755 207 193 186 0
-26.2162 52.2610 -35.6254 0.177 -0.869 0.462 159 107 112 0
-25.9347 52.4000 -35.8670 -0.116 -0.976 0.184 152 93 101 0
-26.6275 49.4499 -34.7658 -0.955 0.290 0.056 146 77 88 0
-29.2896 42.7715 -31.4393 -0.649 0.054 0.759 144 68 81 0
-28.8312 40.7556 -31.3971 -0.859 0.011 0.512 150 61 75 0
-28.8048 40.3922 -31.3466 -0.783 -0.502 0.368 151 59 73 0
-28.6795 40.2358 -31.4117 -0.740 -0.608 0.286 146 54 70 0
-28.6569 39.8682 -31.3575 -0.949 -0.240 0.202 142 50 65 0
-27.8396 37.4758 -31.5156 0.398 -0.820 0.412 134 39 56 0
-27.5866 37.5781 -31.7283 0.394 -0.815 0.425 134 39 57 0
-27.5477 37.2605 -31.6962 -0.743 0.114 0.660 137 40 59 0
-27.0223 33.6905 -31.4031 -0.047 -0.435 0.899 151 53 65 0
-26.8889 33.5681 -31.4810 -0.039 -0.434 0.900 152 53 67 0
-26.7659 33.4268 -31.5473 -0.048 -0.434 0.900 143 42 58 0
-26.6652 32.8806 -31.5179 -0.109 -0.931 0.347 132 30 48 0
-26.7608 31.2735 -31.1328 -0.647 -0.724 0.239 127 32 46 0
-25.6984 30.6854 -31.8283 -0.698 -0.600 0.390 125 33 46 0
-25.1343 29.5857 -32.0446 0.131 -0.988 -0.085 124 28 45 0
-24.4228 29.7594 -32.6206 0.112 -0.993 -0.036 120 23 40 0
-24.4019 28.7830 -32.4468 -0.174 -0.970 0.171 117 23 41 0
-24.4180 28.4233 -32.3647 -0.251 -0.864 0.436 116 23 41 0
-24.0089 28.7596 -32.7418 -0.080 -0.790 0.608 120 28 44 0
-24.0468 28.0353 -32.5722 0.074 -0.831 0.551 118 25 41 0
-21.6781 27.5311 -34.2796 -0.479 -0.311 0.821 115 27 43 0
-21.0151 26.3038 -34.5464 -0.730 -0.358 0.582 106 20 34 0
-20.8476 25.9251 -34.6005 -0.719 -0.354 0.598 99 16 28 0
-6.0199 34.2251 -47.5144 -0.893 -0.427 0.139 67 24 31 0
-2.8817 33.1264 -49.6927 0.124 -0.947 0.296 84 63 64 0
1.6093 33.7736 -53.2413 0.628 -0.759 -0.170 170 163 153 0
-4.8909 25.5138 -46.6823 0.120 -0.544 0.830 172 167 155 0
-4.6743 25.4615 -46.8372 0.101 -0.536 0.838 174 170 158 0
-7.6293 3.6119 -40.3399 -0.700 -0.526 0.483 181 169 156 0
9.8224 15.2552 -55.9033 -0.188 -0.882 0.432 175 168 152 0
10.1885 15.2940 -56.1898 -0.735 -0.027 0.677 174 166 152 0
10.2700 15.1072 -56.2156 -0.737 -0.023 0.676 173 165 152 0
12.8003 14.5624 -58.0383 -0.763 -0.372 0.528 176 164 152 0
2.0119 5.0868 -47.9747 -0.204 -0.970 -0.132 173 164 149 0
11.4942 8.6025 -55.8849 0.251 -0.690 0.679 165 153 141 0
13.6086 9.8473 -57.7383 -0.985 0.079 0.150 165 152 140 0
-61.1186 63.7444 -11.5063 -0.447 -0.874 -0.189 255 255 255 0
-60.7402 66.0773 -12.2534 -0.603 -0.796 -0.039 255 255 255 0
-59.8218 64.7306 -12.6906 -0.919 -0.386 0.084 231 220 213 0
-31.5659 52.9062 -31.9552 0.179 -0.597 0.782 225 222 215 0
-24.7292 61.0514 -38.7772 0.388 -0.536 0.750 210 197 189 0
-24.5831 60.8537 -38.8500 0.537 -0.572 0.620 208 196 188 0
-27.7940 51.8983 -34.6389 0.389 -0.768 0.509 206 189 182 0
-27.3549 51.9206 -34.9787 0.432 -0.733 0.526 204 180 174 0
-27.0187 49.7898 -34.8172 -0.974 0.108 0.198 151 90 100 0
-29.3979 42.3401 -31.5371 -0.509 -0.092 0.856 147 68 82 0
-28.9183 40.3798 -31.5187 -0.871 -0.488 0.054 161 69 84 0
-28.8111 40.1858 -31.5625 -0.826 -0.555 0.098 151 59 76 0
-28.7880 39.8185 -31.5080 -0.955 -0.237 0.177 144 52 67 0
-28.6654 37.2319 -31.0938 -0.257 -0.965 0.056 138 47 57 0
-27.6570 37.6468 -31.9456 0.465 -0.792 0.395 136 41 59 0
-26.5759 36.9944 -32.6435 -0.856 0.181 0.484 140 38 53 0
-27.9625 33.6054 -30.9188 -0.924 -0.340 -0.175 141 38 53 0
-27.3300 33.6781 -31.4163 0.004 -0.322 0.947 141 42 55 0
-27.1997 33.5504 -31.4908 -0.047 -0.427 0.903 156 56 70 0
-27.0747 33.4130 -31.5593 -0.507 -0.297 0.809 173 72 87 0
-26.9978 33.1875 -31.5738 -0.500 -0.284 0.818 167 65 83 0
-26.7542 32.5398 -31.6327 -0.371 -0.848 0.377 131 29 47 0
-25.7796 29.3382 -31.7487 -0.821 -0.563 0.101 124 33 45 0
-25.1674 29.6965 -32.2867 -0.787 -0.364 0.498 123 28 44 0
-21.9306 30.5986 -34.9366 -0.327 -0.739 0.588 117 24 40 0
-22.0632 27.7354 -34.2732 -0.894 -0.175 0.412 114 22 38 0
-21.1447 26.2554 -34.6843 -0.716 -0.346 0.606 106 19 33 0
-15.3154 30.5389 -39.9785 -0.500 0.323 0.803 91 13 30 0
-14.9726 23.8452 -38.9263 -0.493 -0.475 0.729 70 27 31 0
-14.8349 23.7275 -39.0084 -0.415 -0.538 0.733 68 26 32 0
-1.4371 33.9933 -51.2590 0.246 -0.824 -0.510 135 120 113 0
0.2695 34.0112 -52.5663 -0.060 -0.869 -0.492 159 150 142 0
-5.1695 25.3159 -46.7041 0.078 -0.613 0.786 172 166 156 0
-4.2503 12.9053 -44.9698 -0.179 -0.932 0.316 186 176 168 0
10.4580 16.0905 -56.8315 -0.412 -0.418 0.809 175 167 151 0
9.6721 15.2110 -56.0585 0.147 -0.934 0.326 174 166 151 0
9.8454 15.0974 -56.1686 -0.049 -0.870 0.490 173 165 151 0
11.2031 8.4596 -55.9027 0.164 -0.689 0.706 165 152 140 0
13.5561 9.4077 -57.8863 -0.990 -0.071 0.121 167 154 139 0
-60.8403 66.2276 -12.4637 -0.596 -0.802 -0.035 255 255 255 0
-27.6972 56.9870 -36.0095 -0.317 -0.024 0.948 218 207 203 0
-25.9642 58.4608 -37.6288 0.279 -0.608 0.744 210 198 190 0
-27.9486 51.8170 -34.7914 0.276 -0.856 0.436 204 190 182 0
-27.3549 51.7032 -35.2234 0.498 -0.794 0.348 204 178 173 0
-26.6316 51.8703 -35.8104 0.293 -0.891 0.347 160 112 116 0
-27.0222 50.0422 -35.1487 -0.977 0.102 0.187 153 92 102 0
-29.0055 40.4224 -31.7218 -0.961 -0.226 0.157 171 80 95 0
-28.9233 40.1758 -31.7358 -0.956 -0.238 0.169 167 76 91 0
-28.8578 39.8960 -31.7305 -0.954 -0.245 0.175 149 57 72 0
-27.5017 33.5475 -31.5096 -0.009 -0.303 0.953 140 38 52 0
-27.3863 33.3926 -31.5672 -0.003 -0.304 0.953 150 49 63 0
-26.8669 32.5184 -31.7916 -0.371 -0.848 0.377 130 29 47 0
-26.4082 30.8415 -31.8101 -0.974 -0.194 -0.118 123 29 45 0
-24.4445 29.7138 -33.0901 -0.755 -0.568 0.328 121 24 43 0
-24.3675 29.5024 -33.1072 -0.946 -0.178 0.271 118 24 42 0
-22.2016 30.3261 -34.9291 -0.227 -0.892 0.392 118 24 40 0
-21.7586 30.3569 -35.2744 -0.463 0.045 0.885 113 22 37 0
-5.8344 34.4072 -48.2715 -0.941 -0.285 0.182 70 26 31 0
-4.2950 27.6201 -48.1039 0.313 -0.758 0.573 168 161 151 0
-5.4563 25.4027 -46.7748 0.067 -0.670 0.740 173 166 158 0
3.6472 17.1215 -52.1029 -0.699 -0.502 -0.510 182 172 160 0
-7.6718 3.2927 -40.6925 -0.744 -0.491 0.453 181 168 157 0
9.6698 15.0331 -56.3004 -0.049 -0.870 0.490 175 165 153 0
11.9405 13.3129 -57.6979 -0.746 -0.642 0.176 177 165 153 0
12.1181 13.2011 -57.8118 -0.787 -0.604 0.128 177 165 151 0
-61.1751 65.5055 -12.3199 -0.327 -0.922 -0.206 255 255 255 0
-60.9649 66.1283 -12.6060 -0.156 -0.942 -0.298 255 255 255 0
-28.1468 51.6349 -34.8899 0.238 -0.891 0.386 204 191 183 0
-28.0036 51.4734 -34.9675 0.365 -0.734 0.573 203 187 179 0
-26.7846 51.7962 -35.9677 0.486 -0.815 0.315 162 118 120 0
-26.5722 51.7851 -36.1286 0.207 -0.930 0.304 157 104 109 0
-26.3552 51.7831 -36.2947 0.183 -0.940 0.289 155 96 104 0
-28.4730 39.6685 -32.2414 -0.889 -0.411 0.202 145 51 67 0
-28.8181 37.3459 -31.5111 -0.290 -0.851 0.439 143 51 62 0
-26.9795 32.4971 -31.9504 -0.371 -0.848 0.377 128 29 47 0
-25.4719 30.2026 -32.6477 -0.971 -0.138 0.196 127 27 45 0
-24.5348 29.7288 -33.2720 -0.755 -0.568 0.328 118 22 41 0
-24.4859 29.4703 -33.2578 -0.830 -0.437 0.345 116 22 40 0
-24.4685 28.8242 -33.1416 0.250 -0.594 0.765 118 24 43 0
-24.2751 28.8071 -33.2866 0.217 -0.579 0.786 118 24 42 0
-23.8034 28.9086 -33.6690 -0.102 -0.725 0.682 118 24 42 0
-22.6937 30.0347 -34.7464 -0.682 -0.635 0.362 117 22 39 0
-21.9321 30.2413 -35.3723 -0.455 0.042 0.890 115 23 38 0
-21.6748 30.3125 -35.5841 0.055 -0.184 0.981 114 20 38 0
-22.1726 27.8707 -34.7126 -0.971 -0.237 -0.010 113 18 37 0
-22.1933 27.5136 -34.6252 -0.937 -0.338 0.089 112 17 36 0
-18.2395 25.1360 -37.1834 -0.230 -0.965 0.128 86 16 27 0
-18.2982 24.7498 -37.0609 -0.579 -0.575 0.577 85 15 26 0
-13.6211 28.3216 -41.3665 0.176 -0.897 -0.406 72 21 30 0
-12.4249 26.7734 -41.9743 -0.755 -0.611 0.238 74 29 34 0
1.0186 36.1559 -54.1728 0.426 -0.852 -0.304 149 138 132 0
-4.3607 28.2774 -48.4652 -0.034 -0.940 0.340 163 156 147 0
-4.1050 27.3479 -48.4751 -0.145 -0.817 0.559 169 165 156 0
-5.7155 25.2253 -46.8137 0.255 -0.575 0.777 171 167 158 0
11.9553 13.1487 -57.9560 -0.866 -0.226 0.446 176 164 153 0
12.1496 13.0494 -58.0853 -0.796 -0.579 0.177 176 163 152 0
13.5008 9.9583 -58.5029 -0.985 0.079 0.150 166 154 141 0
-61.0707 66.2246 -12.8021 -0.158 -0.940 -0.303 255 255 255 0
-28.7402 56.1155 -35.6275 -0.413 0.122 0.902 221 212 203 0
-26.9741 51.6399 -36.0801 0.486 -0.815 0.315 161 122 123 0
-26.6902 51.7894 -36.3288 0.498 -0.794 0.347 158 109 113 0
-26.5004 51.7271 -36.4622 0.280 -0.843 0.459 158 102 108 0
-28.5223 39.7876 -32.4894 -0.882 -0.363 0.300 143 48 64 0
-28.9388 37.3141 -31.6683 -0.286 -0.847 0.449 141 49 64 0
-27.1023 32.4574 -32.0978 -0.416 -0.823 0.387 127 29 47 0
-26.0336 30.0981 -32.4424 -0.897 -0.433 -0.091 124 26 45 0
-26.0681 29.3492 -32.2642 -0.797 -0.569 0.204 127 24 43 0
-25.8946 29.3043 -32.3886 -0.470 -0.278 0.838 127 26 44 0
-25.8027 29.1197 -32.4218 -0.584 -0.759 0.289 128 28 46 0
-25.6761 28.9948 -32.4940 -0.584 -0.759 0.289 126 28 46 0
-25.5906 28.8006 -32.5205 -0.623 -0.714 0.319 123 26 43 0
-24.9344 29.5663 -33.1802 -0.207 -0.978 0.041 120 24 41 0
-24.7568 29.5234 -33.3082 -0.207 -0.978 0.041 117 22 40 0
-24.1413 29.1893 -33.7141 -0.253 -0.886 0.388 118 24 43 0
-23.9892 29.1023 -33.8135 -0.253 -0.886 0.388 118 24 42 0
-23.5894 29.4190 -34.1852 0.180 -0.747 0.640 119 23 41 0
-22.0677 29.8484 -35.4428 -0.438 0.117 0.891 114 21 39 0
-22.1495 29.3831 -35.2857 -0.461 0.104 0.881 114 19 38 0
-22.3932 27.6806 -34.7535 -0.410 -0.912 0.018 111 15 36 0
-22.3496 27.4235 -34.7350 -0.381 -0.855 0.351 111 14 35 0
-18.2972 25.1912 -37.4006 -0.041 -0.961 0.273 86 17 28 0
-18.0631 25.2104 -37.5845 -0.296 -0.681 0.670 85 16 27 0
-14.3474 28.4323 -41.0953 0.238 -0.830 -0.504 75 20 27 0
-13.6785 29.0177 -41.7285 0.239 -0.827 -0.509 73 19 26 0
-5.8372 34.6877 -48.9088 -0.933 -0.301 0.199 74 29 34 0
-3.6390 28.6116 -49.3698 -0.158 -0.952 0.264 168 161 152 0
-3.6690 27.9623 -49.2152 -0.106 -0.776 0.622 169 165 156 0
-5.8138 25.2293 -47.0119 0.337 -0.774 0.535 171 167 158 0
4.7349 18.2549 -53.7150 -0.935 -0.347 0.069 183 173 162 0
10.5856 15.4039 -57.6389 0.551 -0.775 0.310 175 165 154 0
11.7075 13.2777 -58.0715 -0.990 -0.074 0.123 174 161 153 0
11.8365 13.1293 -58.1407 -0.798 -0.033 0.601 175 162 153 0
11.8408 12.8880 -58.0951 -0.825 -0.049 0.563 174 162 152 0
3.3409 6.3174 -50.2258 -0.563 -0.661 -0.496 174 161 151 0
12.2786 9.8631 -57.8195 0.195 -0.272 0.942 168 154 144 0
-61.3366 66.2219 -12.8549 -0.208 -0.926 -0.316 255 255 255 0
-61.1730 66.3596 -13.0093 -0.171 -0.932 -0.319 255 255 255 0
-27.3415 58.2145 -37.4311 -0.437 -0.070 0.897 216 207 200 0
-27.1852 58.0558 -37.5191 -0.432 -0.116 0.895 215 206 199 0
-26.6699 58.7540 -38.0592 -0.272 -0.177 0.946 214 203 197 0
-24.7267 60.6484 -39.9451 0.179 -0.441 0.879 206 195 189 0
-28.6900 50.4394 -34.8011 0.287 -0.593 0.752 203 188 181 0
-26.6938 51.5635 -36.5703 0.287 -0.829 0.480 158 105 111 0
-28.6356 39.7757 -32.6623 -0.801 -0.519 0.299 141 49 64 0
-28.9056 37.1929 -31.9258 -0.186 -0.969 0.161 140 49 64 0
-28.7336 37.1397 -32.0476 -0.186 -0.969 0.161 144 53 69 0
-27.6864 32.2980 -31.8649 -0.787 -0.183 0.589 132 36 51 0
-27.5891 32.1133 -31.9021 -0.804 -0.247 0.542 130 33 50 0
-26.0717 32.6894 -33.1900 -0.958 -0.242 -0.153 124 30 46 0
-26.1700 32.1529 -33.0045 -0.867 -0.441 -0.231 124 29 45 0
-25.5093 31.1806 -33.3151 -0.525 -0.357 0.772 126 27 47 0
-25.3684 31.0732 -33.4018 -0.465 -0.386 0.797 127 26 45 0
-25.5113 28.7613 -32.8188 -0.418 -0.908 0.038 119 23 41 0
-24.0904 29.0987 -33.9835 -0.152 -0.861 0.486 116 22 40 0
-23.7188 29.3702 -34.3256 0.233 -0.760 0.607 118 22 41 0
-23.7747 28.6078 -34.1266 -0.222 -0.939 0.262 120 23 40 0
-23.5299 28.6702 -34.3280 -0.163 -0.888 0.431 120 23 40 0
-22.3076 29.9635 -35.5350 -0.445 0.121 0.887 116 23 38 0
-15.3348 29.4616 -40.8092 -0.970 -0.134 0.205 83 16 28 0
-15.2934 29.1958 -40.7867 -0.970 -0.134 0.205 83 16 27 0
-13.0669 27.1312 -42.0814 -0.355 -0.799 -0.485 80 35 40 0
-12.7578 27.2230 -42.3385 -0.146 -0.884 -0.444 86 41 46 0
-12.4707 27.2844 -42.5724 -0.082 -0.857 -0.508 82 37 42 0
-11.3078 28.1579 -43.6478 -0.990 -0.075 -0.120 72 27 32 0
-5.9075 34.7408 -49.1583 -0.933 -0.301 0.199 72 29 33 0
-1.7669 34.4707 -52.2958 0.179 -0.833 -0.523 137 125 122 0
-3.6844 28.6815 -49.6333 -0.073 -0.970 0.232 168 161 153 0
-3.8467 27.8802 -49.3443 -0.055 -0.759 0.648 169 165 156 0
6.8493 29.4753 -57.9182 -0.605 -0.677 0.419 187 178 171 0
-2.1374 13.9511 -47.8137 -0.860 0.075 0.505 183 175 165 0
4.0545 17.9999 -53.4163 -0.488 -0.704 -0.517 184 174 162 0
4.5126 18.1441 -53.7990 -0.736 -0.549 -0.397 184 174 164 0
14.5501 26.4555 -63.2387 0.387 -0.885 0.258 184 174 163 0
-6.8386 5.4439 -42.4487 -0.963 -0.114 -0.245 179 170 160 0
12.7066 17.1547 -59.9151 0.241 -0.905 0.351 177 164 155 0
11.6141 9.4554 -57.4981 -1.000 0.018 -0.006 168 155 144 0
13.4343 9.3362 -58.8773 -0.990 -0.073 0.124 106 98 90 0
-61.2854 66.3896 -13.1876 -0.169 -0.934 -0.315 255 255 255 0
-27.4082 58.3577 -37.7122 -0.355 -0.147 0.923 217 208 202 0
-26.6273 58.6228 -38.3706 -0.166 -0.312 0.935 214 203 200 0
-24.7679 60.8548 -40.2687 0.404 -0.352 0.844 207 196 191 0
-27.8531 51.1666 -35.8829 0.187 -0.963 0.193 200 181 175 0
-26.8939 51.3842 -36.6692 0.335 -0.850 0.408 161 109 117 0
-28.6114 40.0476 -33.0000 -0.959 -0.122 0.256 140 51 65 0
-26.5601 31.6368 -32.8480 -0.662 -0.749 -0.036 125 29 46 0
-24.4863 28.2758 -33.7566 0.098 -0.949 0.300 117 22 41 0
-24.2977 28.2508 -33.8972 0.098 -0.949 0.300 118 22 40 0
-24.0598 28.3050 -34.0922 0.056 -0.916 0.398 120 23 40 0
-23.4567 28.2819 -34.5536 -0.397 0.073 0.915 115 23 38 0
-23.0905 28.5363 -34.8892 -0.129 -0.116 0.985 113 22 36 0
-23.6305 27.3460 -34.2259 0.194 -0.400 0.896 116 24 39 0
-15.2512 27.7976 -40.7956 0.185 -0.835 -0.519 81 24 31 0
-12.6437 27.5034 -42.7502 -0.218 -0.859 -0.463 76 32 36 0
-12.2590 27.6905 -43.0862 -0.016 -0.860 -0.511 75 30 37 0
-2.4018 34.1780 -52.0450 0.174 -0.821 -0.544 129 115 114 0
1.3617 36.6282 -55.4599 0.360 -0.874 -0.327 154 145 137 0
-1.5184 14.8494 -48.7351 -0.517 -0.743 0.424 185 177 167 0
14.2823 26.3159 -63.3160 0.387 -0.885 0.258 183 173 163 0
-6.8507 5.7165 -42.7271 -0.879 -0.214 -0.427 177 167 157 0
1.8283 5.9619 -49.4858 -0.655 -0.712 0.254 173 161 152 0
11.9002 9.9549 -58.0952 -0.999 0.033 0.012 169 157 145 0
13.3821 9.5944 -59.1662 -0.990 -0.066 0.125 163 153 138 0
13.4023 9.3754 -59.1365 -0.989 -0.065 0.132 106 98 90 0
13.4099 9.1483 -59.0955 -0.988 -0.073 0.134 51 50 50 0
-61.3942 66.4604 -13.3775 -0.189 -0.928 -0.320 255 255 255 0
-40.0537 41.5706 -24.7173 -0.844 -0.209 0.494 231 226 222 0
-29.2974 56.1853 -36.0993 -0.730 0.053 0.682 222 215 207 0
-29.0508 54.6830 -35.9770 -0.643 -0.316 0.697 218 210 204 0
-26.6856 59.3254 -38.7778 -0.116 -0.329 0.937 215 205 201 0
-26.5229 59.1749 -38.8724 0.131 -0.357 0.925 214 203 201 0
-26.3147 59.1327 -39.0250 -0.055 -0.250 0.967 212 201 199 0
-25.0535 59.9519 -40.1729 0.380 -0.313 0.870 207 194 188 0
-27.9827 51.1426 -36.0658 0.254 -0.933 0.253 201 183 178 0
-27.5195 51.2189 -36.4405 0.397 -0.768 0.503 198 168 168 0
-27.3107 51.2033 -36.5990 0.363 -0.757 0.543 171 130 134 0
-27.3511 48.7237 -36.0504 -0.969 0.245 0.032 148 83 94 0
-26.6290 31.6937 -33.0569 -0.664 -0.746 -0.055 126 30 47 0
-26.4607 31.6359 -33.1752 -0.652 -0.753 -0.082 126 29 46 0
-25.2168 28.5715 -33.4995 -0.908 -0.385 0.163 117 21 41 0
-24.6411 27.1899 -33.6573 -0.347 -0.865 0.361 119 23 40 0
-24.4975 27.0943 -33.7486 -0.347 -0.865 0.361 118 24 40 0
-24.0783 27.4415 -34.1458 -0.063 -0.833 0.550 117 24 39 0
-21.7048 26.2905 -35.7444 -0.806 -0.588 0.068 106 18 33 0
-18.9625 28.4487 -38.3192 0.436 -0.790 -0.431 94 17 31 0
-15.7426 27.5797 -40.6323 0.147 -0.815 -0.560 78 21 29 0
-15.1297 28.1024 -41.2162 0.140 -0.814 -0.563 76 20 28 0
-13.3725 29.2068 -42.8079 0.203 -0.916 -0.347 70 23 31 0
-12.5324 27.7813 -43.1613 -0.048 -0.863 -0.503 74 30 36 0
-12.1615 27.9498 -43.4838 -0.045 -0.863 -0.503 72 30 36 0
-11.8354 28.0580 -43.7590 0.217 -0.887 -0.408 74 31 38 0
-11.3361 28.3871 -44.2144 0.093 -0.853 -0.513 75 32 39 0
-10.8549 28.6895 -44.6504 0.097 -0.854 -0.511 75 33 40 0
-10.2466 28.5185 -45.0859 0.078 -0.993 -0.094 73 37 43 0
-9.7739 28.8006 -45.5110 0.006 -0.999 -0.037 75 40 46 0
-5.5065 32.8456 -49.6609 -0.988 -0.118 0.100 80 56 57 0
-3.8212 33.5930 -51.1224 -0.088 -0.827 -0.556 91 73 73 0
-3.1560 33.7363 -51.6676 -0.644 -0.760 0.087 117 102 103 0
-2.9994 33.5931 -51.7591 -0.644 -0.760 0.087 132 120 119 0
-2.8392 33.4542 -51.8542 -0.311 -0.928 0.207 138 128 125 0
-0.3029 36.1598 -54.3836 0.243 -0.828 -0.505 141 132 126 0
1.0886 36.7870 -55.5924 0.377 -0.875 -0.305 151 142 133 0
1.5890 36.6898 -55.9598 0.453 -0.835 -0.312 157 148 140 0
-5.4208 8.3428 -44.6152 -0.260 -0.849 0.461 179 172 158 0
-6.8271 6.2387 -43.0868 -0.773 -0.281 -0.569 180 171 160 0
-6.6863 6.1420 -43.1757 -0.754 -0.299 -0.585 179 169 159 0
11.4761 18.6916 -59.8644 -0.473 -0.863 -0.177 183 169 160 0
13.3658 9.4116 -59.3923 -0.989 -0.065 0.132 106 99 92 0
13.3845 9.1919 -59.3609 -0.989 -0.065 0.132 50 50 50 0
-61.7278 65.7163 -13.2217 -0.303 -0.924 -0.234 255 255 255 0
-61.4967 66.6022 -13.5878 -0.168 -0.934 -0.315 255 255 255 0
-60.1473 63.4977 -13.9815 0.215 -0.844 -0.492 231 222 214 0
-26.9122 58.5482 -38.7459 -0.150 -0.363 0.919 217 205 203 0
-26.6652 58.6018 -38.9491 -0.329 -0.136 0.935 215 203 201 0
-26.3184 57.2984 -38.9437 -0.502 0.049 0.863 208 195 189 0
-28.1445 51.0448 -36.2081 0.279 -0.921 0.272 203 184 180 0
-27.9018 51.1099 -36.4103 0.309 -0.675 0.670 205 181 179 0
-27.7152 51.0458 -36.5417 0.330 -0.729 0.600 204 174 174 0
-27.5044 51.0357 -36.7033 0.363 -0.757 0.543 182 144 147 0
-28.4266 33.7019 -32.3350 -0.725 -0.161 0.670 141 39 56 0
-25.5626 31.6151 -34.1192 -0.452 -0.076 0.889 124 30 46 0
-14.5752 29.0011 -42.1003 0.362 -0.808 -0.466 75 21 29 0
-12.1656 28.0782 -43.7769 -0.027 -0.867 -0.498 73 32 40 0
-11.1628 28.4281 -44.6293 0.155 -0.941 -0.301 75 32 43 0
-10.7860 28.5951 -44.9571 0.155 -0.941 -0.301 76 35 44 0
-10.6359 28.4713 -45.0476 0.253 -0.941 -0.227 76 37 45 0
-9.9225 28.7451 -45.6592 0.167 -0.975 -0.144 76 42 49 0
-9.2685 29.2529 -46.2740 -0.016 -1.000 -0.001 77 45 50 0
-5.0233 33.9182 -50.5534 -0.728 -0.446 -0.521 80 54 55 0
-4.0292 33.8088 -51.3023 -0.162 -0.780 -0.604 88 68 68 0
-3.1276 33.9069 -52.0230 -0.663 -0.739 -0.121 130 116 116 0
-3.0370 33.6831 -52.0462 -0.628 -0.776 0.066 135 123 123 0
-2.9572 33.4471 -52.0585 -0.279 -0.932 0.232 139 129 127 0
0.1433 35.1279 -54.8202 0.489 -0.811 -0.320 157 150 143 0
-1.4617 28.7674 -52.2337 -0.606 -0.783 0.140 176 172 164 0
-1.3385 27.9799 -52.1635 -0.356 -0.519 0.777 178 174 166 0
-5.6270 8.2359 -44.6735 -0.287 -0.864 0.415 181 172 161 0
11.5903 18.8673 -60.2829 -0.382 -0.861 -0.335 181 168 159 0
11.6778 9.9236 -58.4664 -1.000 -0.013 0.022 171 157 144 0
13.3481 9.2279 -59.6168 -0.989 -0.065 0.132 50 50 51 0
13.3290 8.9826 -59.5503 -0.986 0.073 0.150 247 246 245 0
-61.8450 65.6882 -13.3827 -0.262 -0.935 -0.239 255 255 255 0
-61.6084 66.6449 -13.7704 -0.169 -0.934 -0.315 255 255 255 0
-29.4187 59.2326 -37.2471 -0.307 0.034 0.951 225 220 214 0
-29.3129 54.6390 -36.3521 -0.617 -0.299 0.728 222 210 206 0
-28.3503 50.8454 -36.2942 0.281 -0.959 -0.026 205 186 182 0
-28.3444 42.1316 -34.4448 -0.162 -0.932 -0.324 143 57 68 0
-28.1896 33.5952 -32.7491 -0.821 -0.550 -0.151 142 41 57 0
-27.1048 34.5094 -33.7879 -0.565 -0.778 0.274 133 33 50 0
-27.5354 33.3305 -33.2019 -0.849 -0.519 0.096 131 33 50 0
-27.2309 33.5246 -33.4802 -0.866 -0.495 0.075 129 32 49 0
-26.1759 31.4274 -33.8551 -0.599 -0.734 0.320 128 29 47 0
-26.5226 30.4617 -33.3798 -0.647 -0.753 -0.122 127 30 47 0
-21.3424 26.4934 -36.5673 -0.863 -0.432 -0.264 101 18 34 0
-19.9152 28.3101 -38.0646 0.388 -0.911 0.142 99 19 34 0
-12.7090 27.8187 -43.5688 0.201 -0.964 -0.176 75 32 43 0
-12.2293 28.1295 -44.0083 0.318 -0.946 -0.062 74 31 42 0
-11.8081 28.3608 -44.3853 0.554 -0.832 0.020 73 31 41 0
-11.4462 28.5127 -44.6993 0.294 -0.956 -0.022 75 32 43 0
-10.9164 28.8784 -45.1895 0.324 -0.946 -0.014 75 33 44 0
-10.6934 28.8471 -45.3564 0.214 -0.952 -0.221 75 35 45 0
-4.5295 33.6649 -51.1789 -0.066 -0.786 -0.615 86 64 65 0
-3.8582 34.1570 -51.8061 -0.144 -0.787 -0.600 92 73 73 0
-3.0082 34.1888 -52.4745 -0.609 -0.695 -0.383 132 120 120 0
-3.0551 33.7972 -52.3546 -0.731 -0.682 -0.018 137 126 125 0
-2.9529 33.5874 -52.3895 -0.198 -0.963 0.185 139 130 128 0
-0.2503 14.7453 -50.4840 0.088 -0.787 0.611 183 174 164 0
-61.7104 66.7986 -13.9849 -0.172 -0.929 -0.327 255 255 255 0
-26.6230 50.6336 -37.8847 -0.987 0.162 0.000 153 88 97 0
-29.3162 40.3196 -33.5678 -0.901 -0.009 0.433 143 58 69 0
-27.8643 42.0751 -35.0776 0.507 -0.858 -0.083 142 54 65 0
-27.9746 40.9966 -34.7598 -0.941 -0.334 0.059 142 52 64 0
-27.2116 34.5033 -33.9601 -0.527 -0.827 0.195 133 34 50 0
-27.2778 34.0025 -33.8009 -0.808 -0.576 0.121 132 33 51 0
-26.1677 31.2634 -34.0784 -0.544 -0.812 -0.211 126 29 46 0
-24.9810 26.7826 -34.0416 -0.331 -0.381 0.863 127 37 49 0
-19.8181 27.6300 -38.2513 0.612 -0.675 0.411 90 16 33 0
-18.7092 28.6154 -39.3281 0.528 -0.826 -0.199 88 15 32 0
-11.3865 28.4076 -44.9961 0.285 -0.958 -0.041 77 37 44 0
-8.6987 30.8858 -47.6254 0.300 -0.689 0.659 77 44 51 0
-8.2473 31.1332 -48.0307 0.262 -0.895 0.360 79 46 54 0
-4.6093 33.7045 -51.4212 0.025 -0.795 -0.607 93 71 73 0
-2.9634 33.7104 -52.7064 -0.317 -0.927 0.200 141 132 130 0
1.8613 36.7338 -57.1199 0.521 -0.831 -0.194 158 156 152 0
-3.1349 27.7519 -51.2926 -0.117 -0.880 0.461 174 173 167 0
11.7868 12.0426 -59.5584 0.296 -0.614 0.731 170 160 148 0
-61.8230 66.8359 -14.1665 -0.178 -0.930 -0.320 255 255 255 0
-61.1885 67.1347 -14.7275 0.101 -0.878 -0.468 227 218 213 0
-29.3948 42.1013 -34.1582 -0.998 0.053 -0.036 146 65 80 0
-28.9057 40.5614 -34.2066 -0.803 -0.596 0.003 143 57 71 0
-27.9031 40.5261 -34.9830 -0.058 -0.637 0.768 141 49 64 0
-27.6162 34.3150 -33.8600 -0.361 -0.919 -0.157 134 37 51 0
-27.4327 34.2823 -33.9964 -0.686 -0.724 -0.074 131 34 49 0
-27.3503 34.0597 -34.0126 -0.808 -0.576 0.121 130 33 49 0
-27.3798 33.2564 -33.8152 -0.875 -0.480 0.057 130 32 48 0
-27.0935 31.5833 -33.6762 -0.994 -0.111 0.005 138 44 55 0
-26.2158 31.3567 -34.3133 -0.544 -0.812 -0.211 123 29 45 0
-20.7762 26.9967 -37.6211 -0.199 -0.952 0.232 91 14 30 0
-20.6047 26.9316 -37.7411 -0.199 -0.952 0.232 92 18 33 0
-18.9004 28.4832 -39.4103 0.536 -0.820 -0.200 91 17 34 0
-11.5253 28.3627 -45.1511 0.279 -0.959 -0.043 80 40 45 0
-11.2783 28.3645 -45.3446 0.302 -0.950 -0.083 79 41 47 0
-5.6316 33.5764 -50.8905 0.025 -0.884 0.468 87 63 63 0
-2.6851 34.5200 -53.3993 -0.537 -0.829 -0.154 139 128 128 0
-0.6189 36.6826 -55.4840 0.329 -0.858 -0.395 141 132 131 0
-3.9553 29.1088 -51.2322 0.223 -0.973 0.059 167 163 159 0
-4.5019 26.3320 -50.2025 -0.127 -0.902 0.413 175 172 168 0
-1.7547 28.8012 -52.8863 -0.519 -0.849 0.100 177 174 168 0
11.1410 18.2123 -60.6731 0.520 -0.816 0.251 175 165 155 0
11.1416 11.8758 -59.2991 -0.209 -0.635 0.744 170 160 148 0
15.9480 14.6752 -63.6647 0.464 -0.853 0.239 170 158 148 0
16.3363 14.7057 -63.9749 0.404 -0.899 0.169 170 158 148 0
16.9203 14.8772 -64.4687 0.408 -0.898 0.165 170 158 148 0
12.5753 10.5198 -60.1260 -0.956 -0.099 0.277 171 157 145 0
12.6047 10.3034 -60.1020 -0.956 -0.099 0.277 171 156 145 0
-61.9269 66.9747 -14.3775 -0.202 -0.922 -0.330 255 255 255 0
-61.1551 63.9533 -14.3207 -0.263 -0.866 -0.425 231 220 215 0
-25.8073 53.9679 -39.8383 -0.928 0.240 0.285 164 112 119 0
-29.6355 41.8200 -34.1775 -0.989 -0.064 0.132 147 67 81 0
-28.9626 41.5252 -34.6403 -0.951 -0.003 0.308 142 58 73 0
-28.8356 40.9363 -34.6109 -0.116 -0.072 0.991 144 57 73 0
-28.9436 40.2867 -34.3840 -0.183 -0.560 0.808 144 56 69 0
-28.8080 40.1474 -34.4598 -0.152 -0.506 0.849 142 54 67 0
-27.9947 40.5622 -35.1881 -0.112 -0.611 0.784 142 50 67 0
-27.8539 34.4402 -33.9577 -0.965 -0.221 0.140 137 40 55 0
-27.6866 34.3773 -34.0750 -0.373 -0.915 -0.155 133 38 53 0
-27.4933 34.3629 -34.2234 -0.686 -0.724 -0.074 130 36 52 0
-27.5450 33.8880 -34.0789 -0.567 -0.811 0.144 129 36 49 0
-27.4554 33.6801 -34.1036 -0.037 -0.706 0.707 129 36 49 0
-27.4811 32.8872 -33.9098 -0.758 -0.619 0.205 131 36 50 0
-20.3007 30.5177 -39.0187 -0.976 -0.009 -0.219 104 20 33 0
-20.9782 28.1411 -37.9671 -0.853 -0.186 -0.488 99 15 31 0
-20.7479 27.1874 -37.9388 -0.176 -0.911 0.372 93 17 33 0
-20.6697 26.9823 -37.9552 -0.171 -0.957 0.233 94 20 35 0
-17.1429 30.2155 -41.4274 0.611 -0.779 -0.141 90 19 35 0
-6.7282 36.7798 -51.0276 -0.372 0.222 0.901 78 35 40 0
-6.7102 36.4520 -50.9700 -0.409 0.110 0.906 84 42 47 0
-4.9202 37.0318 -52.4999 -0.152 -0.955 0.256 80 41 47 0
-4.8735 36.7410 -52.4728 -0.152 -0.929 0.336 81 42 50 0
-4.3713 37.0352 -52.9308 0.585 -0.808 0.071 82 47 54 0
-6.1650 33.7175 -50.7984 0.089 -0.947 0.309 86 56 61 0
-5.9384 33.6670 -50.9649 0.138 -0.940 0.313 88 61 63 0
-5.6160 33.7361 -51.2328 0.022 -0.843 0.538 90 66 66 0
-4.8837 33.9785 -51.8598 0.043 -0.813 -0.580 95 73 77 0
-4.2451 34.4347 -52.4602 0.047 -0.815 -0.578 102 83 87 0
-2.7566 34.5712 -53.6567 -0.546 -0.824 -0.151 139 127 127 0
-4.3064 29.1399 -51.2526 0.267 -0.964 0.022 165 159 159 0
-4.1002 29.0654 -51.3979 0.223 -0.973 0.059 168 162 161 0
-0.9071 14.6548 -50.7446 -0.820 -0.283 0.497 183 173 164 0
11.6121 20.0294 -61.7338 0.688 -0.715 0.124 177 167 157 0
12.1144 18.8218 -61.8630 0.703 -0.671 0.235 174 165 154 0
15.2953 14.5194 -63.4138 0.446 -0.871 0.207 172 160 150 0
15.8363 14.6638 -63.8695 0.450 -0.864 0.225 172 159 150 0
16.2029 14.6787 -64.1601 0.443 -0.870 0.216 170 159 149 0
16.8208 14.8752 -64.6874 0.447 -0.868 0.217 169 159 149 0
17.3969 15.0388 -65.1748 0.464 -0.845 0.265 170 158 148 0
13.1069 8.6095 -60.4044 -0.978 0.123 0.170 254 255 255 0
-62.0351 67.0664 -14.5754 -0.148 -0.937 -0.315 255 255 255 0
-59.9124 69.8576 -16.8601 -0.162 -0.937 0.310 235 222 219 0
-33.0076 51.2759 -33.8881 -0.890 -0.191 0.414 224 221 214 0
-32.6493 51.6758 -34.2579 -0.863 -0.106 0.494 223 220 213 0
-28.4353 58.0075 -38.9682 -0.857 0.034 0.514 220 215 207 0
-28.4932 57.3231 -38.7715 -0.893 0.061 0.447 220 213 207 0
-27.1839 56.7421 -39.6716 -0.393 -0.238 0.888 210 200 196 0
-29.6940 41.9309 -34.4251 -0.988 -0.054 0.148 147 70 82 0
-29.5162 41.0130 -34.3619 -0.929 0.097 0.357 144 61 77 0
-29.1467 41.3679 -34.7306 -0.927 -0.022 0.374 144 60 76 0
-28.2655 34.6152 -33.9299 -0.947 -0.259 0.192 138 42 56 0
-27.7664 34.4224 -34.2794 -0.322 -0.923 -0.212 132 39 54 0
-27.5462 34.4585 -34.4603 -0.678 -0.729 -0.094 130 38 53 0
-27.6483 33.8874 -34.2539 -0.625 -0.774 0.107 130 36 50 0
-20.2869 27.7026 -38.6695 -0.991 -0.060 -0.119 97 21 38 0
-18.8927 28.4660 -39.9336 0.513 -0.830 -0.219 93 22 38 0
-17.9449 29.5276 -40.9129 0.623 -0.774 -0.116 93 22 38 0
-5.7296 36.1337 -51.9696 0.588 -0.806 0.070 80 40 48 0
-5.2090 36.4571 -52.4501 0.586 -0.807 0.075 82 45 52 0
-4.3976 36.7987 -53.1630 0.576 -0.755 0.315 85 52 58 0
-6.8080 33.3792 -50.5134 -0.606 -0.759 -0.239 87 55 60 0
-6.4015 33.5591 -50.8725 -0.601 -0.774 0.202 88 59 61 0
-5.8635 33.9028 -51.3712 -0.324 -0.388 0.863 89 64 65 0
-5.6302 33.8590 -51.5448 -0.369 -0.605 0.705 92 67 69 0
-4.3485 34.7869 -52.7568 -0.800 -0.600 -0.010 98 77 81 0
-2.9408 34.1481 -53.7215 -0.661 -0.747 0.080 143 134 132 0
-1.4905 35.5652 -55.1741 -0.200 -0.967 -0.158 146 138 136 0
-4.2871 28.9732 -51.5198 0.390 -0.917 -0.084 168 162 162 0
-3.8049 29.2179 -51.9527 0.390 -0.917 -0.084 169 163 163 0
-3.7725 28.9413 -51.9170 0.494 -0.611 0.619 171 165 165 0
12.9413 8.5563 -60.5402 -0.981 0.099 0.165 255 255 255 0
-62.1517 67.0638 -14.7462 -0.196 -0.919 -0.341 255 255 255 0
-28.5469 58.0439 -39.1941 -0.899 -0.068 0.434 222 214 210 0
-28.4528 56.1202 -38.8389 -0.265 -0.281 0.923 217 207 205 0
-28.9519 53.3527 -37.8283 -0.695 -0.479 0.537 214 203 201 0
-26.7864 57.4513 -40.4481 -0.537 -0.364 0.761 211 198 196 0
-28.1404 50.2406 -37.7727 0.390 -0.888 0.245 200 173 169 0
-29.3187 41.6680 -34.9317 -0.964 -0.016 0.265 146 64 78 0
-29.0293 41.8508 -35.2004 -0.994 0.073 0.082 144 62 76 0
-29.2565 40.5109 -34.7224 -0.641 -0.030 0.767 142 60 72 0
-28.3138 34.7218 -34.1728 -0.949 -0.264 0.173 140 43 57 0
-28.1178 34.3314 -34.2400 -0.967 0.081 0.241 140 44 58 0
-27.6007 34.5517 -34.6963 -0.397 -0.905 -0.152 131 37 53 0
-27.9532 33.1320 -34.1019 -0.798 -0.569 -0.199 130 36 52 0
-24.5362 31.2458 -36.3715 0.470 -0.840 -0.272 120 28 44 0
-25.0821 28.2563 -35.2745 -0.507 -0.853 0.121 122 28 44 0
-9.4710 31.7619 -48.3492 -0.543 -0.800 -0.254 81 40 48 0
-4.9680 36.9169 -53.0455 -0.489 -0.864 0.119 84 48 54 0
-4.7105 36.5461 -53.1655 0.576 -0.758 0.305 87 54 61 0
-7.7227 32.3541 -49.8581 -0.625 -0.696 -0.353 88 57 62 0
-4.6575 35.9169 -53.0668 -0.639 -0.736 -0.222 89 61 65 0
-4.8472 35.3307 -52.7866 -0.663 -0.741 -0.105 91 66 69 0
-4.5464 35.0231 -52.9548 -0.798 -0.603 -0.013 95 73 76 0
-4.4131 34.8481 -53.0207 -0.798 -0.603 -0.013 105 86 90 0
-2.6227 35.0126 -54.4672 -0.673 -0.690 -0.266 141 131 130 0
-1.7511 35.7321 -55.3141 -0.542 -0.762 -0.355 143 135 133 0
-7.1458 27.6067 -49.2528 -0.645 -0.737 0.204 158 152 152 0
-5.5765 28.2186 -50.6250 0.119 -0.923 -0.365 166 160 161 0
-3.9138 29.2167 -52.1570 0.425 -0.903 0.067 169 163 163 0
-10.6134 20.6073 -44.9603 0.316 -0.948 -0.018 174 169 167 0
-9.8876 20.8736 -45.5912 0.352 -0.935 0.043 177 172 169 0
-0.2007 15.4645 -52.0116 -0.762 -0.335 0.554 182 172 167 0
-0.0799 15.3190 -52.0743 -0.783 -0.319 0.534 182 172 167 0
0.2918 15.3996 -52.3849 -0.659 -0.368 0.656 182 171 165 0
11.3447 18.0912 -61.6889 0.727 -0.643 0.242 175 165 155 0
14.4280 14.5258 -63.3210 -0.053 -0.972 0.230 173 160 152 0
-62.2588 67.1743 -14.9501 -0.174 -0.927 -0.333 255 255 255 0
-28.7002 57.4323 -39.2415 -0.868 0.092 0.488 221 211 210 0
-28.7498 54.6485 -38.5753 -0.208 -0.475 0.855 218 204 204 0
-29.0796 53.3382 -38.0197 -0.751 -0.334 0.570 217 203 203 0
-26.8933 50.8802 -39.1916 0.749 -0.563 0.350 162 104 110 0
-26.4316 51.4175 -39.6770 0.753 -0.639 0.161 158 95 103 0
-29.2441 42.5011 -35.4486 -0.996 0.060 0.064 147 68 81 0
-29.1102 41.9135 -35.4220 -0.995 0.063 0.077 146 64 78 0
-27.7148 34.5323 -34.8605 -0.421 -0.889 -0.180 133 37 54 0
-27.1830 31.0680 -34.4998 -0.873 -0.478 0.095 125 32 48 0
-27.1436 30.7803 -34.4661 -0.908 -0.283 0.308 123 31 46 0
-26.1054 32.2745 -35.6221 -0.412 -0.906 0.095 122 30 45 0
-26.0874 31.2247 -35.3998 0.318 -0.929 0.188 121 29 43 0
-24.5043 29.7248 -36.3114 0.084 -0.903 0.420 121 27 44 0
-24.2502 29.8032 -36.5296 -0.098 -0.816 0.570 121 27 43 0
-24.1583 29.6114 -36.5589 0.205 -0.812 0.546 121 28 43 0
-20.6586 28.4278 -39.0544 -0.987 -0.084 -0.134 94 19 36 0
-13.9502 33.5882 -45.5115 0.425 -0.814 -0.396 85 22 32 0
-8.4788 32.1911 -49.5150 -0.579 -0.638 -0.508 84 51 57 0
-4.9844 35.6468 -53.0514 -0.734 -0.671 -0.108 90 62 68 0
-4.8602 35.4588 -53.1071 -0.775 -0.632 0.004 91 67 71 0
-4.3582 34.7172 -53.3363 -0.771 -0.633 -0.067 126 111 114 0
-2.4945 36.6921 -55.2521 0.033 -0.792 -0.609 131 118 120 0
-2.1976 36.0169 -55.3343 -0.420 -0.856 -0.301 139 129 128 0
-2.6825 34.7388 -54.6636 -0.194 -0.806 -0.559 145 137 136 0
-7.1815 27.6896 -49.5249 -0.793 -0.582 0.181 157 151 150 0
-9.8646 23.6001 -46.4860 -0.542 -0.376 0.752 164 158 158 0
-4.2132 28.6807 -52.0908 0.441 -0.844 0.306 171 165 165 0
-8.9076 2.8930 -42.5766 -0.789 -0.509 -0.344 178 169 159 0
8.6438 17.0103 -59.6091 0.518 -0.846 0.125 178 168 158 0
9.4449 17.4097 -60.3314 0.521 -0.845 0.123 176 166 156 0
10.1359 17.7144 -60.9454 0.513 -0.852 0.102 176 165 155 0
14.1599 14.3976 -63.3741 -0.115 -0.975 0.192 172 159 152 0
14.5164 14.4097 -63.6582 -0.051 -0.970 0.238 172 157 150 0
-62.3683 67.2586 -15.1467 -0.196 -0.919 -0.341 255 255 255 0
-28.9317 54.5065 -38.6983 -0.208 -0.475 0.855 218 205 205 0
