ply
format ascii 1.0
element vertex 823
property float x
property float y
property float z
property float nx
property float ny
property float nz
property uchar diffuse_red
property uchar diffuse_green
property uchar diffuse_blue
property uchar class
end_header
-11.7352 7.8281 -35.4434 0.464 -0.622 0.630 191 181 169 0
-7.2217 10.7445 -39.2818 -0.080 -0.925 0.371 189 179 167 0
14.2093 23.4898 -57.3631 -0.538 -0.507 0.673 179 170 157 0
14.5170 23.4563 -57.5943 -0.214 -0.722 0.658 180 173 157 0
14.7517 23.3659 -57.7621 -0.192 -0.697 0.691 180 173 158 0
-0.1911 5.0289 -43.9137 -0.068 -0.704 0.707 178 164 151 0
9.1395 9.9913 -51.7088 -0.832 -0.531 0.159 176 162 151 0
9.1913 9.8018 -51.7236 -0.810 -0.560 0.174 174 160 151 0
11.6826 10.3024 -53.6967 -0.677 -0.736 0.009 172 155 145 0
11.8868 10.2079 -53.8406 -0.778 -0.628 0.013 172 155 147 0
11.5086 8.6268 -53.3434 -0.617 -0.602 0.507 168 152 140 0
11.6685 8.5063 -53.4500 -0.547 -0.615 0.568 166 150 135 0
-54.2017 87.7948 -13.7317 -0.573 -0.809 -0.131 135 135 136 0
-26.8703 58.5805 -30.8143 -0.308 -0.474 0.825 224 220 210 0
-26.5331 58.8310 -31.1064 -0.277 -0.531 0.801 223 219 209 0
-26.4462 58.5480 -31.1354 -0.282 -0.494 0.822 224 217 209 0
-24.4665 54.9004 -32.1686 0.236 -0.700 0.674 150 102 106 0
-28.4719 41.2170 -27.2714 -0.365 -0.429 0.826 134 45 60 0
-27.2285 40.1624 -28.0850 -0.921 -0.248 0.300 138 37 52 0
-27.1342 38.1842 -27.8938 -0.612 -0.399 0.683 147 39 57 0
-27.0630 35.2103 -27.5522 -0.680 -0.733 0.036 139 37 54 0
-26.9350 35.0876 -27.6341 -0.680 -0.733 0.036 139 37 53 0
-26.6263 34.9289 -27.8498 -0.484 -0.831 -0.276 140 38 55 0
-26.9220 34.1111 -27.5139 -0.196 -0.524 0.829 141 38 53 0
-26.8102 33.9644 -27.5802 -0.196 -0.524 0.829 140 36 51 0
-26.1889 33.6592 -28.0164 -0.124 -0.944 0.305 142 36 52 0
-25.5918 30.4594 -28.0482 -0.058 -0.996 0.062 132 30 47 0
-24.8632 31.2562 -28.7135 -0.316 -0.584 0.748 133 32 48 0
-24.7523 31.1120 -28.7794 -0.316 -0.584 0.748 133 34 50 0
-24.5307 30.8238 -28.9111 -0.316 -0.584 0.748 128 29 44 0
-24.1329 30.4898 -29.1719 -0.914 -0.361 0.186 128 31 45 0
-24.1179 30.2047 -29.1454 -0.910 -0.394 0.131 127 31 45 0
-23.8116 29.4350 -29.2779 -0.215 -0.876 0.432 129 34 52 0
-22.4850 28.6287 -30.1885 -0.755 -0.600 0.263 120 31 50 0
-22.4248 28.4162 -30.2065 -0.756 -0.598 0.264 119 30 49 0
-22.3621 28.2078 -30.2268 -0.791 -0.486 0.370 121 30 50 0
-22.0355 26.9047 -30.3038 -0.668 -0.384 0.637 122 33 51 0
-21.7690 26.9768 -30.5179 -0.684 -0.697 -0.214 118 29 47 0
-21.2866 27.3382 -30.9363 0.170 -0.958 0.231 115 25 43 0
-17.1443 24.9792 -33.8010 -0.949 -0.173 0.265 86 15 26 0
-17.3702 24.1563 -33.5180 -0.962 0.072 0.263 82 14 25 0
-17.3919 23.8573 -33.4614 -0.962 0.067 0.264 81 13 25 0
-15.3454 24.0929 -35.0635 -0.270 -0.070 0.960 69 12 21 0
-15.2765 23.9009 -35.0907 -0.165 -0.142 0.976 67 12 21 0
-15.0758 23.8613 -35.2395 -0.282 -0.212 0.936 67 13 23 0
-12.4353 24.1321 -37.3021 0.407 -0.463 0.787 65 24 29 0
-11.2651 25.1534 -38.3362 -0.587 -0.196 0.785 67 26 30 0
-6.6056 27.6904 -42.2502 0.234 -0.925 -0.299 73 40 42 0
-2.4217 30.0705 -45.7783 -0.228 -0.371 0.900 96 77 70 0
2.4678 33.5982 -50.0008 0.321 -0.891 -0.321 167 153 134 0
13.9726 23.3946 -57.4705 -0.589 -0.641 0.493 181 172 160 0
14.3185 23.3910 -57.7355 -0.635 -0.620 0.462 181 172 160 0
14.6773 23.3963 -58.0116 -0.525 -0.846 -0.090 180 171 159 0
9.1287 9.8239 -51.9447 -0.810 -0.560 0.174 174 161 149 0
10.6285 10.1334 -53.1370 -0.586 -0.796 0.155 173 160 148 0
11.0011 10.1502 -53.4252 -0.847 -0.508 0.157 172 158 146 0
11.5556 10.2833 -53.8685 -0.816 -0.565 0.122 172 157 146 0
10.5968 8.5530 -52.9021 -0.313 -0.890 -0.331 170 154 144 0
11.4347 8.6403 -53.5567 -0.848 -0.429 -0.311 168 152 140 0
-27.7275 57.9484 -30.3623 0.044 -0.744 0.667 223 222 213 0
-27.2741 58.4577 -30.7800 0.038 -0.634 0.773 223 220 212 0
-27.0698 58.4275 -30.9331 0.039 -0.717 0.696 223 220 211 0
-26.7231 58.2327 -31.1735 -0.168 -0.736 0.656 222 217 208 0
-28.3772 41.9712 -27.7028 -0.892 -0.091 0.443 135 49 64 0
-28.6345 40.7508 -27.3399 -0.854 -0.221 0.472 134 46 60 0
-28.2609 40.3299 -27.5705 -0.559 -0.632 0.537 136 42 57 0
-27.5150 41.3135 -28.2772 -0.909 -0.416 0.041 132 40 55 0
-27.3588 40.1273 -28.2370 -0.945 -0.322 0.052 137 37 51 0
-27.0663 38.1376 -28.1931 -0.846 -0.408 0.344 144 36 52 0
-27.1737 35.2023 -27.7137 -0.737 -0.540 0.407 140 37 54 0
-27.0492 35.0737 -27.7921 -0.704 -0.643 0.301 139 36 53 0
-26.9697 34.8708 -27.8259 -0.634 -0.679 0.370 140 37 54 0
-26.7688 34.8685 -27.9801 -0.489 -0.870 0.066 140 37 54 0
-26.9766 33.8638 -27.6844 -0.211 -0.549 0.809 141 36 51 0
-26.7003 33.6571 -27.8691 -0.152 -0.739 0.656 141 36 51 0
-26.5373 33.5936 -27.9859 -0.125 -0.935 0.332 146 41 56 0
-26.3315 33.5986 -28.1449 -0.082 -0.935 0.346 142 37 52 0
-24.7102 35.2037 -29.6091 -0.049 0.258 0.965 139 34 50 0
-24.7006 30.7236 -29.0109 -0.256 -0.574 0.778 129 31 46 0
-24.1676 28.1679 -29.0755 -0.798 -0.601 0.049 127 33 52 0
-22.5900 28.6247 -30.3509 -0.756 -0.592 0.280 118 29 49 0
-22.5711 28.3543 -30.3289 -0.373 -0.917 0.142 115 26 46 0
-22.3452 28.0777 -30.4653 -0.798 -0.474 0.372 114 25 45 0
-17.0951 25.1620 -34.1102 -0.663 -0.204 0.721 82 12 22 0
-17.0275 24.9664 -34.1357 -0.670 -0.195 0.717 83 14 24 0
-16.9668 24.7630 -34.1549 -0.675 -0.187 0.714 81 14 25 0
-15.6213 23.8899 -35.0720 -0.142 -0.121 0.982 68 13 19 0
-15.2703 23.7537 -35.3237 -0.430 -0.266 0.862 67 14 22 0
-12.4716 25.5804 -37.7237 0.393 -0.901 -0.185 68 22 30 0
-11.7456 25.8428 -38.3177 0.188 -0.907 0.376 66 24 28 0
-11.5186 25.8188 -38.4891 0.188 -0.907 0.376 65 23 27 0
-11.4816 25.3053 -38.4482 -0.561 -0.227 0.796 67 26 30 0
-11.4208 25.0968 -38.4667 -0.587 -0.196 0.785 67 26 30 0
-6.6901 27.7170 -42.4604 0.283 -0.930 -0.236 73 42 43 0
-6.1997 27.9545 -42.8697 0.403 -0.912 -0.075 75 46 44 0
-4.6653 29.0055 -44.1922 -0.222 -0.825 -0.520 78 51 48 0
-3.1183 30.0495 -45.5234 0.414 -0.909 -0.043 85 61 56 0
-0.6235 31.4584 -47.6332 -0.227 -0.889 0.399 141 128 115 0
2.6018 32.6341 -50.2734 -0.250 -0.967 -0.059 182 172 156 0
9.9119 28.5362 -55.3433 -0.004 -0.614 0.789 191 183 170 0
13.7018 23.2727 -57.5474 -0.432 -0.732 0.527 182 172 160 0
14.1221 23.3272 -57.8782 -0.506 -0.682 0.528 182 172 160 0
10.6637 17.5901 -54.4421 0.297 -0.953 -0.063 183 171 157 0
9.0419 10.0541 -52.1757 -0.835 -0.524 0.168 173 160 148 0
9.1587 9.9071 -52.2457 -0.788 -0.603 0.127 173 161 147 0
9.4729 9.8899 -52.4851 -0.852 -0.495 0.171 173 161 147 0
10.6747 8.6626 -53.2438 -0.316 -0.890 -0.330 169 155 144 0
-28.0392 57.5486 -30.3579 0.090 -0.790 0.607 222 221 212 0
-27.0442 58.2880 -31.2266 -0.057 -0.623 0.780 223 219 210 0
-26.9502 56.6367 -31.0727 -0.577 -0.206 0.790 220 213 206 0
-27.7607 54.4859 -30.1528 -0.528 -0.546 0.650 218 211 204 0
-23.0357 61.9471 -34.8196 -0.926 -0.208 0.316 211 204 194 0
-22.2704 62.5515 -35.4927 -0.924 0.348 0.160 205 197 187 0
-28.4494 42.0448 -27.9161 -0.891 -0.092 0.444 136 50 66 0
-28.2686 40.8852 -27.8965 -0.226 -0.240 0.944 137 45 58 0
-28.3845 40.3056 -27.7277 -0.559 -0.632 0.537 136 43 57 0
-28.4519 39.8176 -27.6088 -0.896 -0.439 0.059 135 43 57 0
-27.4059 41.3421 -28.6244 -0.786 -0.612 -0.083 134 41 54 0
-27.6376 40.5564 -28.3380 -0.872 -0.490 -0.008 135 40 54 0
-27.4920 40.4515 -28.4359 -0.942 -0.225 0.248 135 39 53 0
-27.1575 38.1682 -28.3809 -0.846 -0.408 0.344 149 38 56 0
-27.1848 35.0244 -27.9289 -0.283 -0.507 0.814 138 35 52 0
-27.0941 34.8398 -27.9735 -0.286 -0.595 0.751 138 35 52 0
-26.7354 35.0989 -28.2856 -0.506 -0.859 0.080 138 35 52 0
-27.2217 33.9634 -27.7549 -0.199 -0.845 0.496 140 35 50 0
-27.0764 33.8721 -27.8545 -0.475 -0.813 0.338 140 35 50 0
-26.8997 33.8316 -27.9851 -0.341 -0.922 -0.186 140 35 50 0
-26.8633 33.5623 -27.9763 -0.189 -0.817 0.545 141 36 51 0
-26.7205 33.4667 -28.0734 -0.081 -0.869 0.488 144 39 54 0
-26.5159 33.4704 -28.2316 -0.158 -0.844 0.513 141 36 51 0
-26.4227 33.2942 -28.2794 -0.273 -0.856 0.439 136 31 46 0
-24.3200 29.2943 -29.3526 -0.306 -0.309 0.901 130 36 54 0
-24.0739 29.3507 -29.5501 -0.056 -0.933 0.356 128 34 52 0
-23.6869 29.6104 -29.8841 -0.535 -0.841 -0.083 125 31 49 0
-23.5514 29.5033 -29.9740 -0.526 -0.846 -0.086 128 34 52 0
-23.9270 28.6599 -29.5687 -0.243 -0.963 0.116 127 33 52 0
-23.4729 29.0126 -29.9672 -0.239 -0.888 0.393 127 32 52 0
-22.7683 28.5178 -30.4428 -0.401 -0.794 0.458 120 31 51 0
-22.6648 28.3657 -30.5017 -0.373 -0.917 0.142 116 27 47 0
-22.5198 28.2720 -30.6007 -0.402 -0.908 0.119 116 27 47 0
-22.3512 28.2108 -30.7223 -0.376 -0.916 0.137 115 26 46 0
-22.1701 28.1664 -30.8559 -0.910 -0.316 0.269 115 26 46 0
-22.2108 27.5224 -30.7362 -0.901 -0.391 0.187 119 30 50 0
-20.0099 27.5700 -32.4401 -0.509 0.259 0.821 108 18 36 0
-18.4179 27.6111 -33.6735 -0.156 -0.538 0.828 102 20 34 0
-17.2134 25.1418 -34.2638 -0.674 -0.180 0.716 84 14 24 0
-17.1056 24.9948 -34.3267 -0.705 -0.156 0.692 81 14 23 0
-16.8330 25.0468 -34.5441 -0.971 -0.069 0.230 77 13 23 0
-15.5663 23.5285 -35.3128 -0.102 -0.817 0.568 68 15 23 0
-12.1342 25.8020 -38.2714 0.147 -0.877 0.457 66 23 30 0
-11.9307 25.7527 -38.4215 0.219 -0.861 0.459 66 24 28 0
-11.7113 25.7206 -38.5863 0.219 -0.861 0.459 67 25 29 0
-7.1605 29.9325 -42.6733 -0.008 -0.974 -0.227 68 27 31 0
-7.0765 29.7313 -42.7105 0.045 -0.960 -0.276 70 29 33 0
-2.9316 30.6606 -46.0344 -0.867 -0.370 0.333 81 56 53 0
-2.9889 30.3046 -45.9414 0.333 -0.940 0.068 84 61 57 0
-1.2131 31.8669 -47.5251 -0.275 -0.950 0.147 86 66 61 0
-1.0047 31.7835 -47.6743 -0.275 -0.950 0.147 102 86 78 0
-0.9994 31.4890 -47.6381 -0.210 -0.890 0.405 138 126 115 0
-0.8109 31.3849 -47.7692 -0.210 -0.890 0.405 152 141 129 0
-0.4062 31.5032 -48.0975 -0.056 -0.886 0.461 157 147 134 0
1.8547 32.6070 -49.9924 -0.485 -0.851 -0.200 178 167 150 0
9.6713 28.4291 -55.4477 -0.907 -0.338 0.252 191 183 169 0
-11.7774 8.8563 -36.2233 -0.410 -0.865 -0.290 191 181 169 0
11.7429 24.2655 -56.4745 -0.833 -0.376 0.407 186 176 165 0
11.8447 24.0738 -56.5267 -0.910 -0.269 0.315 185 175 165 0
13.6734 23.3388 -57.8362 -0.635 -0.721 0.278 182 172 160 0
14.0188 23.3354 -58.1021 -0.479 -0.870 -0.114 182 172 160 0
14.5373 23.4641 -58.5197 -0.348 -0.849 -0.397 181 171 159 0
10.5710 17.5998 -54.6569 0.317 -0.948 -0.008 181 170 155 0
-38.9109 37.9457 -19.5181 0.094 -0.335 0.937 229 225 217 0
-27.9862 57.9390 -30.7432 -0.057 -0.745 0.664 222 221 212 0
-27.6133 58.2773 -31.0785 -0.107 -0.585 0.804 225 221 212 0
-27.3003 58.0134 -31.2838 -0.147 -0.559 0.816 222 219 210 0
-27.8971 54.4600 -30.3284 -0.610 -0.468 0.640 217 211 205 0
-28.8920 41.0546 -27.6956 -0.503 -0.257 0.825 135 47 63 0
-27.7121 40.9904 -28.5988 -0.862 -0.503 0.060 134 41 54 0
-27.6092 40.8076 -28.6530 -0.862 -0.503 0.060 133 40 53 0
-27.5601 40.5283 -28.6521 -0.941 -0.188 0.280 133 38 52 0
-28.3331 38.4242 -27.7620 -0.954 -0.205 0.218 140 39 55 0
-28.3281 38.0773 -27.7176 -0.359 -0.063 0.931 143 42 58 0
-27.3507 38.0221 -28.4655 -0.843 -0.421 0.335 147 36 55 0
-27.2888 37.4272 -28.4307 -0.778 -0.538 0.324 140 33 51 0
-27.5826 35.5481 -27.9423 -0.409 -0.532 0.741 135 36 52 0
-26.9408 34.9346 -28.3532 0.065 -0.653 0.755 138 35 52 0
-27.3012 34.0053 -27.9454 -0.180 -0.975 -0.129 139 34 49 0
-27.2300 33.7919 -27.9707 -0.348 -0.866 0.358 139 34 49 0
-26.9583 33.9074 -28.1968 -0.326 -0.928 -0.182 139 34 49 0
-27.0020 33.5069 -28.1074 -0.189 -0.817 0.545 139 34 49 0
-26.8162 33.4811 -28.2474 -0.196 -0.812 0.549 140 35 50 0
-26.6543 33.4161 -28.3635 -0.158 -0.844 0.513 141 36 51 0
-26.5410 33.2722 -28.4312 -0.158 -0.846 0.509 138 33 48 0
-26.4092 33.1582 -28.5172 -0.235 -0.698 0.677 136 33 48 0
-25.8466 30.5392 -28.5880 -0.271 -0.804 0.530 135 35 50 0
-24.5782 29.6732 -29.4482 -0.272 -0.684 0.677 127 28 46 0
-23.8236 29.8657 -30.0583 0.243 -0.957 -0.159 128 34 52 0
-23.6758 29.7760 -30.1601 -0.489 -0.869 -0.076 130 36 54 0
-22.8053 28.3118 -30.6295 -0.405 -0.912 -0.069 117 28 48 0
-22.6396 28.2471 -30.7486 -0.405 -0.912 -0.069 117 28 48 0
-22.4641 28.1957 -30.8771 -0.415 -0.907 -0.070 118 29 49 0
-16.7507 24.9912 -34.8484 -0.614 0.082 0.785 79 16 25 0
-16.4328 24.8182 -35.0702 -0.704 -0.486 0.518 77 15 26 0
-15.9419 23.7521 -35.3014 -0.098 -0.490 0.866 70 15 21 0
-15.6349 23.8376 -35.5507 -0.145 -0.744 0.652 69 16 22 0
-7.2037 30.0084 -42.9264 -0.026 -0.973 -0.231 68 27 31 0
-6.9310 30.0154 -43.1382 0.117 -0.955 -0.272 69 28 33 0
-6.5991 30.0864 -43.4046 0.180 -0.948 -0.264 71 31 36 0
-5.7976 30.6710 -44.1055 0.590 -0.703 0.397 70 32 36 0
-5.2256 30.9992 -44.5933 0.584 -0.731 0.354 68 32 36 0
-7.0623 28.4130 -42.8139 -0.011 -0.995 -0.095 72 39 40 0
-6.5480 28.6806 -43.2487 -0.008 -0.936 -0.353 73 41 42 0
-6.0350 28.6539 -43.6416 0.075 -0.930 -0.360 73 43 43 0
-2.9712 30.7395 -46.3001 -0.830 -0.528 0.179 82 58 56 0
-1.4783 32.0125 -47.6311 -0.242 -0.957 0.158 83 61 58 0
-1.2889 31.9095 -47.7632 -0.256 -0.952 0.169 86 66 61 0
-1.3065 31.5903 -47.7053 -0.235 -0.845 0.481 120 104 97 0
-1.1308 31.4732 -47.8248 -0.235 -0.845 0.481 153 142 132 0
-0.7970 31.5197 -48.0893 -0.062 -0.885 0.461 154 146 133 0
-0.5937 31.4300 -48.2341 -0.062 -0.885 0.461 158 151 138 0
1.8360 32.7086 -50.2901 -0.495 -0.847 -0.197 174 165 148 0
2.9911 33.2663 -51.2606 -0.308 -0.908 -0.283 180 171 156 0
9.5054 28.0993 -55.5783 -0.877 -0.367 0.310 191 184 168 0
-11.9212 8.8077 -36.3320 -0.375 -0.851 -0.367 188 181 167 0
-3.7874 12.0740 -43.0741 -0.749 -0.128 0.650 188 176 164 0
11.6337 23.9959 -56.6531 -0.481 -0.212 0.851 185 175 165 0
11.6063 23.7013 -56.5909 -0.460 -0.212 0.862 184 174 164 0
15.3993 25.0473 -59.7104 0.531 -0.687 0.495 183 173 161 0
13.2833 23.1240 -57.8071 -0.406 -0.848 -0.341 182 172 161 0
13.8346 23.2809 -58.2551 -0.351 -0.920 -0.173 182 172 161 0
9.3968 10.4181 -53.0362 -0.852 -0.512 0.106 174 161 150 0
10.1878 8.6951 -53.4081 -0.136 -0.939 -0.315 169 157 143 0
10.6567 8.7723 -53.7813 -0.142 -0.938 -0.317 169 157 143 0
-54.2693 63.4235 -11.4398 0.447 -0.664 0.599 234 226 215 0
-28.9488 56.5829 -30.0976 -0.852 -0.287 0.439 223 222 212 0
-27.7652 58.2250 -31.2462 -0.156 -0.551 0.820 223 221 212 0
-27.4844 57.8922 -31.4169 -0.110 -0.573 0.812 220 218 209 0
-28.1271 54.6864 -30.4670 -0.516 -0.550 0.657 217 212 206 0
-27.9632 54.5818 -30.5793 -0.420 -0.498 0.758 216 211 205 0
-23.4966 61.5504 -35.0230 -0.971 -0.218 0.093 208 201 193 0
-28.3325 42.6811 -28.6156 -0.550 -0.825 0.129 137 52 68 0
-28.3231 42.3189 -28.5718 -0.583 -0.777 0.238 138 50 66 0
-28.3544 40.3948 -28.2764 -0.743 -0.067 0.666 136 44 57 0
-27.7030 40.8390 -28.8438 -0.878 -0.474 -0.071 131 39 52 0
-27.6044 40.6483 -28.8933 -0.966 -0.138 0.220 135 40 54 0
-27.6288 38.0805 -28.5124 -0.808 -0.452 0.377 145 39 56 0
-27.5388 37.8843 -28.5546 -0.808 -0.452 0.377 144 35 54 0
-27.4791 37.6359 -28.5658 -0.766 -0.494 0.412 141 34 52 0
-27.7951 35.7086 -28.0493 -0.481 -0.481 0.733 137 37 53 0
-27.6976 35.5334 -28.1001 -0.481 -0.481 0.733 136 36 52 0
-27.0247 33.9709 -28.4013 -0.326 -0.928 -0.182 138 33 48 0
-27.0697 33.5672 -28.3095 -0.356 -0.491 0.795 138 33 48 0
-26.9548 33.4262 -28.3787 -0.178 -0.630 0.756 139 34 49 0
-26.7926 33.3618 -28.4953 -0.158 -0.844 0.513 140 35 50 0
-26.6790 33.2186 -28.5632 -0.158 -0.846 0.509 137 32 47 0
-26.5575 33.0881 -28.6389 -0.285 -0.841 0.460 135 33 47 0
-26.1830 33.0370 -28.9219 -0.471 -0.842 0.265 136 33 50 0
-25.9888 30.4781 -28.7118 -0.375 -0.743 0.554 128 30 45 0
-24.7408 29.8902 -29.5960 -0.481 -0.690 0.541 127 26 44 0
-23.7414 29.8304 -30.3621 -0.496 -0.865 -0.074 126 31 49 0
-23.4243 27.2909 -30.2499 -0.615 -0.523 0.590 118 29 49 0
-19.9943 25.8461 -32.7042 -0.876 -0.412 -0.253 100 16 31 0
-17.0258 25.0600 -34.8938 -0.967 0.149 0.204 78 15 24 0
-8.0881 29.7362 -42.4793 0.148 -0.978 -0.147 67 25 29 0
-7.6356 29.9472 -42.8597 -0.014 -0.968 -0.252 66 25 29 0
-7.0698 29.9856 -43.3035 -0.030 -0.963 -0.269 70 29 34 0
-3.9637 33.1168 -46.1520 -0.321 -0.337 0.885 71 30 36 0
-4.8073 29.2109 -44.9476 0.154 -0.949 -0.275 79 53 52 0
-1.4200 31.8944 -47.9509 -0.244 -0.953 0.180 88 69 63 0
-1.2256 31.7963 -48.0877 -0.200 -0.955 0.218 127 112 103 0
-1.0395 31.6893 -48.2169 -0.196 -0.955 0.222 156 145 134 0
-0.8265 31.6098 -48.3707 -0.196 -0.955 0.222 157 149 135 0
-0.7713 31.3668 -48.3792 -0.062 -0.885 0.461 159 152 138 0
4.0733 35.1049 -52.6605 0.221 -0.917 0.332 174 165 150 0
2.9393 33.3352 -51.5322 -0.369 -0.881 -0.297 178 169 156 0
-11.5729 9.1831 -36.8816 -0.464 -0.817 -0.343 189 182 169 0
10.7265 23.6298 -56.1988 -0.521 0.093 0.849 184 174 163 0
10.7576 23.3834 -56.1882 -0.517 0.091 0.851 184 174 164 0
12.8931 15.6978 -56.7598 0.201 -0.980 -0.008 178 166 155 0
13.1365 15.6217 -56.9377 0.237 -0.941 -0.243 178 166 154 0
5.4333 9.1573 -50.0569 -0.968 -0.219 -0.125 177 163 152 0
9.5110 10.5587 -53.4144 -0.254 -0.005 0.967 174 161 152 0
10.7559 8.8962 -54.1448 -0.137 -0.937 -0.321 169 157 143 0
12.5556 9.5888 -55.6371 -0.871 -0.489 0.056 168 155 143 0
-57.9810 55.1304 -7.6246 0.386 -0.886 0.258 234 223 219 0
-42.4566 67.7288 -21.4846 -0.309 -0.550 0.776 230 225 219 0
-42.3237 67.5455 -21.5617 -0.309 -0.550 0.776 231 226 220 0
-28.8347 57.5788 -30.6162 -0.255 -0.966 -0.044 225 222 213 0
-28.2087 58.0088 -31.1638 0.063 -0.818 0.572 221 221 211 0
-27.9209 58.1643 -31.4096 -0.339 -0.501 0.796 220 221 211 0
-27.7791 58.0009 -31.4964 -0.329 -0.499 0.802 220 220 210 0
-27.5551 57.5469 -31.6056 -0.207 -0.569 0.796 219 217 209 0
-27.4161 57.3787 -31.6896 -0.207 -0.569 0.796 219 214 208 0
-26.7292 58.3754 -32.3656 0.331 -0.856 0.398 217 212 206 0
-23.6062 58.3246 -34.7843 -0.902 0.406 0.146 188 155 156 0
-28.2628 43.0227 -28.9804 -0.585 -0.745 0.319 137 52 69 0
-27.8694 40.7394 -28.9598 -0.806 -0.429 0.408 134 42 55 0
-28.5031 38.1513 -28.0977 -0.725 -0.535 0.435 140 42 57 0
-28.3730 38.0265 -28.1810 -0.771 -0.478 0.421 141 41 57 0
-27.8086 35.5253 -28.2619 -0.511 -0.537 0.671 139 37 54 0
-27.2138 33.5030 -28.4351 -0.196 -0.451 0.871 137 32 47 0
-27.0795 33.3936 -28.5237 -0.132 -0.589 0.798 137 32 47 0
-26.8639 33.4161 -28.6945 -0.206 -0.891 0.404 138 32 47 0
-26.6168 33.4884 -28.8968 -0.413 -0.908 0.077 136 31 46 0
-26.5090 33.3346 -28.9585 -0.539 -0.811 0.228 134 32 46 0
-25.7440 30.3873 -29.1316 -0.014 -0.816 0.579 129 28 44 0
-24.8870 29.8251 -29.7170 -0.469 -0.679 0.565 128 27 45 0
-24.7055 29.7882 -29.8528 -0.848 -0.335 0.411 126 26 44 0
-23.6221 27.1547 -30.3181 -0.321 -0.707 0.631 117 28 48 0
-21.0249 26.3441 -32.2198 -0.103 -0.505 0.857 108 17 35 0
-20.0829 26.1471 -32.9235 -0.873 -0.417 -0.254 99 12 29 0
-19.9522 26.0312 -33.0084 -0.873 -0.420 -0.247 100 15 30 0
-19.7490 26.0085 -33.1630 -0.867 -0.421 -0.266 98 14 29 0
-9.1313 38.9917 -43.2663 -0.106 -0.744 0.659 97 16 30 0
-17.0598 24.8640 -35.0885 -0.990 -0.139 0.035 77 16 25 0
-4.4320 33.3431 -46.1098 -0.301 -0.946 -0.124 70 29 33 0
-4.3274 33.1511 -46.1636 -0.772 -0.193 0.605 71 30 34 0
-3.1910 30.7496 -46.7032 -0.804 -0.530 0.269 82 59 57 0
-3.0670 30.5832 -46.7758 -0.759 -0.529 0.381 87 66 61 0
-1.5455 31.8851 -48.1438 -0.279 -0.947 0.161 98 79 72 0
-1.3552 31.7828 -48.2770 -0.291 -0.944 0.156 144 129 118 0
-1.1608 31.6844 -48.4139 -0.291 -0.943 0.163 159 147 134 0
1.9929 33.4179 -51.1115 0.228 -0.953 0.199 171 161 149 0
4.0031 35.1583 -52.9218 0.198 -0.887 0.418 173 163 151 0
1.9504 32.7617 -50.9847 0.185 -0.981 -0.054 176 165 154 0
2.5641 33.0775 -51.5066 -0.079 -0.985 -0.155 178 169 157 0
2.9009 33.1109 -51.7731 0.135 -0.982 -0.132 178 171 159 0
3.3051 33.2104 -52.1012 0.135 -0.982 -0.132 178 174 161 0
-4.6411 17.4190 -43.6719 -0.753 -0.159 0.638 192 181 175 0
10.3942 23.4529 -56.2140 -0.534 0.195 0.822 186 176 165 0
6.8541 20.0751 -52.9813 -0.895 -0.427 0.130 185 175 165 0
-5.6224 6.4535 -41.3427 0.235 -0.440 0.867 180 171 157 0
-5.1824 6.1619 -41.6429 0.237 -0.448 0.862 180 168 154 0
11.6791 15.4102 -56.0629 0.441 -0.881 0.169 179 166 158 0
12.3555 15.6405 -56.6213 0.443 -0.879 0.179 179 166 157 0
12.9353 15.8005 -57.0945 0.426 -0.886 0.180 178 166 156 0
9.6123 10.6910 -53.7830 -0.317 0.053 0.947 174 161 151 0
10.6463 10.6911 -54.5863 -0.436 -0.800 -0.413 173 160 151 0
11.6557 9.3057 -55.1724 -0.892 -0.442 -0.099 169 157 143 0
12.5524 9.6482 -55.9180 -0.904 -0.375 0.207 168 154 142 0
12.4264 8.8947 -55.7124 -0.948 -0.182 0.262 167 150 140 0
-49.7888 64.4751 -15.5880 -0.885 -0.311 0.347 229 222 217 0
-42.8986 67.2886 -21.3610 -0.825 -0.421 0.378 230 226 222 0
-42.7342 67.2153 -21.4784 -0.785 -0.327 0.526 230 227 222 0
-42.5284 67.2822 -21.6484 0.129 -0.602 0.788 231 228 222 0
-28.9537 57.5956 -30.8163 -0.203 -0.977 -0.061 226 222 214 0
-28.8882 57.2685 -30.8199 -0.910 -0.237 0.341 225 221 212 0
-28.6184 57.3907 -31.0477 -0.315 -0.947 -0.067 224 221 211 0
-28.0323 58.1999 -31.6213 -0.347 -0.492 0.798 223 220 211 0
-28.0030 57.7920 -31.5850 -0.089 -0.602 0.793 223 220 210 0
-27.7724 57.3534 -31.7011 -0.270 -0.429 0.862 219 215 207 0
-27.6513 57.1475 -31.7656 -0.270 -0.429 0.862 219 214 206 0
-27.7203 41.2118 -29.4038 -0.827 -0.301 0.476 138 42 58 0
-27.5140 41.2137 -29.5648 -0.847 0.209 0.490 138 42 58 0
-27.5395 40.7976 -29.4847 -0.855 0.219 0.470 138 42 58 0
-28.7143 37.9681 -28.1600 -0.771 -0.441 0.459 139 42 59 0
-27.6083 37.0866 -28.8936 -0.856 -0.440 0.270 137 36 52 0
-27.6577 35.9635 -28.6925 -0.533 -0.579 0.617 138 36 52 0
-27.6510 35.6326 -28.6498 -0.472 -0.528 0.706 138 36 53 0
-25.0435 29.7447 -29.8275 -0.393 -0.716 0.577 127 27 45 0
-24.7333 29.8994 -30.0915 0.200 -0.946 0.257 126 27 45 0
-21.1397 26.3262 -32.3724 -0.169 -0.559 0.812 106 16 34 0
-20.4120 26.4231 -32.9531 -0.667 -0.182 0.723 106 17 37 0
-20.1787 26.1545 -33.0959 -0.830 -0.509 0.230 100 11 31 0
-19.9312 26.1897 -33.2937 -0.869 -0.495 -0.016 98 11 28 0
-4.4939 33.4043 -46.3598 -0.296 -0.948 -0.121 70 29 33 0
-5.3836 31.2007 -45.3479 -0.626 -0.771 -0.115 70 34 38 0
-4.3125 30.2725 -46.0476 0.202 -0.979 -0.038 79 55 55 0
-3.7753 30.5485 -46.5058 0.277 -0.950 0.144 81 57 57 0
-3.3101 30.7450 -46.8965 -0.765 -0.559 0.319 83 62 60 0
-3.2432 30.5182 -46.9158 -0.772 -0.548 0.321 92 72 67 0
-3.2228 30.2431 -46.8919 -0.785 -0.538 0.308 112 95 86 0
-1.2804 31.6813 -48.6127 -0.288 -0.946 0.152 160 149 135 0
-1.1272 31.5398 -48.7116 -0.250 -0.963 0.098 160 152 136 0
-0.9429 31.4304 -48.8392 -0.250 -0.964 0.090 163 155 139 0
3.3003 34.5666 -52.5976 0.270 -0.445 0.854 172 162 153 0
2.0953 33.0303 -51.4368 0.160 -0.986 -0.053 174 165 155 0
2.4702 33.1038 -51.7394 0.140 -0.988 -0.065 177 168 158 0
2.8449 33.1756 -52.0416 0.155 -0.980 -0.128 178 170 160 0
3.1729 33.1986 -52.3004 0.138 -0.981 -0.139 178 172 161 0
5.0543 33.5317 -53.8137 -0.212 -0.807 -0.552 188 181 170 0
-5.6445 6.0893 -41.5078 -0.196 -0.530 0.825 178 167 157 0
-5.3671 6.0895 -41.7239 0.093 -0.625 0.775 177 167 156 0
-2.7827 7.3695 -43.9217 0.459 -0.883 0.097 180 168 156 0
11.2600 15.1882 -55.9894 0.411 -0.903 0.128 179 165 155 0
11.4223 15.0589 -56.0971 0.465 -0.881 0.084 178 164 155 0
12.1676 15.3371 -56.7178 0.454 -0.889 0.050 177 164 155 0
9.3684 10.8217 -53.8840 -0.164 0.150 0.975 174 162 150 0
9.4725 10.6630 -53.9421 -0.250 0.035 0.968 174 162 150 0
11.6789 9.3819 -55.4747 -0.891 -0.447 -0.083 169 157 143 0
12.1423 9.4505 -55.8455 -0.576 -0.814 0.074 169 155 142 0
-29.1989 57.3330 -30.8771 -0.428 -0.904 0.011 226 221 214 0
-28.9138 57.4911 -31.1229 -0.404 -0.889 -0.215 225 221 212 0
-28.7756 57.3237 -31.2062 -0.326 -0.941 -0.093 225 221 210 0
-28.0267 57.5472 -31.8236 -0.406 -0.465 0.787 222 218 209 0
-28.5001 43.7752 -29.4327 -0.745 -0.198 0.637 136 57 71 0
-28.4444 43.4929 -29.4347 -0.714 -0.203 0.670 138 57 71 0
-28.1837 43.5978 -29.6536 -0.657 0.207 0.725 138 54 69 0
-28.8102 37.9901 -28.3414 -0.517 -0.530 0.672 140 43 60 0
-28.7876 37.6744 -28.3127 -0.648 -0.156 0.745 138 41 56 0
-27.2044 35.2037 -29.1860 -0.270 -0.409 0.872 136 33 52 0
-24.8481 29.8816 -30.2442 0.306 -0.924 0.230 124 26 45 0
-24.2431 28.9398 -30.5782 -0.472 -0.882 0.006 122 28 45 0
-21.3159 26.2268 -32.4650 -0.186 -0.554 0.811 105 15 32 0
-20.1326 26.9229 -33.4909 -0.628 -0.179 0.757 104 15 35 0
-20.8253 24.8815 -32.6505 -0.806 0.247 0.539 98 11 28 0
-2.0861 36.2244 -48.9434 0.342 -0.858 0.384 68 27 31 0
-5.6336 31.3522 -45.4590 -0.692 -0.708 -0.140 71 33 38 0
-5.3929 31.3162 -45.6417 -0.653 -0.744 -0.139 70 35 39 0
-1.7775 34.9762 -49.0010 -0.662 -0.665 0.345 71 38 40 0
-1.3915 35.0827 -49.3180 -0.663 -0.712 0.234 72 40 41 0
-1.0380 35.1520 -49.6041 -0.672 -0.719 0.175 73 42 41 0
-6.1960 28.9594 -44.6688 0.326 -0.897 -0.298 82 53 54 0
-4.2712 30.4385 -46.3884 0.037 -0.999 0.015 81 57 57 0
-3.9742 30.4584 -46.6232 0.156 -0.987 0.024 81 57 57 0
-3.4409 30.7280 -47.0790 -0.560 -0.701 0.441 86 65 62 0
-3.3205 30.5576 -47.1480 -0.692 -0.584 0.424 102 82 77 0
-3.2795 30.3039 -47.1428 -0.790 -0.521 0.323 133 116 108 0
-1.3372 31.7441 -48.8703 -0.291 -0.940 0.177 157 147 133 0
-1.3261 31.4542 -48.8365 -0.203 -0.929 0.310 160 152 136 0
-1.0095 31.4824 -49.0877 -0.196 -0.963 0.186 163 156 139 0
-1.1372 30.4538 -48.8371 0.357 -0.914 0.193 170 159 153 0
1.9757 33.0304 -51.6452 0.150 -0.987 -0.050 174 164 155 0
2.2430 32.9952 -51.8488 0.159 -0.981 -0.112 176 167 158 0
2.8275 33.2794 -52.3467 0.130 -0.981 -0.146 179 170 161 0
3.0147 33.1606 -52.4753 0.135 -0.980 -0.147 179 171 161 0
0.2218 24.1006 -48.9654 0.427 -0.133 0.894 195 183 173 0
10.3943 14.8927 -55.5547 0.025 -0.770 0.638 178 164 153 0
11.0063 15.0825 -56.0603 -0.710 -0.546 0.445 178 164 153 0
10.9919 14.8293 -56.0119 0.456 -0.888 0.063 178 164 154 0
11.2756 9.1870 -55.4052 -0.847 -0.513 -0.141 169 157 143 0
-50.1362 64.7225 -15.8830 -0.554 -0.274 0.786 229 223 215 0
-29.1955 57.1483 -31.1427 -0.405 -0.911 -0.070 226 222 213 0
-28.9950 57.1196 -31.2953 -0.347 -0.928 -0.131 225 221 210 0
-28.0044 40.3611 -29.5781 -0.862 0.018 0.506 138 43 59 0
-26.7740 35.7613 -29.8568 -0.670 -0.736 0.098 135 32 49 0
-26.8651 33.9284 -29.5129 -0.311 -0.676 0.668 139 34 51 0
-24.6302 30.6716 -30.7773 -0.768 -0.603 0.217 128 27 48 0
-24.5004 30.5542 -30.8614 -0.779 -0.551 0.298 125 26 46 0
-24.0117 29.1217 -31.0308 -0.669 -0.617 -0.413 122 29 46 0
-21.0101 26.1911 -32.9437 -0.238 -0.367 0.899 104 15 34 0
-20.1139 27.0821 -33.7775 -0.502 -0.234 0.833 104 15 35 0
-19.7055 27.3268 -34.1335 0.196 -0.786 0.587 102 13 33 0
-19.6277 27.1376 -34.1662 -0.562 0.286 0.776 100 12 31 0
-19.2821 25.2931 -34.1624 -0.839 -0.279 -0.467 89 12 26 0
-16.8665 25.1895 -36.0372 -0.907 -0.273 0.322 76 12 26 0
-15.7338 26.2748 -37.0849 -0.403 -0.617 -0.676 75 11 25 0
-2.3447 36.0706 -49.0188 0.340 -0.862 0.376 68 27 31 0
-2.0951 36.0292 -49.2080 0.037 -0.915 0.401 70 29 34 0
-4.3137 33.2468 -47.0581 -0.587 -0.796 0.149 71 31 37 0
-5.2076 31.6465 -46.1206 -0.766 -0.632 -0.118 71 35 40 0
-1.9411 34.9284 -49.1648 -0.783 -0.566 0.258 71 39 41 0
-4.3922 30.4312 -46.5779 0.037 -0.999 0.015 81 56 56 0
-4.0538 30.4955 -46.8523 0.135 -0.990 0.038 82 58 58 0
-3.5120 30.7745 -47.3177 -0.595 -0.660 0.459 88 67 64 0
-3.4379 30.5548 -47.3430 -0.562 -0.719 0.409 107 88 82 0
-3.3798 30.3189 -47.3534 -0.594 -0.682 0.427 142 125 117 0
-0.0981 31.9425 -50.1628 0.111 -0.967 0.230 167 156 149 0
1.5471 33.0222 -51.6107 0.185 -0.978 -0.100 171 160 154 0
1.8477 33.0221 -51.8459 -0.046 -0.984 0.172 173 164 155 0
2.3478 33.2234 -52.2672 0.128 -0.979 -0.156 176 167 158 0
2.8575 33.4316 -52.6970 -0.227 -0.956 -0.188 178 169 160 0
3.2378 15.2217 -50.2864 0.253 -0.968 -0.000 181 171 159 0
3.6030 15.2635 -50.5784 0.206 -0.977 -0.054 180 170 158 0
-5.6048 5.8365 -41.9713 0.286 -0.951 0.113 177 167 156 0
-5.2251 5.9116 -42.2795 0.288 -0.950 0.123 180 168 156 0
-4.8863 5.9550 -42.5511 0.241 -0.959 0.146 180 168 156 0
-2.1359 7.5498 -44.9405 0.448 -0.886 0.121 180 168 156 0
-1.4951 7.8029 -45.4795 0.445 -0.888 0.114 179 167 155 0
16.8238 13.0200 -60.5901 -0.722 -0.691 0.027 169 157 143 0
-53.1643 85.3943 -16.8881 -0.498 0.126 0.858 232 221 216 0
-50.5742 66.2397 -16.0337 -0.570 -0.287 0.770 229 223 215 0
-50.2800 64.6189 -16.0202 -0.554 -0.274 0.786 229 224 218 0
-29.2139 57.3877 -31.4549 -0.491 -0.454 0.744 226 222 213 0
-29.2048 56.9356 -31.3940 -0.589 -0.592 0.550 226 222 211 0
-28.8795 40.4468 -29.1647 -0.754 -0.277 0.596 140 49 61 0
-28.1356 41.0670 -29.8417 -0.414 -0.892 0.184 139 43 60 0
-28.1370 40.3224 -29.7284 -0.867 -0.007 0.499 138 43 59 0
-27.0141 33.8576 -29.6351 -0.318 -0.666 0.675 138 33 49 0
-24.8525 30.8062 -30.8709 -0.354 -0.918 0.178 130 28 50 0
-24.7526 30.6437 -30.9248 -0.443 -0.885 0.144 129 27 49 0
-24.3189 30.3573 -31.2218 -0.259 -0.955 0.144 124 28 45 0
-24.0112 29.2718 -31.2997 -0.672 -0.613 -0.416 121 27 43 0
-19.9366 27.1591 -34.1774 0.205 -0.787 0.582 100 14 32 0
-12.4290 30.6906 -40.5985 -0.495 -0.771 0.401 76 12 26 0
-15.6902 26.4533 -37.4020 -0.271 -0.653 -0.707 74 11 24 0
-3.3054 35.7663 -48.5198 0.133 -0.907 0.400 69 28 32 0
-2.2230 36.0216 -49.4074 0.109 -0.980 0.168 70 29 34 0
-1.3686 35.6896 -50.0276 -0.736 -0.677 -0.017 71 39 44 0
-3.6618 30.4390 -47.4376 -0.039 -0.999 0.038 125 107 101 0
0.6700 32.5511 -51.1537 0.021 -0.987 0.159 170 159 155 0
1.2742 32.8653 -51.6750 0.069 -0.978 0.196 172 161 155 0
1.7439 33.0385 -52.0695 -0.055 -0.975 0.216 173 164 157 0
1.9803 32.9720 -52.2449 -0.050 -0.973 0.224 174 167 158 0
2.7781 33.4736 -52.9463 -0.317 -0.948 0.026 176 169 159 0
3.7359 33.5107 -53.7033 -0.233 -0.955 -0.183 181 173 162 0
4.1284 33.5935 -54.0236 -0.197 -0.974 -0.116 182 173 164 0
-8.8189 12.1809 -40.6413 -0.413 -0.445 0.794 191 178 169 0
2.8517 15.2409 -50.2569 0.326 -0.942 0.078 178 170 157 0
3.1224 15.2105 -50.4646 0.253 -0.967 -0.006 179 169 157 0
3.5970 15.3373 -50.8560 0.253 -0.967 -0.006 179 169 157 0
13.5543 21.1681 -59.5450 -0.717 -0.599 -0.357 180 170 158 0
-5.4522 5.8082 -42.3220 0.251 -0.964 0.088 176 166 154 0
-4.4954 6.0996 -43.1164 0.124 -0.952 -0.279 175 165 153 0
-3.9105 6.3199 -43.6084 0.124 -0.952 -0.279 177 165 153 0
-3.6715 6.2861 -43.7908 0.530 -0.817 0.227 178 166 154 0
10.9472 15.9241 -56.7099 -0.619 -0.624 0.477 180 168 156 0
15.5224 12.9676 -59.8533 -0.837 -0.467 -0.284 173 159 146 0
13.8800 10.7386 -58.2291 -0.579 -0.806 0.124 170 156 143 0
12.2564 8.8058 -56.6643 -0.965 -0.094 0.246 166 151 143 0
-50.4029 65.3272 -16.2974 -0.588 -0.315 0.745 229 224 218 0
-29.3540 56.8849 -31.5597 -0.572 -0.635 0.520 226 223 212 0
-25.8772 58.7234 -34.5742 -0.353 -0.018 0.935 212 207 202 0
-24.6984 60.2384 -35.7323 -0.493 0.208 0.845 211 204 196 0
-28.2390 41.4575 -30.0818 -0.621 -0.784 -0.017 139 47 62 0
-28.1748 40.8269 -30.0360 -0.841 -0.513 0.170 139 42 59 0
-28.2126 39.6513 -29.8269 -0.912 -0.139 0.385 138 41 58 0
-28.2471 39.2246 -29.7346 -0.882 -0.319 0.345 139 41 57 0
-27.2631 33.9548 -29.7040 -0.141 -0.883 0.447 145 40 57 0
-27.1461 33.8144 -29.7746 -0.347 -0.673 0.653 140 35 52 0
-24.7341 30.5151 -31.1676 -0.735 -0.644 0.213 126 25 46 0
-24.6240 30.3683 -31.2318 -0.735 -0.644 0.213 126 28 45 0
-25.9805 28.0405 -29.8098 -0.319 -0.929 0.189 128 30 48 0
-23.8703 29.3212 -31.6646 -0.668 -0.616 -0.417 127 34 50 0
-19.8621 25.9477 -34.3014 -0.888 -0.011 0.459 95 13 29 0
-19.5838 26.0195 -34.5311 -0.771 0.009 0.637 93 11 27 0
-12.5175 30.7174 -40.8045 -0.489 -0.749 0.446 77 13 27 0
-14.4240 25.8150 -38.5571 -0.416 -0.771 -0.482 69 18 26 0
-4.3854 33.4280 -47.6125 -0.371 -0.926 -0.077 71 31 40 0
-6.6633 29.1091 -45.1622 0.254 -0.889 -0.380 76 47 51 0
-6.0285 29.5043 -45.7216 0.256 -0.889 -0.380 80 52 52 0
-5.4904 29.7910 -46.1884 0.257 -0.917 -0.305 82 55 54 0
-3.9955 30.5041 -47.4728 -0.044 -0.998 0.051 100 80 75 0
-3.7642 30.4521 -47.6467 -0.041 -0.999 -0.008 139 121 115 0
-3.5134 30.4200 -47.8390 -0.041 -0.999 0.004 151 136 130 0
-2.2795 30.5239 -48.8251 -0.147 -0.976 0.162 160 152 141 0
-0.7833 31.7800 -50.1933 0.206 -0.966 0.155 164 155 147 0
-0.3739 31.9010 -50.5336 -0.362 -0.846 0.391 167 156 151 0
0.5590 32.5593 -51.3677 0.021 -0.988 0.154 170 159 155 0
1.3439 33.0596 -52.0612 -0.055 -0.980 0.191 172 161 155 0
1.6880 33.1041 -52.3386 -0.094 -0.968 0.234 172 163 156 0
1.8466 32.9582 -52.4410 -0.066 -0.970 0.234 174 167 159 0
2.6824 33.4992 -53.1808 -0.317 -0.948 0.026 176 169 160 0
-1.2851 22.4717 -48.3779 0.362 -0.118 0.925 191 181 172 0
-8.8988 11.9651 -40.7876 -0.539 -0.216 0.814 190 177 169 0
3.6648 15.4687 -51.2013 0.100 -0.943 0.318 178 170 157 0
13.0815 20.8959 -59.4340 -0.673 -0.738 -0.043 180 170 158 0
11.0642 19.1155 -57.5760 0.337 -0.231 0.913 177 167 155 0
8.2362 14.0563 -54.5802 -0.590 -0.806 0.048 179 167 155 0
10.1362 15.1735 -56.2447 0.058 -0.753 0.655 177 165 153 0
9.5355 10.7380 -55.0954 0.005 -0.297 0.955 175 163 149 0
15.7473 12.9403 -60.3159 -0.961 -0.218 -0.173 172 159 145 0
14.2988 10.8357 -58.8557 -0.652 -0.757 -0.053 169 155 142 0
12.1814 9.0441 -56.9173 -0.966 -0.093 0.243 166 152 142 0
12.2069 8.8353 -56.9055 -0.963 -0.085 0.256 166 151 142 0
13.5966 8.3494 -57.9241 -0.914 -0.202 0.353 255 255 255 0
-29.3866 57.0929 -31.8572 -0.558 -0.652 0.514 226 222 212 0
-29.2658 56.8878 -31.9208 -0.565 -0.616 0.549 224 221 212 0
-26.1819 59.7784 -34.7983 -0.071 -0.092 0.993 220 212 204 0
-28.5394 41.4870 -30.1125 -0.406 -0.805 0.433 142 52 64 0
-28.4946 41.1935 -30.1025 -0.349 -0.900 0.261 141 48 64 0
-28.3473 41.0894 -30.2025 -0.638 -0.770 0.000 140 44 61 0
-28.3879 40.6417 -30.1012 -0.455 -0.876 0.160 140 43 60 0
-28.3226 39.2869 -29.9433 -0.885 -0.338 0.321 138 40 56 0
-27.2811 33.7661 -29.9108 -0.339 -0.677 0.653 141 38 55 0
-26.1158 28.2914 -29.9829 -0.523 -0.716 0.462 133 34 52 0
-26.0002 28.1611 -30.0539 -0.523 -0.716 0.462 133 35 52 0
-23.8523 29.4974 -31.9535 -0.668 -0.616 -0.417 125 32 47 0
-24.9435 26.7223 -30.6643 -0.477 -0.689 0.546 115 22 40 0
-24.6455 26.8538 -30.9196 -0.347 -0.776 0.527 116 23 41 0
-19.8653 27.8181 -34.8365 -0.572 0.362 0.736 98 15 31 0
-20.0379 27.2971 -34.6198 -0.104 -0.667 0.737 97 15 31 0
-19.9771 26.2174 -34.5009 -0.918 -0.173 0.356 96 14 29 0
-19.8619 26.0795 -34.5704 -0.975 -0.133 0.178 94 13 28 0
-19.2157 26.6239 -35.1639 -0.710 -0.672 -0.212 92 11 26 0
-18.4486 27.3178 -35.8758 -0.966 -0.176 0.191 90 12 26 0
-18.9643 24.9495 -35.1032 -0.336 0.217 0.916 85 14 26 0
-5.9817 29.6774 -46.0671 0.215 -0.887 -0.410 82 53 54 0
-5.1151 30.3193 -46.8494 0.119 -0.917 -0.382 85 58 58 0
-4.5466 30.6340 -47.3461 -0.150 -0.988 0.041 89 63 62 0
-3.9985 30.9233 -47.8228 -0.697 -0.107 0.709 95 70 70 0
-3.9734 30.6503 -47.8005 -0.696 -0.101 0.711 115 95 90 0
-3.6332 30.4148 -48.0322 -0.058 -0.998 -0.009 152 137 131 0
-1.9583 30.9799 -49.4398 -0.248 -0.961 0.118 161 153 143 0
-0.5162 32.1800 -50.7619 0.160 -0.862 0.481 164 155 148 0
-0.4047 31.9912 -50.8207 -0.285 -0.879 0.382 166 156 151 0
1.2486 33.0849 -52.2929 -0.087 -0.975 0.202 172 161 156 0
3.1491 34.4092 -53.9956 -0.376 -0.922 -0.093 173 166 158 0
4.0921 35.0546 -54.8386 -0.225 -0.960 -0.164 176 169 160 0
3.7062 15.5799 -51.5239 -0.388 -0.803 0.453 179 171 158 0
9.3078 16.8697 -56.1385 0.648 -0.377 0.662 177 167 155 0
10.0144 15.1607 -56.4313 0.150 -0.736 0.660 177 165 153 0
9.2558 10.6169 -55.1309 -0.010 -0.279 0.960 175 163 149 0
14.1185 11.0170 -59.0256 -0.670 -0.735 0.099 170 157 143 0
14.3534 10.9336 -59.1979 -0.641 -0.766 0.032 170 156 143 0
13.5148 8.3584 -58.1388 -0.924 -0.214 0.318 255 255 255 0
-55.4671 89.1540 -16.5617 -0.577 -0.807 -0.125 66 63 62 0
-29.9845 55.5755 -31.4392 -0.693 -0.721 0.017 225 221 212 0
-29.4177 56.3605 -32.0100 0.194 -0.691 0.696 223 220 211 0
-29.3357 56.0724 -32.0296 0.142 -0.772 0.620 223 220 211 0
-26.6741 59.9646 -34.7420 0.312 -0.165 0.936 219 214 207 0
-26.6339 59.5707 -34.7121 -0.083 -0.068 0.994 219 213 205 0
-26.4496 59.4868 -34.8446 -0.071 -0.092 0.993 219 212 204 0
-26.3484 59.2254 -34.8836 -0.477 0.008 0.879 218 209 202 0
-24.2432 60.3031 -36.7157 -0.482 0.273 0.833 206 196 190 0
-21.6620 60.3102 -38.7563 -0.446 -0.893 0.052 148 84 93 0
-21.5658 60.0322 -38.7888 -0.467 -0.880 -0.088 146 81 90 0
-27.0941 47.5722 -32.4701 -0.939 0.338 -0.064 142 67 77 0
-28.3794 42.3735 -30.6407 -0.999 -0.054 -0.004 141 51 65 0
-28.3609 42.0267 -30.6010 -0.999 -0.054 -0.004 143 50 64 0
-28.1379 41.3040 -30.6640 -0.994 -0.094 0.048 138 44 60 0
-28.0685 41.0560 -30.6800 -0.925 -0.008 0.381 138 45 58 0
-27.5043 37.3373 -30.5437 -0.982 -0.185 -0.045 140 37 54 0
-27.7759 34.1242 -29.8260 -0.658 -0.689 0.305 138 33 50 0
-27.6597 33.9823 -29.8956 -0.658 -0.689 0.305 140 35 52 0
-27.4232 33.7059 -30.0392 -0.312 -0.677 0.667 140 35 52 0
-26.8217 33.0335 -30.4092 -0.105 -0.776 0.622 131 31 47 0
-26.5727 33.1063 -30.6174 -0.126 -0.805 0.579 130 32 47 0
-24.7832 30.4408 -31.6140 0.239 -0.846 0.476 132 35 53 0
-26.0975 28.1666 -30.2195 -0.528 -0.715 0.458 129 32 49 0
-20.1776 26.3779 -34.6169 -0.350 -0.922 -0.167 101 18 34 0
-19.9829 26.3427 -34.7652 -0.360 -0.917 -0.170 98 16 31 0
-19.7559 26.3485 -34.9455 -0.545 -0.812 -0.207 93 12 27 0
-19.1462 26.8461 -35.5052 -0.682 -0.704 -0.198 91 12 26 0
-18.3382 27.5930 -36.2605 -0.968 -0.195 0.158 90 12 26 0
-17.5011 28.0752 -36.9974 -0.362 -0.482 0.798 89 12 25 0
-17.1292 28.2528 -37.3190 -0.360 -0.084 0.929 87 12 25 0
-8.2251 36.8677 -45.7031 -0.270 -0.809 -0.521 82 11 24 0
-10.5704 30.8942 -42.9148 0.267 -0.345 0.900 71 21 30 0
-10.6737 30.1703 -42.7199 0.104 -0.475 0.874 70 23 31 0
-2.9239 35.9639 -49.7502 0.263 -0.858 0.442 72 31 37 0
-5.6017 30.2135 -46.7341 0.108 -0.912 -0.396 85 56 58 0
-5.1291 30.4277 -47.1411 0.089 -0.912 -0.401 89 62 62 0
-4.1526 31.1828 -48.0308 -0.694 -0.054 0.718 92 68 66 0
-4.1191 30.9175 -48.0158 -0.709 -0.056 0.703 100 77 75 0
-4.1457 30.5889 -47.9433 -0.712 -0.102 0.695 127 109 103 0
-4.1116 30.3265 -47.9292 -0.706 -0.098 0.702 152 136 129 0
-0.2688 32.5610 -51.3153 0.272 -0.755 0.597 164 155 146 0
0.3201 32.5586 -51.7802 -0.226 -0.912 0.342 169 160 153 0
1.1407 33.0974 -52.5130 -0.070 -0.978 0.197 171 162 157 0
3.0733 34.4568 -54.2528 -0.371 -0.924 -0.089 173 164 157 0
3.6199 34.6998 -54.7227 -0.462 -0.884 0.069 176 167 159 0
14.5169 11.1008 -59.6381 -0.028 -0.893 0.449 169 155 143 0
13.4369 8.3699 -58.3573 -0.924 -0.214 0.318 255 255 254 0
-30.0824 55.6357 -31.6597 -0.704 -0.710 0.019 224 221 214 0
-29.6139 56.2052 -32.1210 0.131 -0.703 0.699 224 221 213 0
-29.4417 56.1159 -32.2432 0.131 -0.703 0.699 223 220 212 0
-29.3803 41.0923 -29.9103 -0.637 -0.710 -0.300 141 53 67 0
-27.8413 38.0057 -30.6400 -0.804 -0.376 0.460 138 35 52 0
-28.0834 35.4839 -30.0485 -0.794 -0.430 0.429 138 37 53 0
-27.6594 35.8620 -30.4442 -0.344 -0.433 0.833 138 35 52 0
-27.5273 35.7415 -30.5297 -0.310 -0.439 0.843 137 34 51 0
-27.8657 34.1509 -30.0096 -0.674 -0.667 0.318 138 33 50 0
-27.7541 34.0012 -30.0743 -0.627 -0.705 0.333 138 33 50 0
-27.6361 33.8624 -30.1458 -0.627 -0.705 0.333 138 33 50 0
-27.5097 33.7376 -30.2261 -0.634 -0.696 0.337 139 34 51 0
-27.4058 33.5757 -30.2827 -0.646 -0.673 0.361 139 34 51 0
-26.1736 28.2037 -30.4070 -0.505 -0.716 0.483 124 29 46 0
-24.1300 29.7014 -32.2631 -0.501 -0.864 0.054 123 25 43 0
-23.7080 29.7017 -32.5973 -0.559 -0.827 -0.061 118 24 41 0
-21.2193 25.4367 -33.8925 0.200 -0.845 0.495 100 17 33 0
-20.0855 26.3425 -34.9340 -0.347 -0.925 -0.155 98 16 31 0
-19.7984 26.4264 -35.1747 -0.465 -0.866 -0.183 93 12 27 0
-18.3142 27.7582 -36.5614 -0.968 -0.183 0.174 91 14 26 0
-17.8214 28.0956 -37.0051 -0.158 -0.618 0.770 91 15 27 0
-17.6997 27.9567 -37.0796 -0.314 -0.484 0.817 89 13 25 0
-17.4155 28.0239 -37.3153 -0.239 -0.063 0.969 86 13 24 0
-11.6241 32.5227 -42.6155 -0.440 -0.164 0.883 79 12 25 0
-11.0825 32.2524 -43.0015 -0.950 -0.301 0.086 74 13 23 0
-11.3673 31.6004 -42.6727 -0.942 -0.337 0.009 75 15 25 0
-10.3526 30.9801 -43.3780 0.141 -0.278 0.950 71 23 32 0
-11.1288 27.1315 -42.1531 0.166 0.078 0.983 70 30 36 0
-5.5629 30.3797 -47.0765 0.096 -0.912 -0.398 86 60 60 0
-4.3502 31.3967 -48.1982 -0.714 -0.057 0.697 90 66 64 0
-4.3152 31.1321 -48.1840 -0.714 -0.057 0.697 93 71 68 0
-4.2803 30.8682 -48.1698 -0.714 -0.057 0.697 106 87 83 0
-4.2995 30.5473 -48.1037 -0.739 -0.100 0.667 140 124 117 0
-4.2581 30.2925 -48.0961 -0.739 -0.100 0.667 150 135 128 0
-4.4921 25.4315 -47.1402 0.383 -0.744 0.548 179 174 164 0
5.5420 18.1750 -53.9373 0.411 -0.730 0.546 180 170 160 0
13.3589 8.3814 -58.5760 -0.924 -0.214 0.318 255 255 254 0
-29.1185 55.6987 -32.7241 -0.052 -0.998 -0.040 221 216 210 0
-27.0618 59.6930 -34.9981 -0.098 -0.066 0.993 220 215 209 0
-25.0061 62.1624 -37.0265 -0.426 -0.735 0.527 219 210 205 0
-24.2466 59.8936 -37.2654 -0.739 0.286 0.610 204 191 185 0
-23.3685 60.7386 -38.0982 -0.990 0.119 -0.069 200 186 178 0
-28.5983 45.1287 -31.4407 -0.939 0.134 0.316 142 67 80 0
-29.4386 41.1928 -30.1418 -0.643 -0.704 -0.301 142 54 67 0
-29.3126 41.0508 -30.2191 -0.655 -0.704 -0.276 141 53 65 0
-28.1477 38.0173 -30.6571 -0.729 -0.670 0.139 141 39 55 0
-27.8049 38.2620 -30.9686 -0.897 -0.395 0.196 140 37 54 0
-28.3221 35.9494 -30.1868 -0.299 -0.223 0.928 138 37 53 0
-28.1924 35.4805 -30.2144 -0.789 -0.447 0.421 139 38 54 0
-27.8198 35.7721 -30.5571 -0.344 -0.433 0.833 139 36 53 0
-27.5837 33.7900 -30.4265 -0.646 -0.709 0.283 139 34 51 0
-27.5077 33.5818 -30.4534 -0.646 -0.673 0.361 139 34 51 0
-26.6384 31.0692 -30.7403 -0.602 -0.786 0.139 128 27 45 0
-26.5107 30.9508 -30.8227 -0.609 -0.780 0.145 128 27 45 0
-26.3816 30.8344 -30.9065 -0.609 -0.780 0.145 128 27 45 0
-23.7766 29.7532 -32.8012 -0.432 -0.861 0.267 118 23 43 0
-20.6329 26.0505 -34.7030 0.176 -0.960 0.217 97 14 30 0
-20.1379 26.4080 -35.1534 -0.351 -0.926 -0.141 95 12 28 0
-19.8769 26.4580 -35.3686 -0.443 -0.873 -0.205 93 12 27 0
-18.2293 28.0025 -36.9246 -0.947 -0.190 0.258 90 13 27 0
-12.2332 32.2236 -42.3627 -0.556 -0.377 0.741 82 14 25 0
-11.5167 31.5558 -42.8244 0.006 -0.298 0.954 74 17 26 0
-10.8801 29.8894 -43.0623 -0.097 -0.540 0.836 69 27 30 0
-6.4188 29.8675 -46.6009 0.024 -0.838 -0.545 82 56 57 0
-4.4904 31.6742 -48.4220 -0.991 -0.007 0.134 86 62 60 0
-4.4257 30.8357 -48.3387 -0.880 -0.113 0.462 120 102 98 0
0.1539 34.1874 -52.5127 -0.041 -0.650 0.759 156 146 137 0
-3.5136 29.1241 -48.7882 0.172 -0.610 0.774 164 157 149 0
-3.3739 28.9755 -48.8752 0.200 -0.590 0.782 167 160 152 0
-5.2638 25.8820 -46.8783 0.416 -0.768 0.487 173 166 157 0
-2.6569 22.1309 -48.3461 -0.067 0.096 0.993 187 176 170 0
4.9645 12.9287 -52.9202 0.250 -0.835 0.491 177 165 155 0
-2.0988 7.5458 -46.4483 -0.150 -0.874 -0.463 178 165 156 0
-1.5768 6.4351 -46.6845 0.464 -0.685 0.561 176 163 154 0
3.0732 6.4584 -50.3802 -0.389 -0.597 0.701 174 162 150 0
14.2310 11.9873 -60.1263 0.591 -0.522 0.615 170 156 144 0
-28.1407 55.7598 -33.8038 -0.229 0.015 0.973 219 210 205 0
-28.2219 44.0888 -31.8429 -0.871 0.226 0.436 142 57 71 0
-28.3353 40.4360 -31.1592 -0.622 -0.480 0.618 139 44 58 0
-28.0060 38.1016 -31.0421 -0.049 -0.907 0.418 140 37 55 0
-27.8375 38.0393 -31.1661 -0.130 -0.835 0.535 139 36 54 0
-27.7351 37.8608 -31.2185 -0.198 -0.844 0.498 139 36 54 0
-28.0903 36.5364 -30.7207 -0.616 -0.339 0.711 137 36 52 0
-27.8285 36.6381 -30.9456 -0.895 -0.281 0.346 137 36 52 0
-27.9271 36.1194 -30.7828 -0.620 -0.249 0.744 138 37 53 0
-27.9305 35.0787 -30.6110 -0.694 -0.654 0.301 137 35 51 0
-27.8503 34.8727 -30.6414 -0.715 -0.636 0.288 137 33 50 0
-25.0445 30.2038 -32.1159 -0.623 -0.232 0.747 123 29 44 0
-24.4220 29.2690 -32.4595 -0.721 -0.523 0.455 118 24 42 0
-24.8054 27.4995 -31.8669 -0.677 -0.139 0.722 120 25 45 0
-21.5928 27.8312 -34.4775 0.109 -0.833 0.543 106 20 36 0
-21.5522 25.2647 -34.0929 -0.149 -0.876 0.458 94 11 27 0
-20.6934 26.1050 -34.9130 0.202 -0.953 0.226 94 11 27 0
-20.1376 26.5423 -35.4263 -0.323 -0.944 -0.067 94 11 27 0
-19.8196 26.6661 -35.6995 0.171 -0.977 0.131 92 11 26 0
-18.3206 28.0205 -37.1126 -0.945 -0.171 0.280 89 12 26 0
-11.8624 30.9683 -42.7315 -0.179 -0.253 0.951 74 20 28 0
-11.1127 29.7470 -43.1298 -0.258 -0.476 0.841 71 29 33 0
-11.7741 26.3584 -42.0528 0.175 0.075 0.982 71 33 41 0
-6.3717 30.3428 -46.9997 -0.568 -0.595 -0.569 80 54 55 0
-6.3362 30.0825 -46.9857 0.024 -0.846 -0.533 83 60 59 0
-4.5484 31.7378 -48.6776 -0.992 -0.002 0.122 87 65 63 0
-0.0111 34.1409 -52.6791 -0.136 -0.796 0.590 157 147 138 0
-0.3542 33.4654 -52.2963 -0.152 -0.749 0.645 160 150 141 0
-3.2164 30.1471 -49.4792 -0.130 -0.454 0.881 161 154 144 0
-3.6868 29.3571 -48.9765 -0.213 -0.407 0.888 163 156 146 0
-3.8674 28.8741 -48.7543 -0.155 -0.515 0.843 164 157 149 0
-3.7663 28.6863 -48.8043 -0.181 -0.574 0.799 166 159 151 0
-5.3566 25.6182 -47.0401 -0.198 -0.832 0.519 176 169 159 0
-5.2396 25.4570 -47.1070 -0.180 -0.826 0.535 177 170 161 0
-5.0762 25.3429 -47.2185 -0.172 -0.193 0.966 178 171 162 0
3.9781 17.8561 -53.2083 0.375 -0.623 0.686 185 172 163 0
-1.5908 7.9828 -47.1720 -0.174 -0.909 -0.378 177 165 155 0
4.6474 7.7891 -52.1054 -0.045 -0.288 0.956 173 161 149 0
13.3482 10.7813 -59.5163 -0.012 -0.688 0.726 171 157 144 0
11.8254 9.1261 -58.0354 -0.962 -0.158 0.222 168 154 141 0
-28.3881 55.5012 -33.8580 -0.229 0.015 0.973 218 209 204 0
-26.7711 57.0735 -35.4067 -0.449 -0.727 0.520 213 202 200 0
-26.4761 57.2259 -35.6671 -0.931 0.137 0.338 211 200 198 0
-25.5749 58.6380 -36.6183 -0.930 0.104 0.351 209 198 195 0
-26.2709 50.0939 -34.6579 -0.852 0.446 0.276 142 73 84 0
-28.7788 44.4310 -31.7259 -0.841 0.188 0.508 141 63 78 0
-29.5642 41.3782 -30.5972 -0.571 -0.805 -0.161 144 58 69 0
-28.6825 39.6362 -31.0141 -0.972 -0.202 0.117 139 44 58 0
-27.9864 37.2579 -31.1785 -0.206 -0.481 0.852 137 36 54 0
-27.4619 34.3444 -31.1178 -0.945 -0.272 0.182 139 34 51 0
-27.3440 31.8875 -30.8077 -0.255 -0.579 0.774 130 33 49 0
-24.8893 28.1265 -32.1476 -0.621 -0.762 -0.186 119 26 45 0
-22.1447 27.2188 -34.1881 -0.207 -0.493 0.845 105 18 34 0
-20.6127 26.3450 -35.2665 0.089 -0.975 0.202 92 9 25 0
-20.0744 26.7596 -35.7642 0.121 -0.981 0.153 93 11 27 0
-19.8514 26.7592 -35.9421 0.121 -0.981 0.153 92 11 28 0
-19.3023 27.1808 -36.4495 -0.769 -0.585 0.257 90 11 27 0
-18.3088 28.1720 -37.4051 -0.856 -0.074 0.511 89 11 28 0
-11.5692 30.5425 -43.1718 -0.167 -0.829 0.533 68 20 28 0
-11.3177 29.6365 -43.2235 -0.305 -0.428 0.851 73 30 35 0
-11.6517 27.4826 -42.6028 0.517 -0.762 0.391 71 30 38 0
-11.4781 27.3917 -42.7263 -0.283 -0.331 0.900 71 31 40 0
-4.6506 32.0594 -48.9409 -0.963 0.002 0.269 84 61 61 0
-0.2058 34.0627 -52.8165 -0.505 -0.688 0.522 157 146 140 0
-2.8905 30.6116 -50.1071 0.107 -0.991 0.076 162 153 144 0
-4.1269 29.0155 -48.8582 -0.369 -0.630 0.684 163 155 146 0
-4.0927 28.7575 -48.8431 -0.672 -0.567 0.477 164 157 149 0
-4.0316 28.5283 -48.8541 -0.801 -0.382 0.461 167 160 152 0
-3.9798 28.2903 -48.8563 -0.809 -0.407 0.424 169 162 154 0
-4.0086 27.9699 -48.7807 -0.787 -0.436 0.437 170 163 155 0
-5.5466 25.8171 -47.1996 -0.565 -0.781 0.265 174 167 159 0
-5.4215 25.6637 -47.2741 -0.289 -0.878 0.381 176 169 160 0
-5.1335 25.3956 -47.4599 -0.211 -0.150 0.966 178 171 163 0
-0.0570 29.3434 -52.1591 -0.634 -0.727 0.263 181 174 167 0
-1.8076 14.9552 -48.3964 0.310 -0.492 0.814 184 173 167 0
-1.4146 15.0383 -48.7235 0.108 -0.529 0.842 185 173 167 0
3.8520 18.0922 -53.4275 0.329 -0.543 0.773 186 173 164 0
3.9739 17.9372 -53.4993 0.331 -0.581 0.744 184 171 163 0
4.2314 17.8907 -53.6971 0.321 -0.574 0.754 182 169 161 0
3.3477 6.5502 -51.1271 -0.609 -0.660 0.439 174 160 150 0
12.7889 11.1853 -59.4216 0.591 -0.522 0.615 169 155 146 0
-41.9156 39.8095 -20.7218 0.063 0.118 0.991 231 228 221 0
-28.8019 56.2786 -33.9503 0.117 -0.824 0.555 220 215 208 0
-26.6433 57.6143 -35.8989 -0.307 -0.522 0.796 213 202 200 0
-26.5432 57.3560 -35.9359 -0.926 0.114 0.359 211 199 197 0
-25.3551 52.9827 -36.1582 -0.868 0.399 0.296 151 86 95 0
-26.5692 49.3314 -34.5796 -0.931 0.350 0.104 142 70 83 0
-28.4516 45.2845 -32.4007 -0.842 0.203 0.500 142 66 80 0
-28.6785 44.0531 -32.0142 -0.770 0.207 0.603 141 60 74 0
-28.7382 40.1084 -31.3099 -0.907 -0.374 0.196 142 49 62 0
-27.1044 36.1508 -31.9579 -0.753 -0.575 0.319 140 35 52 0
-27.5491 34.3768 -31.3070 -0.947 -0.275 0.166 139 34 51 0
-27.4149 34.2618 -31.3952 -0.832 -0.545 0.105 140 35 52 0
-25.7652 31.3198 -32.2249 -0.491 -0.453 0.744 124 27 44 0
-25.0860 28.5958 -32.3147 -0.765 -0.542 0.348 116 24 41 0
-25.1344 27.6165 -32.1130 -0.903 -0.146 0.403 117 24 42 0
-21.9493 27.6267 -34.6619 -0.120 -0.586 0.801 106 19 33 0
-22.2787 26.8812 -34.2744 0.088 -0.635 0.768 106 21 35 0
-20.2176 26.7072 -35.8938 -0.344 -0.938 -0.025 93 10 27 0
-20.1936 26.4477 -35.8698 -0.174 -0.982 0.071 93 12 29 0
-19.3788 27.2166 -36.6494 -0.752 -0.582 0.310 90 11 29 0
-12.0697 29.4773 -42.8710 -0.611 -0.755 0.239 70 26 32 0
-11.4874 29.8668 -43.4015 -0.916 -0.362 0.174 72 29 35 0
-11.4175 29.6495 -43.4213 -0.908 -0.369 0.199 71 29 35 0
