ply
format ascii 1.0
element vertex 822
property float x
property float y
property float z
property float nx
property float ny
property float nz
property uchar diffuse_red
property uchar diffuse_green
property uchar diffuse_blue
property uchar class
end_header
-3.3645 37.7807 -15.6647 -0.608 -0.537 -0.585 223 211 185 0
-7.8228 31.7048 -13.4250 -0.895 -0.407 0.181 221 212 183 0
-12.0126 25.4142 -11.3639 -0.670 -0.123 0.732 220 209 183 0
-11.3546 25.8205 -11.7315 -0.734 0.167 0.658 220 208 182 0
1.4477 28.3665 -19.2874 0.359 -0.112 0.927 213 204 175 0
1.3776 28.0641 -19.2678 0.335 -0.096 0.937 214 204 176 0
1.9386 22.6494 -20.0159 -0.602 -0.798 0.015 211 195 169 0
20.8543 24.9591 -31.2895 -0.823 -0.023 0.568 204 182 133 0
3.7253 11.0375 -21.9734 -0.884 -0.007 0.467 202 175 128 0
3.7464 10.8551 -21.9999 -0.877 -0.064 0.477 202 175 128 0
23.4587 12.7375 -33.7878 -0.048 -0.999 -0.020 175 152 108 0
21.7371 9.9738 -32.9545 -0.169 -0.966 -0.196 163 140 100 0
17.8248 7.0435 -30.8078 -0.749 -0.352 -0.562 158 134 95 0
17.9806 6.9236 -30.9112 -0.769 -0.319 -0.554 158 133 94 0
18.9459 5.6340 -31.5927 -0.336 -0.942 -0.000 253 254 255 0
-40.3448 75.1943 9.3037 -0.844 0.018 0.536 226 205 174 0
-44.4195 56.9372 10.4256 -0.383 -0.386 0.839 228 206 172 0
-44.4310 56.0941 10.3702 -0.359 -0.583 0.729 229 207 171 0
-20.7496 82.6294 -2.0376 -0.653 0.002 0.757 242 225 189 0
-5.5197 43.7640 -14.1555 -0.340 -0.792 -0.508 229 219 194 0
9.0485 49.3385 -22.5839 -0.763 -0.587 0.270 221 210 183 0
-3.8506 25.1211 -16.5478 0.419 -0.883 0.211 215 204 176 0
-2.5433 25.5440 -17.3099 0.474 -0.774 0.420 214 204 177 0
-0.3146 26.9660 -18.5572 -0.213 0.192 0.958 214 204 177 0
3.7584 10.9194 -22.2161 -0.881 -0.085 0.466 201 174 127 0
17.0874 14.2755 -30.0566 -0.909 0.069 0.410 185 164 115 0
27.6249 15.1646 -36.3855 -0.988 0.036 -0.153 172 148 105 0
27.3686 14.5862 -36.2728 -0.917 -0.262 -0.301 172 149 107 0
23.2421 12.2513 -33.9413 -0.609 -0.782 0.134 172 149 107 0
22.0608 10.5993 -33.3467 0.031 -0.933 -0.358 166 143 102 0
21.5356 10.1289 -33.0628 -0.205 -0.935 -0.288 165 142 101 0
21.8313 10.0698 -33.2466 -0.145 -0.956 -0.255 164 140 102 0
19.8042 7.8548 -32.1804 -0.788 -0.454 -0.416 157 133 94 0
18.3672 6.7645 -31.3890 -0.949 -0.284 0.138 157 133 95 0
18.7127 5.7613 -31.6729 -0.438 -0.899 -0.016 246 246 245 0
18.8768 5.6448 -31.7811 -0.346 -0.938 -0.016 253 254 255 0
19.1284 5.5690 -31.9394 -0.336 -0.942 -0.000 254 255 255 0
19.4746 5.5365 -32.1518 -0.386 -0.923 -0.003 255 255 255 0
-40.8118 73.6952 9.2434 -0.665 0.214 0.716 226 207 174 0
-44.7412 57.9904 10.4955 -0.992 -0.122 0.018 224 207 177 0
-42.6387 57.1012 9.1517 -0.531 0.016 0.847 225 208 174 0
-0.1695 50.9069 -17.1403 -0.636 -0.764 -0.106 230 220 195 0
8.8029 48.9125 -22.7446 -0.738 -0.508 0.444 222 211 183 0
2.4922 23.0090 -20.7831 -0.666 -0.653 -0.361 210 197 166 0
-10.3051 9.0272 -14.0100 0.061 -0.998 0.022 209 192 162 0
-3.6376 11.4259 -17.8932 -0.864 -0.033 0.503 208 188 150 0
-4.9744 9.0212 -17.2542 -0.002 -0.363 0.932 207 184 140 0
20.4275 24.8313 -31.5647 0.472 -0.806 0.358 206 184 138 0
21.4640 25.2599 -32.1643 0.476 -0.813 0.335 205 183 134 0
1.2399 7.7368 -21.1287 -0.083 -0.003 0.997 193 171 124 0
19.3849 16.9586 -31.5012 -0.966 0.219 0.139 187 166 119 0
9.5782 7.1774 -26.2432 0.298 -0.955 -0.011 180 153 110 0
10.4703 7.4616 -26.7654 0.298 -0.955 -0.011 180 153 110 0
22.7902 12.2849 -33.9123 -0.592 -0.804 -0.047 171 148 106 0
21.4929 10.1570 -33.2772 -0.202 -0.945 -0.259 165 142 102 0
22.1276 10.2668 -33.6555 -0.077 -0.951 -0.298 164 140 102 0
18.8540 5.6774 -31.9963 -0.432 -0.901 -0.031 253 255 254 0
19.5449 5.6121 -32.4215 -0.456 -0.888 -0.060 255 255 254 0
-41.1903 72.9446 9.1878 -0.650 0.222 0.727 226 206 175 0
-28.9587 90.3725 2.9630 -0.880 -0.313 0.357 227 210 174 0
-28.8280 90.1716 2.8689 -0.784 -0.262 0.562 228 210 174 0
-26.7101 72.9477 0.3528 0.290 -0.948 0.130 241 222 185 0
-26.4490 72.2005 0.1404 0.107 -0.994 -0.005 241 222 187 0
-26.2283 72.2324 0.0081 0.108 -0.994 0.002 242 224 190 0
-26.0661 72.1413 -0.0974 0.067 -0.997 -0.033 242 226 193 0
-24.0565 75.4430 -1.0890 0.107 -0.988 0.109 245 228 194 0
-24.8921 32.4225 -3.6359 -0.323 -0.242 0.915 237 225 201 0
0.4818 52.1226 -17.7182 -0.613 -0.706 -0.354 230 220 195 0
-1.2890 49.4580 -16.8271 -0.556 -0.795 -0.244 227 217 192 0
-12.9871 34.5114 -10.7515 -0.989 -0.006 -0.145 228 217 191 0
-2.5083 42.9833 -16.5432 -0.347 -0.934 -0.083 222 212 190 0
-2.4138 42.7950 -16.6142 -0.667 -0.745 -0.007 222 212 191 0
-14.7364 22.8287 -10.5142 -0.943 -0.330 -0.037 220 210 184 0
-15.0644 22.2903 -10.3523 -0.958 -0.256 -0.132 219 209 184 0
-3.4332 23.3545 -17.3736 0.556 -0.831 0.032 213 201 177 0
3.5940 10.9325 -22.5439 -0.931 -0.076 0.357 200 176 131 0
3.6959 10.6043 -22.6294 -0.899 0.044 0.435 199 175 129 0
4.3312 10.6010 -23.0173 -0.952 0.026 0.306 196 172 126 0
5.3015 10.9926 -23.5814 -0.862 -0.222 0.456 195 171 123 0
1.5336 7.5924 -21.5240 -0.250 -0.802 -0.542 192 170 125 0
-0.8158 2.6940 -20.4386 -0.582 -0.688 -0.434 181 156 114 0
8.8444 7.0233 -26.0252 0.079 -0.959 -0.271 180 154 113 0
9.3562 7.1076 -26.3315 0.087 -0.961 -0.262 180 154 113 0
10.0687 7.2968 -26.7528 0.092 -0.963 -0.255 179 153 112 0
21.6350 10.2778 -33.5982 -0.237 -0.855 -0.461 165 141 103 0
22.0938 10.2994 -33.8766 -0.125 -0.888 -0.442 165 141 103 0
16.0610 6.1262 -30.4922 0.045 -0.985 -0.167 158 132 95 0
19.3129 5.5473 -32.5175 -0.453 -0.891 -0.023 255 255 254 0
-43.7230 63.1833 9.8262 -0.839 0.260 0.478 228 210 179 0
-43.1618 56.2870 9.0030 -0.712 0.179 0.679 228 208 175 0
-43.2530 55.6505 9.0144 -0.715 0.168 0.678 228 209 176 0
-29.2134 90.0856 2.8210 -0.150 -0.160 0.976 229 211 175 0
-29.1206 89.7889 2.7436 -0.139 -0.144 0.980 229 211 175 0
-32.2334 68.8499 3.1910 -0.556 -0.820 0.138 235 217 181 0
-32.2715 68.3345 3.1784 -0.584 -0.735 0.344 235 217 181 0
-26.5701 72.2188 -0.0395 0.075 -0.997 -0.027 242 225 188 0
-26.3554 72.2386 -0.1695 0.075 -0.997 -0.027 242 225 191 0
-26.1865 72.1614 -0.2782 0.027 -0.999 -0.032 243 227 194 0
-21.9216 35.4153 -5.4444 0.381 -0.127 0.916 235 224 201 0
-1.0780 50.7925 -17.1268 -0.690 -0.626 -0.364 230 220 195 0
-11.1922 34.7861 -12.0525 -0.921 -0.167 0.353 225 213 191 0
-10.4599 35.3228 -12.4632 -0.975 -0.141 0.169 224 212 190 0
-13.1725 25.5872 -11.4811 -0.776 -0.527 -0.346 217 209 185 0
5.1960 35.0680 -22.0595 -0.358 -0.148 0.922 215 203 180 0
-5.1182 24.2920 -16.4989 0.246 -0.968 0.055 216 206 179 0
-5.3244 8.9044 -17.4435 0.284 0.046 0.958 208 185 143 0
9.1908 14.4431 -25.9387 -0.789 -0.377 -0.485 200 176 132 0
8.9817 7.1457 -26.3185 0.086 -0.996 -0.032 179 154 114 0
11.6507 7.4132 -27.9329 0.350 -0.937 0.023 175 149 112 0
23.0733 11.0485 -34.6684 0.080 -0.918 -0.388 164 142 103 0
13.0301 4.6949 -28.9659 0.285 -0.941 -0.184 158 132 95 0
17.4569 6.4605 -31.5514 -0.041 -0.975 -0.218 157 131 95 0
19.4472 5.6528 -32.8253 -0.546 -0.835 -0.065 255 255 254 0
-44.8349 56.9453 9.8696 0.370 -0.514 0.774 229 208 176 0
-29.6279 89.9214 2.7865 -0.163 -0.150 0.975 229 211 175 0
-29.5222 89.6584 2.7037 -0.150 -0.160 0.976 230 212 176 0
-29.4405 89.3345 2.6315 -0.139 -0.144 0.980 228 210 175 0
-39.2405 62.1164 6.7898 -0.546 -0.832 0.097 229 211 176 0
-32.5612 68.8112 3.1482 -0.496 -0.861 0.114 233 215 179 0
-26.7025 72.2135 -0.2143 0.075 -0.997 -0.027 241 225 188 0
-26.4879 72.2333 -0.3445 0.075 -0.997 -0.027 243 227 192 0
-26.3150 72.1648 -0.4553 0.071 -0.997 0.001 245 229 195 0
-11.5503 57.6955 -10.4985 -0.494 0.354 0.794 243 229 206 0
-22.6193 34.3734 -5.2964 0.457 -0.206 0.865 233 223 201 0
-19.7724 37.5367 -6.8274 -0.661 -0.578 0.479 231 223 200 0
-18.2134 34.4140 -7.9966 -0.082 -0.940 0.330 232 222 195 0
-0.1321 52.3596 -17.8667 -0.654 -0.698 -0.291 229 219 194 0
-0.9410 51.0999 -17.4562 -0.595 -0.722 -0.354 228 218 193 0
0.0000 51.8677 -17.9812 0.117 -0.975 -0.187 228 217 194 0
-12.4856 34.0049 -11.5382 -0.556 0.067 0.829 228 216 194 0
-10.5300 35.3654 -12.6453 -0.947 0.033 0.320 224 213 191 0
-4.4940 24.2291 -17.1067 -0.176 -0.773 0.610 214 204 178 0
9.4221 14.4374 -26.3107 -0.789 -0.377 -0.485 199 176 132 0
4.0749 10.9502 -23.2679 -0.789 -0.454 -0.414 197 174 130 0
4.3085 10.8965 -23.4148 -0.800 -0.442 -0.406 196 173 130 0
4.4131 10.7638 -23.4880 -0.775 -0.464 -0.430 196 173 129 0
0.4052 8.1389 -21.2081 -0.990 -0.084 -0.111 195 172 128 0
7.7950 8.6516 -25.7066 -0.325 -0.903 0.281 184 161 116 0
11.3781 4.1172 -28.2136 0.218 -0.934 -0.283 157 135 96 0
13.0759 4.7609 -29.2113 0.241 -0.946 -0.217 157 133 96 0
16.7714 6.1741 -31.3821 0.184 -0.980 -0.080 157 132 97 0
-40.1681 60.4774 7.0311 -0.745 0.162 0.647 229 210 177 0
-27.3421 72.8681 -0.0330 -0.570 -0.748 -0.340 238 222 186 0
-27.2355 72.2245 -0.1415 0.232 -0.972 0.043 237 223 186 0
-26.8407 72.1958 -0.3863 0.051 -0.996 0.069 241 227 190 0
-26.6222 72.2246 -0.5188 0.082 -0.997 0.017 243 229 192 0
-26.4576 72.1385 -0.6257 0.074 -0.997 0.004 244 229 193 0
-25.5604 31.6699 -3.8741 -0.494 0.210 0.844 233 225 200 0
-23.2860 34.1564 -5.1075 0.551 -0.228 0.803 233 223 200 0
-23.2626 33.9257 -5.1373 0.554 -0.222 0.802 234 224 199 0
-23.3925 33.4955 -5.0860 0.558 -0.244 0.793 234 224 200 0
0.3517 52.1014 -18.4522 0.171 -0.974 -0.151 226 215 193 0
-10.2433 39.0585 -12.8039 -0.973 -0.104 0.207 226 215 193 0
-13.0170 25.4736 -12.0029 -0.823 -0.534 -0.192 218 208 184 0
-7.5148 26.9936 -15.2862 -0.208 -0.952 -0.223 218 206 182 0
4.0958 34.2988 -21.9415 -0.093 -0.618 0.781 216 204 183 0
-5.0744 24.0475 -16.9837 -0.233 -0.971 -0.057 215 203 179 0
-5.3356 16.6477 -17.3161 -0.745 -0.601 0.290 210 194 169 0
-11.4953 7.1715 -14.1584 0.621 -0.506 0.599 206 193 161 0
24.1247 25.5325 -34.8461 0.611 -0.573 0.546 202 180 136 0
28.4141 27.7375 -37.3378 0.612 -0.570 0.548 200 178 134 0
4.4936 10.8697 -23.7473 -0.775 -0.464 -0.430 195 174 129 0
0.0191 7.2186 -21.2382 -0.844 -0.514 -0.157 194 171 127 0
2.3409 7.4792 -22.6491 -0.976 0.208 0.071 188 167 121 0
2.2679 7.2507 -22.6194 -0.954 0.270 0.128 187 166 119 0
7.0768 8.4922 -25.4948 -0.850 -0.110 0.516 185 163 118 0
11.6379 10.4587 -28.1694 -0.201 -0.431 0.880 182 161 116 0
12.2451 10.5951 -28.5339 -0.041 -0.227 0.973 181 160 115 0
10.7961 8.6091 -27.7749 0.327 -0.347 0.879 179 154 114 0
18.5125 5.8854 -32.7030 -0.465 -0.885 0.024 246 246 243 0
18.7018 5.7800 -32.8265 -0.459 -0.888 0.012 254 255 255 0
-30.7838 72.5884 1.8153 -0.779 -0.495 0.384 235 218 181 0
-27.4750 72.4249 -0.2363 0.191 -0.982 -0.003 237 223 186 0
-27.3483 72.2606 -0.3251 0.038 -0.999 0.031 237 224 186 0
-27.1851 72.1741 -0.4314 0.054 -0.996 0.067 239 225 188 0
-26.9796 72.1768 -0.5580 0.054 -0.996 0.067 243 229 190 0
-26.7609 72.2063 -0.6910 0.090 -0.996 0.007 244 230 191 0
-26.5467 72.2249 -0.8219 0.090 -0.996 0.007 243 229 191 0
-11.9023 42.0504 -11.8204 -0.997 -0.074 0.032 230 220 194 0
-1.1600 50.8259 -17.8746 -0.442 -0.808 -0.389 226 216 192 0
-0.9267 50.7770 -18.0217 -0.299 -0.874 -0.382 226 215 194 0
-8.0071 37.5463 -14.5165 -0.404 -0.823 -0.400 223 212 190 0
-18.7547 24.5197 -8.7360 -0.890 -0.404 0.213 222 211 188 0
-3.6633 37.7553 -17.1821 -0.855 0.112 0.507 221 209 183 0
-4.3862 35.9370 -16.8547 -0.700 0.171 0.693 219 208 183 0
-1.3039 33.1420 -18.9380 0.536 -0.819 -0.205 217 205 181 0
-6.1052 16.3356 -17.0714 -0.595 -0.563 0.574 212 194 172 0
20.7894 23.4873 -33.1942 0.592 -0.415 0.691 201 180 138 0
22.0822 24.0642 -33.9540 0.592 -0.415 0.691 202 181 139 0
23.4212 24.6647 -34.7408 0.592 -0.415 0.691 202 180 138 0
27.8819 27.2215 -37.3256 0.614 -0.582 0.533 201 179 137 0
9.8696 14.6250 -27.0362 -0.719 -0.468 -0.514 198 176 130 0
4.3931 11.0626 -23.8904 -0.761 -0.498 -0.416 196 175 129 0
-0.0320 7.2404 -21.4099 -0.874 -0.462 -0.152 194 171 127 0
2.4667 7.2318 -22.9517 -0.959 0.262 0.110 187 166 120 0
7.0627 8.7290 -25.6890 -0.943 -0.097 0.319 184 165 120 0
11.5643 10.4712 -28.3521 -0.833 -0.537 0.135 181 160 117 0
11.8695 10.2391 -28.5555 -0.170 -0.985 -0.006 179 157 115 0
10.8048 8.2740 -28.0268 0.248 -0.289 0.925 176 153 115 0
10.8839 8.1219 -28.0855 0.386 -0.308 0.870 176 152 114 0
5.8657 4.8822 -25.2013 -0.125 -0.633 0.764 176 153 114 0
13.0859 4.8534 -29.6566 0.298 -0.944 -0.139 158 136 96 0
16.3231 6.0468 -31.5756 0.250 -0.961 -0.115 156 133 98 0
18.4694 5.9089 -32.9084 -0.461 -0.887 0.019 245 245 243 0
18.6548 5.8016 -33.0298 -0.459 -0.888 0.012 254 255 255 0
18.9285 5.7354 -33.2029 -0.347 -0.938 -0.012 254 255 254 0
-41.6268 77.5155 8.5844 -0.565 -0.823 -0.064 255 255 255 0
-42.7959 67.1281 8.6461 -0.892 -0.404 0.201 227 207 177 0
-44.8432 58.6389 9.3718 -0.926 0.203 0.320 229 211 176 0
-41.5117 65.2643 7.7332 -0.989 0.068 0.129 226 209 179 0
-42.4897 60.8639 8.0579 -0.904 -0.325 -0.277 227 208 178 0
-42.3745 60.7485 7.9793 -0.911 -0.318 -0.263 227 206 175 0
-39.9341 63.7611 6.6618 -0.283 -0.832 0.478 229 210 177 0
-40.1087 62.8801 6.7137 -0.311 -0.948 0.071 229 210 177 0
-23.4645 39.9291 -5.0415 -0.887 -0.370 -0.276 239 229 204 0
-23.3774 39.7682 -5.1056 -0.887 -0.370 -0.276 239 229 204 0
0.5140 52.5912 -19.0654 0.074 -0.979 -0.188 226 215 193 0
-8.2137 37.4445 -14.6319 -0.491 -0.823 -0.285 223 212 190 0
-7.4873 37.9585 -15.0484 -0.885 -0.438 0.155 223 212 190 0
-18.6825 24.2427 -8.9977 -0.797 -0.585 -0.147 221 211 186 0
-18.9267 23.7597 -8.8775 -0.888 -0.432 0.157 221 211 186 0
-18.9098 23.5528 -8.9011 -0.883 -0.438 0.170 220 210 185 0
-1.6570 32.9168 -18.9753 0.538 -0.819 -0.199 218 206 180 0
7.2644 39.8503 -24.0515 0.523 -0.831 -0.189 220 208 183 0
-1.9439 25.5040 -19.2698 0.163 -0.713 0.682 214 202 178 0
-10.9003 7.5239 -14.8752 0.514 -0.824 0.237 205 191 162 0
-10.0715 7.9210 -15.3626 0.522 -0.811 0.266 206 191 162 0
-9.3306 8.2535 -15.7996 0.549 -0.712 0.439 207 190 162 0
-8.3512 8.5642 -16.3856 0.520 -0.709 0.476 209 189 162 0
-7.8161 8.7477 -16.7048 0.514 -0.723 0.461 209 189 162 0
-7.3491 8.8825 -16.9850 0.508 -0.760 0.405 209 189 162 0
20.2868 22.7588 -33.1936 0.588 -0.409 0.698 203 181 140 0
4.5620 10.8282 -24.2279 -0.732 -0.560 -0.389 193 170 126 0
5.0973 10.9556 -24.5508 -0.614 -0.771 0.167 193 170 126 0
5.2257 10.8354 -24.6379 -0.721 -0.673 0.165 193 170 126 0
13.0994 11.3821 -29.4728 0.233 -0.342 0.910 183 160 118 0
12.6250 10.7108 -29.2221 0.183 -0.240 0.953 180 157 116 0
12.6968 10.5481 -29.2768 0.183 -0.240 0.953 179 156 115 0
14.4258 10.6822 -30.3377 -0.725 -0.051 0.687 176 152 113 0
14.0776 10.2902 -30.1472 -0.699 -0.070 0.712 177 153 115 0
5.6486 3.9083 -25.3404 -0.768 -0.612 -0.188 173 149 107 0
9.0760 5.3167 -27.3706 0.309 -0.371 0.876 173 148 107 0
14.7278 5.5089 -30.8538 0.281 -0.949 -0.146 157 134 95 0
18.4207 5.9300 -33.1110 -0.461 -0.887 0.019 246 245 243 0
18.6115 5.8250 -33.2356 -0.443 -0.896 -0.017 254 254 255 0
18.7681 5.7038 -33.3402 -0.438 -0.898 -0.051 254 255 255 0
19.4989 5.8506 -33.7828 -0.466 -0.878 0.106 255 255 255 0
-42.5024 61.1263 7.8679 -0.901 -0.327 -0.286 230 211 179 0
-40.1543 63.0553 6.5317 -0.357 -0.922 0.149 229 210 177 0
-40.7581 61.0706 6.7828 0.130 -0.365 0.922 229 211 177 0
-5.8087 46.0266 -15.8264 -0.298 -0.633 0.714 225 214 192 0
-0.3926 52.0168 -18.8127 -0.014 -0.971 -0.238 224 213 191 0
-0.1903 49.3789 -19.1021 -0.823 -0.569 -0.001 226 214 190 0
0.0012 45.2904 -19.4752 0.135 -0.982 -0.131 220 209 187 0
-18.6540 24.3731 -9.2069 -0.758 -0.272 0.593 222 210 186 0
-18.8146 23.9770 -9.1319 -0.937 -0.273 0.219 221 209 185 0
-18.9391 23.6208 -9.0768 -0.877 -0.432 0.211 221 209 185 0
-0.2476 34.0819 -20.0178 0.550 -0.816 -0.179 219 208 181 0
1.5364 35.4820 -21.0370 0.533 -0.822 -0.201 220 210 183 0
6.6338 39.3830 -23.9556 0.524 -0.833 -0.178 221 209 183 0
8.5983 40.9069 -25.0792 0.518 -0.834 -0.190 221 209 183 0
13.7520 9.9644 -30.1992 -0.570 -0.488 0.661 174 150 112 0
7.1053 4.5281 -26.4153 -0.049 -0.425 0.904 171 147 107 0
7.4419 4.3366 -26.6360 -0.084 -0.436 0.896 169 145 108 0
18.3720 5.9510 -33.3138 -0.461 -0.887 0.019 246 245 242 0
18.5702 5.8495 -33.4431 -0.443 -0.896 -0.017 254 254 255 0
18.7751 5.7508 -33.5763 -0.443 -0.896 -0.017 254 255 255 0
-43.6968 65.6415 8.6697 -0.686 0.163 0.709 228 207 176 0
-23.4776 52.9941 -4.6705 0.068 -0.229 0.971 244 233 203 0
-8.4012 55.7519 -13.8780 -0.260 -0.413 0.873 234 224 199 0
-0.2883 54.9256 -18.9730 -0.461 -0.884 0.072 225 216 191 0
-7.5652 43.8222 -15.1219 -0.460 -0.761 -0.457 224 213 191 0
1.6136 53.8406 -20.2215 -0.938 0.199 0.285 223 213 189 0
-18.8837 24.0038 -9.2866 -0.823 -0.197 0.532 221 207 186 0
8.9296 40.4637 -25.5826 -0.970 -0.110 -0.219 218 206 182 0
9.4065 40.6104 -25.8702 -0.908 -0.411 -0.084 218 206 182 0
-0.9945 27.4515 -20.2013 -0.461 0.105 0.881 215 203 179 0
-9.3484 7.9961 -16.1874 0.527 -0.694 0.491 207 189 161 0
15.8666 20.1045 -31.1318 0.496 -0.474 0.727 203 184 148 0
25.7261 19.2593 -37.3139 -0.098 -0.971 -0.220 185 162 121 0
16.2027 12.3834 -31.8093 -0.329 0.268 0.905 182 156 119 0
13.6069 9.9382 -30.3436 -0.570 -0.488 0.661 176 152 113 0
13.6426 9.7559 -30.3769 -0.609 -0.555 0.566 176 152 116 0
7.1923 4.2531 -26.6999 -0.084 -0.436 0.896 169 146 109 0
7.3220 4.1375 -26.7876 -0.070 -0.453 0.889 168 144 106 0
8.5090 4.3776 -27.5111 -0.729 -0.555 0.401 168 144 106 0
8.2848 4.0807 -27.3897 -0.917 -0.398 0.014 167 143 105 0
9.1522 4.3355 -27.9136 -0.763 -0.639 -0.095 165 141 103 0
-41.3147 76.4695 7.6054 -0.907 -0.145 0.396 223 207 173 0
-44.6827 59.9980 8.7303 -0.961 0.203 0.189 223 208 174 0
-0.3912 54.9620 -19.1837 -0.461 -0.884 0.072 225 215 190 0
-0.1376 54.5969 -19.3634 -0.393 -0.825 0.405 225 215 188 0
-0.1498 54.2498 -19.3764 -0.551 -0.829 0.094 226 216 189 0
-6.0981 46.5817 -16.1215 -0.865 -0.501 0.027 225 215 190 0
2.3493 53.5201 -20.9777 -0.275 -0.161 0.948 224 213 191 0
2.1715 52.9892 -20.8983 -0.177 -0.448 0.876 225 214 190 0
1.7083 52.1373 -20.6599 -0.679 -0.633 -0.373 224 214 189 0
1.8746 52.0013 -20.7717 -0.680 -0.633 -0.370 224 214 189 0
1.8547 51.6555 -20.7798 -0.237 -0.959 -0.154 224 214 189 0
0.0433 45.6043 -20.0086 0.151 -0.979 -0.138 222 209 188 0
0.8487 46.1662 -20.4774 -0.161 -0.926 -0.343 222 208 188 0
8.7648 40.4280 -25.7528 -0.927 -0.200 -0.318 218 206 182 0
9.3596 40.6824 -26.1087 -0.939 -0.229 -0.256 217 205 181 0
10.0768 35.7115 -26.8501 -0.821 -0.554 0.139 214 203 181 0
-5.5065 9.0031 -18.7149 0.553 -0.749 0.364 200 185 156 0
16.1384 12.6139 -31.9969 -0.101 -0.019 0.995 185 160 120 0
12.5300 9.2088 -29.9486 -0.812 -0.198 0.550 177 153 117 0
5.6882 4.0639 -25.9873 -0.640 -0.758 0.125 172 147 110 0
6.9155 4.1555 -26.7471 -0.407 -0.486 0.773 169 146 109 0
7.0207 4.0277 -26.8202 -0.273 -0.381 0.883 168 144 108 0
7.6940 4.1902 -27.2304 -0.665 -0.653 0.364 167 143 105 0
8.4094 4.3717 -27.6657 -0.769 -0.538 0.345 167 143 105 0
-41.4380 76.4709 7.4418 -0.787 -0.175 0.591 223 207 174 0
-41.7389 75.0490 7.5479 -0.879 0.027 0.477 223 208 173 0
-44.9331 57.0498 8.5063 -0.688 0.129 0.714 228 209 177 0
-9.1193 53.1267 -14.1104 -0.553 -0.258 0.792 234 224 204 0
-11.1723 46.9603 -13.1827 -0.993 -0.093 0.069 228 220 199 0
-6.8534 49.8669 -15.7151 -0.058 -0.233 0.971 228 216 197 0
-1.2597 55.0806 -18.9113 -0.474 -0.844 0.251 226 216 191 0
-0.9346 55.1388 -19.1112 -0.533 -0.805 0.262 226 216 191 0
3.7526 54.6083 -22.0722 0.727 -0.512 0.457 223 212 190 0
-2.9600 38.2449 -18.8198 -0.072 -0.858 0.509 218 206 184 0
10.7456 36.6573 -27.4799 -0.279 -0.101 0.955 213 202 180 0
9.9252 35.6863 -27.0230 -0.802 -0.213 0.558 213 202 180 0
6.4741 19.0155 -25.8274 -0.037 0.017 0.999 202 188 161 0
-11.2133 6.6512 -15.4830 0.494 -0.782 0.380 201 189 161 0
-10.3098 7.0933 -16.0223 0.474 -0.846 0.244 201 188 160 0
-9.7096 7.3248 -16.3842 0.474 -0.846 0.244 200 186 158 0
-7.3731 8.3649 -17.7849 0.517 -0.798 0.311 200 186 157 0
-4.1916 9.5592 -19.7050 0.548 -0.762 0.345 198 184 156 0
15.4163 20.1876 -31.3503 0.235 -0.963 0.128 203 184 154 0
15.6727 12.8332 -31.9350 -0.090 -0.001 0.996 184 161 120 0
16.7700 12.3846 -32.6469 -0.770 -0.586 0.252 180 155 115 0
16.5553 12.0568 -32.5316 -0.939 -0.341 -0.051 179 154 114 0
20.0139 13.7260 -34.5975 -0.876 -0.479 -0.056 178 154 115 0
12.7284 9.5675 -30.2827 -0.690 0.027 0.724 177 153 115 0
12.3331 9.1541 -30.0595 -0.774 -0.167 0.611 177 153 117 0
6.4886 3.9804 -26.7041 -0.954 -0.278 -0.117 170 146 110 0
8.2982 4.7284 -27.7922 -0.558 -0.826 -0.082 169 145 107 0
8.3979 4.5949 -27.8623 -0.818 -0.499 0.288 167 143 105 0
27.2497 13.1242 -39.1560 -0.717 -0.692 -0.085 163 140 99 0
19.7101 6.3227 -34.8348 -0.400 -0.912 -0.094 254 255 255 0
-42.1358 77.8619 7.7165 -0.552 -0.834 0.011 255 255 255 0
-41.5174 76.6053 7.2582 -0.814 -0.196 0.547 224 207 173 0
-41.2151 75.9642 7.0326 -0.569 0.160 0.807 224 207 174 0
-44.7878 62.0785 8.4918 -0.649 0.136 0.749 224 209 175 0
-44.9777 60.6443 8.5303 -0.666 0.146 0.732 226 207 177 0
-44.3948 60.9951 8.1845 -0.164 -0.806 0.568 227 210 180 0
-44.8321 58.8935 8.3406 -0.377 -0.112 0.919 226 209 176 0
-25.1646 85.9350 -2.4686 -0.988 0.080 -0.135 234 218 183 0
-6.9652 50.2019 -15.8857 0.018 -0.343 0.939 227 216 193 0
-7.1517 49.6526 -15.7996 -0.057 -0.252 0.966 226 216 194 0
-6.7832 47.2867 -16.1636 -0.749 -0.652 -0.118 226 215 189 0
-7.9815 15.1163 -17.2205 -0.290 -0.155 0.944 207 197 170 0
-9.2268 13.3624 -16.5384 -0.551 0.074 0.831 210 198 172 0
6.2013 18.6777 -25.9111 -0.483 0.177 0.858 201 190 161 0
-10.1680 7.0692 -16.3022 0.474 -0.850 0.231 201 189 161 0
-9.4932 7.3501 -16.7094 0.451 -0.861 0.236 200 186 159 0
-8.7805 7.6537 -17.1391 0.476 -0.849 0.232 200 186 159 0
-7.9906 8.0063 -17.6144 0.460 -0.856 0.236 201 186 160 0
28.3507 20.6997 -39.6824 -0.046 -0.986 -0.159 184 161 120 0
13.8291 11.6516 -31.0877 0.249 -0.264 0.932 183 160 118 0
16.3167 12.4020 -32.6050 -0.276 -0.935 -0.225 180 157 115 0
16.8414 12.4790 -32.9295 -0.762 -0.617 0.196 178 155 113 0
16.1369 11.8833 -32.5214 -0.874 -0.486 0.021 177 153 112 0
18.6100 12.8051 -34.0199 -0.152 -0.885 -0.440 178 155 114 0
4.9609 2.8807 -26.0214 -0.401 -0.901 -0.164 167 144 106 0
5.0585 2.5760 -26.0998 -0.553 -0.807 0.208 165 141 103 0
19.6864 6.3561 -35.0571 -0.400 -0.912 -0.094 254 255 254 0
-42.2317 77.9514 7.5392 -0.556 -0.831 0.016 255 255 255 0
-41.6643 76.5355 7.1051 -0.831 -0.149 0.535 224 206 172 0
-41.9387 75.1852 7.2037 -0.880 0.020 0.474 223 206 174 0
-41.3077 76.5751 6.8831 -0.979 -0.182 0.093 224 208 176 0
-41.2303 76.2896 6.8189 -0.602 0.195 0.774 225 208 176 0
-44.6136 61.1215 8.1157 -0.253 -0.736 0.627 227 209 181 0
-44.8503 59.1444 8.1564 -0.495 0.010 0.869 225 209 176 0
-45.1617 57.0002 8.2348 -0.685 0.124 0.718 225 209 176 0
-27.2254 77.2418 -1.9320 -0.986 0.062 -0.156 243 224 195 0
-12.7049 46.2260 -12.7557 -0.741 -0.092 0.665 230 223 197 0
-0.0620 49.6182 -20.5170 -0.412 -0.911 0.023 221 209 184 0
3.8764 48.8872 -23.0325 -0.264 -0.963 0.058 219 207 185 0
10.3009 23.2088 -28.4754 0.100 -0.995 -0.022 204 192 165 0
11.8607 23.8307 -29.4218 -0.137 -0.973 -0.183 204 192 166 0
6.2130 18.5358 -26.1615 -0.313 0.154 0.937 201 189 161 0
6.8435 18.5247 -26.5585 -0.401 -0.055 0.914 200 186 159 0
27.8591 20.4866 -39.6607 0.154 -0.987 -0.037 184 160 122 0
29.7848 20.8447 -40.8515 0.108 -0.976 -0.191 183 160 119 0
16.1258 11.9319 -32.7536 -0.879 -0.448 0.163 177 154 112 0
21.5036 10.3457 -36.2206 -0.247 -0.890 -0.383 165 141 103 0
22.2983 10.5335 -36.7099 -0.038 -0.887 -0.461 164 140 102 0
20.3980 6.7364 -35.7231 -0.592 -0.794 0.142 254 255 255 0
-41.7697 76.5919 6.9328 -0.835 -0.155 0.528 224 206 173 0
-42.0314 75.2761 7.0278 -0.880 0.020 0.474 224 207 176 0
-37.0116 87.6529 4.5224 -0.727 -0.145 0.671 229 210 182 0
-13.3343 46.1773 -12.6068 -0.723 -0.050 0.689 229 221 198 0
-12.6973 46.6961 -12.9806 -0.734 -0.042 0.678 229 221 198 0
-6.3652 47.1545 -16.9471 -0.880 0.064 0.470 220 207 181 0
2.0970 52.5278 -21.9945 -0.525 -0.758 0.387 221 208 181 0
2.4818 52.3088 -22.2488 -0.395 -0.792 0.465 221 208 181 0
2.5135 52.0185 -22.2842 -0.256 -0.967 -0.013 220 208 181 0
3.1146 52.3651 -22.6446 -0.042 -0.994 0.097 220 209 182 0
8.3397 50.5283 -26.0354 0.326 -0.940 0.099 217 204 181 0
7.8696 49.0915 -25.8156 0.206 -0.934 0.291 217 204 181 0
6.7029 43.0452 -25.4019 0.200 -0.955 -0.219 219 207 181 0
10.6732 23.3123 -28.9540 0.033 -0.980 -0.194 205 192 166 0
11.6508 23.0475 -29.5842 -0.566 -0.824 0.020 202 190 164 0
29.0855 20.7604 -40.6942 0.114 -0.978 -0.177 181 157 119 0
21.2621 10.2748 -36.3213 -0.268 -0.920 -0.287 165 141 103 0
22.0721 10.4708 -36.8214 -0.138 -0.896 -0.421 163 139 101 0
19.3277 8.2811 -35.2082 -0.777 0.093 0.622 159 135 98 0
16.7283 6.4106 -33.6694 0.080 -0.988 -0.130 158 134 96 0
-41.5594 81.4012 6.8064 -0.816 -0.523 0.245 255 255 255 0
-42.4033 78.1959 7.1740 -0.565 -0.825 0.001 255 255 255 0
-41.9966 75.7562 6.7909 -0.809 -0.077 0.582 224 206 176 0
-37.4170 88.5564 4.5585 0.004 -0.652 0.758 227 207 180 0
-37.2901 88.3661 4.4684 -0.629 -0.260 0.733 228 208 180 0
-37.2412 87.9425 4.4156 -0.632 -0.266 0.728 229 209 182 0
-37.0300 87.4387 4.2562 -0.507 -0.139 0.851 230 209 183 0
-43.2812 62.4213 6.9134 -0.782 -0.568 -0.258 228 211 179 0
-6.4354 48.4631 -17.0928 -0.893 0.182 0.411 221 209 183 0
-6.5108 48.0593 -17.0661 -0.887 0.009 0.461 222 208 183 0
-6.4966 47.7648 -17.0903 -0.891 -0.022 0.453 223 209 183 0
-6.2979 47.6919 -17.2196 -0.920 0.014 0.391 222 207 182 0
1.2473 52.6941 -21.7293 -0.300 -0.679 0.670 221 203 176 0
1.9832 52.5500 -22.2017 -0.483 -0.781 0.395 222 206 177 0
2.1994 52.4675 -22.3426 -0.341 -0.810 0.477 223 207 177 0
2.2819 52.2338 -22.4069 -0.392 -0.797 0.460 222 207 177 0
2.2751 51.9003 -22.4198 -0.028 -0.981 0.191 221 206 176 0
2.6364 51.9799 -22.6440 -0.086 -0.995 0.053 222 207 177 0
2.8103 51.8488 -22.7607 -0.519 -0.854 -0.040 222 208 179 0
2.5447 49.3117 -22.7240 -0.688 -0.706 0.168 219 207 182 0
8.1782 50.8227 -26.2060 0.290 0.003 0.957 218 206 181 0
9.8968 49.0570 -27.3833 -0.019 -0.991 0.132 218 204 178 0
6.3974 21.5147 -26.5956 0.441 -0.733 0.518 205 194 166 0
7.1937 14.9938 -27.4359 -0.480 -0.826 -0.297 200 182 162 0
7.8299 14.5502 -27.8609 -0.194 -0.964 0.181 197 181 156 0
4.5756 11.8998 -25.9413 0.070 -0.741 0.668 195 179 153 0
28.3346 20.6447 -40.5038 0.030 -0.936 -0.352 184 160 123 0
29.1457 20.8597 -41.0052 0.030 -0.936 -0.352 181 157 121 0
17.0338 12.7518 -33.7702 -0.698 -0.701 -0.147 180 158 117 0
11.0537 6.9091 -30.2931 0.435 -0.373 0.820 171 147 109 0
21.3058 10.3473 -36.5942 -0.268 -0.920 -0.287 165 143 104 0
21.8314 10.4008 -36.9236 -0.322 -0.889 -0.325 164 141 103 0
22.2727 10.4107 -37.2020 -0.428 -0.869 -0.249 163 140 101 0
19.1294 8.2313 -35.3283 -0.884 0.013 0.468 159 136 99 0
16.6824 6.4339 -33.8748 0.080 -0.988 -0.130 156 134 95 0
18.4440 6.2973 -34.9950 -0.256 -0.950 0.177 246 246 243 0
18.4863 5.7269 -35.0513 -0.351 -0.936 -0.012 255 255 255 0
-42.4269 77.9767 6.9341 -0.552 -0.834 0.029 255 255 255 0
-5.2711 57.3446 -17.6451 -0.158 -0.987 0.001 230 222 203 0
-6.3769 50.2728 -17.2993 0.396 -0.774 0.494 225 213 187 0
-6.4762 49.8310 -17.2585 0.134 -0.961 0.243 224 209 185 0
-6.4967 49.4876 -17.2628 -0.253 -0.790 0.558 224 207 184 0
-6.1558 49.5862 -17.4739 -0.288 -0.036 0.957 224 207 183 0
-6.6463 47.7338 -17.2560 -0.814 0.139 0.564 209 189 165 0
-6.5595 47.5271 -17.3213 -0.812 0.085 0.577 201 179 156 0
-6.5425 47.2375 -17.3467 -0.817 0.071 0.572 196 171 147 0
-1.8530 50.8824 -20.1353 0.435 -0.289 0.853 183 156 128 0
-1.4571 51.0220 -20.3791 0.414 -0.259 0.872 184 157 128 0
-1.0683 51.1513 -20.6190 0.362 -0.196 0.912 186 160 129 0
2.0090 51.7506 -22.5389 -0.200 -0.950 0.241 211 189 153 0
2.4965 51.9725 -22.8367 -0.019 -0.996 0.083 214 192 157 0
2.7395 51.9185 -22.9933 -0.183 -0.974 0.132 217 195 161 0
8.3159 48.8692 -26.6798 0.120 -0.942 0.313 216 201 175 0
8.5160 48.7558 -26.8124 -0.101 -0.368 0.924 217 202 176 0
-11.1713 17.5729 -15.9022 0.402 -0.914 -0.056 212 202 176 0
6.0432 21.3367 -26.6214 0.449 -0.704 0.550 205 194 166 0
9.6040 22.9490 -28.7968 0.326 -0.925 -0.196 204 191 164 0
7.5084 15.0458 -27.8655 -0.446 -0.844 -0.297 199 182 159 0
7.8837 14.8588 -28.1127 -0.367 -0.899 -0.237 197 181 156 0
19.0598 13.2725 -35.2740 -0.383 -0.879 -0.283 178 154 116 0
20.8080 14.0037 -36.3451 0.333 -0.943 -0.009 177 154 115 0
11.0479 5.2327 -30.6007 0.323 -0.908 0.269 163 141 102 0
19.5629 8.4931 -35.8327 -0.915 0.007 0.404 160 138 99 0
19.2792 8.1498 -35.6701 -0.796 0.112 0.594 161 139 102 0
18.3402 6.2929 -35.1683 -0.256 -0.950 0.177 246 246 243 0
-42.6531 78.1964 6.8444 -0.566 -0.823 0.041 255 255 255 0
-42.5299 78.0458 6.7588 -0.562 -0.827 0.027 255 255 255 0
-37.3056 87.4308 3.8963 -0.593 -0.236 0.770 230 208 183 0
-6.6356 56.4160 -17.0995 -0.407 -0.778 -0.478 229 221 198 0
-5.9195 57.0147 -17.5253 -0.182 -0.935 -0.304 229 221 201 0
-8.8774 51.8050 -15.8996 -0.528 -0.646 0.551 229 221 199 0
-7.0721 49.5706 -17.1553 -0.515 -0.485 0.707 224 208 183 0
-6.8464 49.5305 -17.3007 -0.164 -0.445 0.881 220 201 177 0
-6.7414 49.3416 -17.3766 -0.164 -0.445 0.881 215 193 170 0
1.4779 56.6331 -22.2439 0.561 -0.205 0.802 167 135 112 0
1.9506 56.8522 -22.5336 0.636 -0.301 0.710 165 133 110 0
2.6818 56.6862 -23.0062 0.637 -0.338 0.693 170 135 108 0
-0.4136 51.4132 -21.2961 0.416 -0.118 0.902 186 152 114 0
2.9300 52.2809 -23.3783 0.496 -0.538 0.682 193 161 121 0
3.3298 52.3999 -23.6265 0.351 -0.209 0.913 188 159 120 0
2.6615 51.3305 -23.2540 -0.814 0.162 0.558 189 163 125 0
8.1455 48.5170 -26.8752 -0.084 -0.364 0.927 220 204 178 0
5.5949 21.0904 -26.5894 0.435 -0.748 0.501 204 194 166 0
9.5078 22.9586 -28.9845 0.140 -0.900 -0.412 204 191 164 0
18.5079 28.0560 -34.4547 0.433 -0.886 -0.165 202 188 164 0
14.8621 24.7790 -32.2978 -0.448 0.209 0.869 202 187 164 0
16.4781 12.1342 -33.9400 -0.734 -0.483 0.478 178 156 117 0
18.9736 13.2818 -35.4696 -0.553 -0.832 -0.029 178 155 116 0
4.3950 2.9869 -26.7081 -0.665 -0.524 -0.532 169 145 107 0
9.2650 4.5657 -29.7254 0.099 -0.924 0.370 164 142 103 0
9.7962 4.6475 -30.0590 0.043 -0.916 0.398 163 141 102 0
20.1414 9.0329 -36.4184 -0.841 -0.017 0.540 162 140 101 0
19.8097 8.6632 -36.2256 -0.915 0.051 0.400 161 139 100 0
19.4446 8.2790 -36.0124 -0.864 0.053 0.501 159 137 99 0
17.5786 6.7640 -34.9006 -0.916 -0.388 0.104 157 134 99 0
18.3136 6.3253 -35.3889 -0.302 -0.942 0.146 246 246 243 0
18.3603 5.7559 -35.4463 -0.422 -0.906 0.025 255 255 255 0
-42.7741 78.2091 6.6777 -0.562 -0.827 0.027 255 255 255 0
-42.6242 78.1430 6.5790 -0.565 -0.825 0.028 255 255 255 0
-6.7359 56.8028 -17.2903 -0.594 -0.675 -0.438 230 222 202 0
-5.2031 57.7839 -18.2205 -0.068 -0.998 0.012 231 220 202 0
-9.2257 51.8437 -15.9380 -0.335 -0.546 0.768 230 219 196 0
-8.8252 52.0368 -16.1840 -0.417 -0.690 0.591 230 220 195 0
-2.2628 59.1394 -20.0297 0.130 -0.973 -0.191 225 214 192 0
-7.4060 49.3129 -17.2166 -0.924 -0.275 0.265 204 183 160 0
-7.3433 49.0729 -17.2678 -0.925 -0.287 0.249 188 165 142 0
-7.2652 48.8524 -17.3279 -0.568 -0.347 0.746 179 153 130 0
-0.2767 54.3664 -21.5201 0.609 -0.292 0.738 151 115 93 0
-0.0989 54.2426 -21.6392 0.588 -0.230 0.775 153 118 96 0
2.5356 51.9892 -23.4238 0.533 -0.499 0.683 187 147 101 0
2.5856 51.7190 -23.4684 0.386 -0.239 0.891 180 141 98 0
2.8238 51.6590 -23.6230 0.473 -0.387 0.792 172 136 96 0
2.9600 51.1609 -23.7332 0.039 -0.568 0.822 176 144 105 0
5.4519 47.1604 -25.5093 -0.986 -0.169 0.003 207 181 156 0
11.5098 45.7126 -29.4369 0.696 -0.465 0.547 218 203 180 0
3.3105 34.1610 -24.7580 -0.755 -0.279 0.593 219 203 186 0
-4.8916 21.2365 -20.1422 0.492 -0.868 0.064 214 200 174 0
-4.4946 21.1148 -20.4009 0.104 -0.850 -0.516 211 199 175 0
8.0166 15.0698 -28.6563 -0.057 -0.997 0.044 196 183 157 0
6.7756 5.3726 -28.3230 -0.907 -0.047 -0.419 175 149 116 0
8.9999 4.4766 -29.7822 0.290 -0.895 0.338 164 142 103 0
23.9468 10.9704 -38.9981 -0.681 -0.068 0.729 161 140 99 0
19.6756 8.6454 -36.3867 -0.915 0.042 0.402 159 138 100 0
19.1895 8.2014 -36.0980 -0.822 0.074 0.564 159 136 101 0
15.5778 6.0326 -33.8994 0.217 -0.963 -0.158 158 133 102 0
-42.8799 78.2707 6.5032 -0.377 -0.924 -0.060 255 255 255 0
-42.7318 78.1984 6.4053 -0.548 -0.835 0.049 255 255 255 0
-42.5916 78.1008 6.3113 -0.548 -0.835 0.049 133 133 133 0
-42.4512 78.0032 6.2172 -0.548 -0.835 0.049 71 63 56 0
-42.3108 77.9054 6.1230 -0.548 -0.835 0.049 223 206 178 0
-37.5403 87.5463 3.5157 0.438 -0.563 0.701 227 209 181 0
-38.3779 68.3567 3.1751 -0.985 -0.070 0.157 229 215 180 0
-31.5719 73.2744 -0.9480 -0.953 0.148 -0.263 244 225 195 0
-31.7794 72.3330 -0.8584 -0.955 0.142 -0.262 245 226 196 0
-3.3524 58.6182 -19.6426 0.190 -0.961 -0.199 226 215 193 0
-7.4473 49.0987 -17.4613 -0.938 -0.251 0.238 167 137 117 0
-7.6627 48.5171 -17.3503 -0.377 0.026 0.926 156 125 106 0
-1.5557 52.6722 -21.0617 0.552 -0.210 0.807 147 111 89 0
-2.4336 50.3359 -20.6075 0.307 -0.012 0.952 162 123 90 0
5.2676 52.8661 -25.4113 0.632 -0.648 0.426 169 129 96 0
11.4514 45.1704 -29.7126 -0.859 0.033 0.511 218 204 178 0
12.1081 45.4787 -30.1180 -0.826 -0.127 0.549 219 205 179 0
5.9122 36.3267 -26.5778 -0.569 -0.522 0.636 219 203 187 0
-6.0360 20.5981 -19.6634 0.484 -0.875 0.017 214 201 175 0
-3.8984 21.6848 -20.9792 0.001 -0.854 -0.519 213 201 176 0
8.1758 5.5953 -29.4261 -0.918 -0.019 -0.396 173 146 114 0
2.8762 2.2892 -26.1916 -0.839 0.085 0.537 170 146 110 0
3.4049 2.0344 -26.5410 -0.788 -0.433 0.438 167 143 105 0
7.7832 4.0887 -29.2440 0.373 -0.882 0.289 166 142 104 0
15.5319 6.0558 -34.1039 0.217 -0.963 -0.158 157 132 101 0
17.5058 6.8210 -35.3298 -0.916 -0.388 0.104 156 132 100 0
-43.0069 78.2648 6.3391 -0.381 -0.923 -0.054 255 255 255 0
-42.8198 78.3171 6.2216 -0.412 -0.900 -0.141 255 255 255 0
-42.6980 78.1604 6.1367 -0.548 -0.835 0.049 133 133 133 0
-42.5588 78.0590 6.0430 -0.520 -0.852 -0.060 71 62 55 0
-42.4099 77.9875 5.9445 -0.547 -0.835 0.061 222 204 176 0
-42.2803 77.8554 5.8557 -0.529 -0.848 0.017 223 208 178 0
-37.1488 87.9888 3.0159 0.429 -0.827 0.362 227 211 179 0
-38.4943 68.3670 3.0123 -0.894 -0.226 0.388 230 215 180 0
-3.9542 58.0152 -19.5668 -0.976 0.090 0.196 226 214 192 0
-3.9826 57.6290 -19.5657 -0.989 0.053 0.141 224 213 191 0
-3.6440 57.7162 -19.7787 -0.981 -0.188 -0.054 224 213 191 0
-5.5794 49.3071 -18.9100 -0.713 0.292 0.637 137 97 81 0
-6.2412 47.8805 -18.5490 -0.658 0.263 0.705 138 96 78 0
-3.6768 49.3472 -20.1268 0.334 -0.110 0.936 154 113 84 0
-3.3824 49.3748 -20.3141 0.319 -0.020 0.947 156 114 82 0
-3.1637 49.3128 -20.4570 0.420 -0.148 0.896 162 121 86 0
-2.0295 49.6756 -21.1674 0.256 -0.014 0.967 186 148 103 0
-0.6947 50.5720 -21.9828 0.497 -0.286 0.819 192 154 104 0
5.9841 48.6072 -26.3472 -0.855 0.251 0.453 150 110 85 0
12.2341 45.4140 -30.4910 0.628 -0.296 0.720 218 204 177 0
5.8240 37.4659 -26.7361 -0.865 -0.191 0.465 217 202 180 0
6.0351 37.0999 -26.8874 -0.744 -0.343 0.573 217 202 182 0
6.0982 36.8790 -26.9375 -0.744 -0.343 0.573 218 203 184 0
5.7312 36.2733 -26.7292 -0.754 -0.311 0.578 219 203 185 0
5.7957 36.0560 -26.7801 -0.655 -0.456 0.603 219 204 185 0
-5.6543 20.9965 -20.1108 -0.118 -0.835 -0.538 214 202 176 0
-5.3170 21.0520 -20.3243 -0.042 -0.849 -0.526 214 202 176 0
8.7724 4.2657 -30.0889 0.302 -0.881 0.364 164 142 105 0
9.1888 4.2900 -30.3545 0.333 -0.888 0.317 164 142 105 0
10.2004 4.6114 -30.9882 0.404 -0.779 0.480 163 141 103 0
15.4859 6.0790 -34.3088 0.217 -0.963 -0.158 158 134 100 0
-43.1162 78.3158 6.1660 -0.329 -0.941 -0.083 255 255 255 0
-42.9219 78.3915 6.0444 -0.412 -0.900 -0.141 255 255 255 0
-42.8046 78.2201 5.9618 -0.548 -0.835 0.049 133 133 133 0
-42.6606 78.1336 5.8657 -0.520 -0.852 -0.060 71 62 55 0
-42.5171 78.0450 5.7697 -0.547 -0.835 0.061 221 203 176 0
-42.3804 77.9346 5.6773 -0.542 -0.840 0.029 223 208 178 0
-42.2075 77.9369 5.5663 -0.729 -0.679 0.081 223 209 176 0
-37.7011 87.3144 3.0716 0.394 -0.627 0.672 226 209 179 0
-37.5085 87.3225 2.9483 0.392 -0.635 0.666 226 209 178 0
-39.0394 67.7085 3.0962 -0.761 0.206 0.615 230 214 178 0
-39.2069 66.8139 3.1657 -0.744 0.185 0.642 231 215 180 0
-38.4060 67.0921 2.6632 -0.847 -0.189 0.496 231 215 182 0
-8.2229 56.0339 -17.1914 -0.289 -0.950 -0.121 230 222 202 0
-2.9938 58.3753 -20.4499 0.241 -0.412 0.879 225 208 186 0
-3.7403 55.0117 -20.1138 0.249 0.155 0.956 141 106 91 0
-4.1954 53.1033 -19.9027 -0.100 0.269 0.958 132 94 79 0
-4.3882 52.5346 -19.8031 -0.111 0.258 0.960 132 90 76 0
-4.1537 52.4925 -19.9555 -0.005 0.135 0.991 132 89 75 0
-6.0304 48.5985 -18.9161 -0.692 0.225 0.686 136 90 75 0
-6.3764 47.8681 -18.7250 -0.673 0.262 0.692 138 90 74 0
-5.2870 47.9125 -19.4227 0.315 -0.188 0.930 149 102 78 0
-4.4126 48.3152 -19.9671 0.325 -0.028 0.945 158 111 83 0
-4.0966 48.3708 -20.1677 0.424 -0.154 0.893 160 114 83 0
-1.8964 49.3405 -21.5394 -0.099 -0.282 0.954 186 144 102 0
2.1053 50.6558 -24.0533 0.608 -0.581 0.541 138 93 70 0
2.5457 50.8207 -24.3291 0.564 -0.541 0.624 136 91 69 0
3.2318 51.2540 -24.7513 0.581 -0.415 0.700 135 89 68 0
6.1414 49.2262 -26.7062 0.073 -0.083 0.994 147 99 79 0
6.2773 49.0495 -26.8010 0.138 -0.230 0.963 143 95 74 0
11.0337 43.8138 -30.0785 -0.956 -0.282 0.077 218 204 177 0
6.5086 37.9189 -27.4235 -0.384 -0.024 0.923 215 202 178 0
6.4177 37.5560 -27.3805 -0.571 -0.422 0.704 215 202 179 0
-6.2465 20.3674 -19.9794 0.373 -0.830 0.414 214 202 176 0
-1.5472 22.3904 -22.9112 -0.267 -0.700 -0.662 210 198 174 0
15.2156 25.5885 -33.5402 -0.480 0.244 0.842 205 192 168 0
13.6740 16.8227 -32.9234 0.231 -0.526 0.818 195 178 155 0
13.7690 16.6583 -32.9915 0.251 -0.537 0.806 194 178 154 0
15.3882 6.0770 -34.4819 0.222 -0.963 -0.153 160 136 100 0
17.9290 6.3226 -36.1031 -0.701 -0.704 0.115 246 246 243 0
18.2102 6.2587 -36.2865 -0.658 -0.747 0.093 254 255 254 0
18.6180 6.0558 -36.5570 -0.698 -0.698 0.160 255 255 255 0
-43.2367 78.3313 5.9984 -0.350 -0.934 -0.079 255 255 255 0
-43.0241 78.4660 5.8670 -0.412 -0.900 -0.141 255 255 255 0
-42.9085 78.2889 5.7853 -0.523 -0.851 0.037 133 133 133 0
-42.7621 78.2097 5.6878 -0.529 -0.846 -0.063 69 61 54 0
-42.6153 78.1315 5.5900 -0.551 -0.832 0.073 221 203 175 0
-42.4862 77.9969 5.5014 -0.542 -0.840 0.029 223 208 177 0
-40.6887 81.9691 4.5070 -0.666 -0.713 -0.220 224 207 177 0
-39.6612 83.4656 3.9068 -0.294 -0.867 -0.402 225 208 178 0
-37.8488 87.2810 2.8964 0.377 -0.613 0.694 226 209 179 0
-39.1012 66.4987 2.8496 -0.728 -0.198 0.657 234 215 183 0
-4.7905 60.8315 -19.4766 0.096 -0.994 0.046 231 221 202 0
-3.8706 60.2553 -20.0925 -0.578 -0.743 0.339 226 218 197 0
-4.0920 59.6048 -19.9767 -0.449 -0.576 0.683 225 216 195 0
-3.9906 59.3817 -20.0512 -0.590 -0.516 0.622 227 215 194 0
-8.3879 50.9629 -17.5652 -0.188 -0.982 -0.022 160 132 117 0
-7.7067 51.1775 -17.9950 -0.507 -0.851 -0.137 145 108 95 0
-8.0670 47.5355 -17.9126 -0.519 -0.038 0.854 136 88 76 0
-5.7782 47.1678 -19.4015 0.180 -0.066 0.981 151 100 76 0
-2.7430 49.1475 -21.2747 0.550 -0.691 0.468 161 115 79 0
-2.5596 49.0421 -21.3971 0.553 -0.660 0.509 163 119 82 0
-2.0375 49.3265 -21.7216 -0.102 -0.242 0.965 170 126 89 0
-2.3564 48.3271 -21.5573 -0.321 0.142 0.936 183 139 100 0
-2.3246 48.0490 -21.5892 -0.315 0.114 0.942 187 143 103 0
-2.4711 47.5692 -21.5146 -0.144 -0.363 0.921 188 144 104 0
-2.4414 47.2910 -21.5451 0.463 -0.816 0.346 175 131 93 0
-2.0642 47.4056 -21.7832 0.482 -0.812 0.330 162 119 84 0
-0.4584 48.8989 -22.7560 0.171 -0.920 0.353 153 110 77 0
-0.1649 48.9111 -22.9445 0.089 -0.928 0.363 147 103 75 0
0.3758 49.1979 -23.2808 0.658 -0.463 0.594 140 95 70 0
1.6815 50.0106 -24.0883 0.626 -0.424 0.655 133 86 67 0
2.3495 50.4277 -24.5013 0.308 -0.129 0.943 130 82 65 0
4.5053 50.1977 -25.8989 0.285 -0.327 0.901 144 91 75 0
4.5660 49.9414 -25.9485 0.241 -0.305 0.921 143 87 73 0
5.7149 48.9208 -26.7302 0.095 -0.140 0.986 147 93 78 0
5.8218 48.7150 -26.8075 0.070 -0.198 0.978 143 89 73 0
5.9289 48.5097 -26.8849 0.175 -0.354 0.919 143 91 74 0
5.8618 47.8106 -26.8704 -0.029 -0.573 0.819 144 96 79 0
5.8978 47.5343 -26.9049 -0.013 -0.594 0.804 143 96 80 0
6.2249 47.5560 -27.1146 0.019 -0.623 0.782 145 94 79 0
6.6182 44.8661 -27.4783 0.653 -0.328 0.683 145 104 70 0
7.2892 45.2216 -27.8958 0.674 -0.365 0.642 146 105 70 0
9.9811 47.2380 -29.5464 0.677 -0.359 0.643 164 129 91 0
9.0319 45.3887 -29.0111 -0.370 -0.133 0.919 200 171 131 0
10.5389 45.2978 -29.9853 0.507 -0.756 0.414 214 197 165 0
6.1835 38.0168 -27.4796 -0.361 -0.210 0.908 215 203 177 0
6.4893 38.0135 -27.6767 -0.366 -0.319 0.874 216 204 178 0
12.2004 42.8997 -31.1536 -0.196 -0.494 0.847 215 203 178 0
12.3191 42.7079 -31.2379 -0.196 -0.494 0.847 214 202 177 0
-7.2896 20.0253 -19.5426 0.491 -0.870 -0.037 215 203 177 0
-6.7909 19.9996 -19.8647 0.397 -0.858 0.325 214 203 178 0
-5.9125 20.5038 -20.4096 0.338 -0.877 0.342 212 202 177 0
-5.2605 20.8176 -20.8166 0.330 -0.922 0.204 212 202 178 0
14.2729 24.7674 -33.2325 -0.418 0.220 0.882 206 194 170 0
14.1662 24.4486 -33.1769 -0.422 0.214 0.881 205 193 169 0
14.0778 24.1437 -33.1325 -0.678 0.277 0.681 202 190 166 0
13.9277 23.7975 -33.0500 -0.554 0.102 0.826 202 190 166 0
13.8064 18.7757 -33.1781 -0.865 -0.497 -0.063 198 182 157 0
22.1406 20.1580 -38.4880 -0.894 -0.149 0.422 197 176 157 0
8.1147 4.0227 -30.1187 0.292 -0.840 0.457 164 141 107 0
10.8402 4.8339 -31.8405 -0.163 -0.977 -0.138 162 140 102 0
23.8071 10.8904 -39.9415 -0.948 -0.269 0.168 158 136 97 0
23.9565 10.7496 -40.0435 -0.925 -0.328 0.190 159 137 99 0
15.3338 6.0963 -34.6822 0.222 -0.963 -0.153 158 135 98 0
17.8753 6.3424 -36.3086 -0.701 -0.704 0.115 246 246 243 0
18.1578 6.2790 -36.4931 -0.658 -0.747 0.093 254 255 254 0
18.4048 6.1981 -36.6555 -0.700 -0.698 0.148 254 255 255 0
18.7412 6.1591 -36.8737 -0.702 -0.701 0.125 255 255 255 0
-43.3461 78.3827 5.8249 -0.390 -0.918 -0.069 255 255 255 0
-43.1267 78.5401 5.6894 -0.402 -0.909 -0.110 255 255 255 0
-43.0125 78.3577 5.6085 -0.524 -0.851 0.037 133 134 133 0
-42.8671 78.2753 5.5114 -0.534 -0.845 -0.038 68 61 54 0
-42.7232 78.1877 5.4150 -0.551 -0.832 0.073 221 203 175 0
-40.0046 82.2613 3.8207 -0.443 -0.793 -0.417 227 210 180 0
-38.8009 69.9066 2.5553 -0.769 0.213 0.602 229 214 175 0
-10.5215 54.6394 -16.3067 -0.776 -0.477 0.413 232 224 205 0
-6.5247 57.6195 -18.7695 -0.843 -0.533 -0.078 230 219 201 0
-4.6859 59.3573 -19.8880 0.140 -0.833 0.535 225 217 195 0
-4.2281 59.2489 -20.1879 0.199 -0.825 0.530 228 215 193 0
-4.0531 59.1230 -20.3059 0.040 -0.778 0.627 228 214 194 0
-3.8193 59.0735 -20.4587 0.119 -0.803 0.584 227 211 192 0
-3.7694 58.7839 -20.5024 -0.100 -0.852 0.515 230 210 192 0
-4.1010 57.6497 -20.3331 -0.984 -0.172 0.042 213 187 171 0
-8.3114 51.2223 -17.8687 -0.162 -0.987 -0.016 144 109 97 0
-7.9899 51.3058 -18.0730 -0.142 -0.990 0.011 143 105 94 0
-7.4168 51.7070 -18.4271 -0.167 -0.966 -0.198 142 101 90 0
-6.7198 47.1305 -19.0580 0.287 -0.242 0.927 143 87 72 0
-4.0154 47.8182 -20.7769 0.577 -0.605 0.549 156 108 73 0
-3.6279 47.9539 -21.0218 0.615 -0.565 0.550 158 111 76 0
-2.7250 48.3661 -21.5884 -0.306 -0.087 0.948 167 122 87 0
-2.5838 48.2131 -21.6857 -0.245 0.138 0.960 169 124 89 0
-2.5565 47.9299 -21.7145 -0.231 0.138 0.963 173 129 93 0
-2.5833 47.5862 -21.7108 -0.211 0.109 0.971 180 134 99 0
-2.7974 47.0314 -21.5945 0.512 -0.675 0.531 173 128 93 0
-2.5681 46.9803 -21.7445 0.591 -0.645 0.484 163 119 85 0
-1.6319 47.7240 -22.3196 0.572 -0.605 0.554 153 109 77 0
-1.2385 47.8526 -22.5685 0.569 -0.640 0.516 147 103 74 0
-5.0412 41.8159 -20.3519 -0.017 -0.014 1.000 136 83 67 0
3.9089 49.0621 -25.8441 0.236 -0.601 0.763 140 79 70 0
5.4476 48.1485 -26.8737 0.172 -0.441 0.881 144 89 75 0
5.6896 47.4562 -27.0573 0.003 -0.585 0.811 145 94 79 0
5.8761 47.3347 -27.1825 -0.001 -0.576 0.817 141 88 73 0
6.6836 47.2192 -27.7084 -0.420 -0.191 0.887 137 85 68 0
6.7411 46.9655 -27.7556 -0.408 -0.195 0.892 140 90 75 0
6.4738 45.7694 -27.6303 -0.711 -0.054 0.701 141 94 72 0
10.1830 46.9401 -29.9788 0.689 -0.387 0.613 160 124 84 0
8.5865 44.4769 -29.0454 -0.157 0.179 0.971 208 176 137 0
8.5633 44.1517 -29.0433 -0.605 -0.071 0.793 204 176 139 0
9.1041 44.3649 -29.3841 0.475 -0.690 0.546 199 174 138 0
10.9808 41.6182 -30.7043 0.492 -0.468 0.733 213 202 176 0
14.1196 42.3393 -32.7023 -0.652 -0.751 0.103 214 202 179 0
-6.9141 20.1998 -19.9969 0.491 -0.869 0.065 213 201 178 0
-6.3190 20.4724 -20.3704 0.487 -0.872 0.049 213 202 178 0
-5.5840 20.8573 -20.8297 0.487 -0.872 0.049 212 202 177 0
-3.5177 15.9805 -22.3566 0.410 -0.540 0.735 206 194 170 0
14.5964 16.8450 -34.0178 0.022 -0.084 0.996 197 177 157 0
6.4952 3.9771 -29.2958 -0.562 -0.734 -0.382 167 146 109 0
10.8587 4.8885 -32.0770 -0.171 -0.968 -0.182 164 141 103 0
23.9022 10.7736 -40.2660 -0.925 -0.328 0.190 159 138 99 0
15.3219 6.1364 -34.9094 0.225 -0.964 -0.141 158 136 98 0
17.8448 6.3733 -36.5289 -0.711 -0.694 0.109 246 246 244 0
18.1227 6.3077 -36.7110 -0.655 -0.750 0.098 254 255 255 0
18.2559 6.1725 -36.8023 -0.667 -0.726 0.168 254 255 254 0
18.4650 6.0732 -36.9413 -0.715 -0.671 0.199 255 255 255 0
-43.4535 78.4414 5.6500 -0.390 -0.918 -0.069 255 255 255 0
-43.2415 78.5752 5.5179 -0.372 -0.923 -0.097 255 255 255 0
-43.1170 78.4257 5.4316 -0.520 -0.854 -0.015 133 134 133 0
-42.9727 78.3397 5.3349 -0.520 -0.854 -0.015 67 61 53 0
-42.8303 78.2468 5.2393 -0.640 -0.763 0.088 221 203 176 0
-42.7057 78.0973 5.1529 -0.606 -0.792 0.078 224 206 179 0
-42.5475 78.0538 5.0488 -0.665 -0.736 0.124 226 207 178 0
-41.4994 80.2500 4.4537 -0.344 -0.891 -0.296 226 207 180 0
-11.2957 54.4330 -16.0802 -0.326 -0.361 0.874 232 223 205 0
-10.9797 54.1874 -16.2941 -0.495 -0.353 0.794 231 223 204 0
-5.3156 59.4146 -19.7623 -0.325 -0.851 0.412 229 218 200 0
-5.1937 59.2202 -19.8486 -0.325 -0.875 0.360 226 218 197 0
-4.9186 59.2293 -20.0264 0.140 -0.833 0.535 226 216 194 0
-4.7005 59.1618 -20.1701 0.182 -0.824 0.537 227 215 193 0
-4.4749 59.1036 -20.3184 0.162 -0.824 0.544 228 213 192 0
-4.2844 58.9985 -20.4457 0.040 -0.778 0.627 227 212 193 0
-4.0786 58.9131 -20.5822 0.123 -0.802 0.584 227 208 190 0
-3.9815 58.6852 -20.6537 -0.087 -0.854 0.513 214 189 171 0
-4.4269 57.4030 -20.4141 -0.843 0.024 0.537 161 130 116 0
-4.3724 57.1245 -20.4599 -0.821 -0.018 0.570 149 114 102 0
-7.9328 51.8698 -18.3546 -0.007 -0.973 -0.230 140 99 87 0
-7.6520 51.8993 -18.5352 -0.013 -0.978 -0.207 139 97 88 0
-7.1868 52.1622 -18.8265 -0.128 -0.961 -0.246 138 96 86 0
-6.5589 50.3346 -19.3024 0.557 -0.288 0.779 137 87 73 0
-6.2801 50.3552 -19.4821 0.513 -0.218 0.830 140 88 74 0
-7.6403 47.7326 -18.7011 0.407 -0.123 0.905 148 88 76 0
-7.2857 47.8498 -18.9262 0.414 -0.124 0.902 150 89 76 0
-7.2174 47.3058 -18.9911 0.421 -0.136 0.897 146 85 70 0
-6.8654 46.4841 -19.2502 0.291 -0.211 0.933 152 90 70 0
-6.8526 46.1906 -19.2696 0.279 -0.186 0.942 152 91 69 0
-6.7256 46.0329 -19.3579 0.308 -0.198 0.931 152 93 70 0
-6.2275 46.3117 -19.6697 0.420 -0.255 0.871 152 95 69 0
-4.1951 47.4434 -20.9425 0.459 -0.494 0.739 149 98 68 0
-4.0292 47.3231 -21.0545 0.534 -0.493 0.687 150 99 69 0
-3.5005 47.6203 -21.3854 -0.259 -0.203 0.944 152 101 73 0
-3.1200 47.7445 -21.6270 -0.087 -0.203 0.975 154 103 75 0
-3.2291 47.3067 -21.5730 0.146 -0.405 0.903 155 106 76 0
-3.0833 47.1614 -21.6729 0.141 -0.397 0.907 161 112 82 0
-2.9865 46.9604 -21.7432 0.147 -0.403 0.903 165 116 86 0
-2.8243 46.8338 -21.8531 0.577 -0.686 0.444 163 115 85 0
-2.1579 47.2753 -22.2677 0.577 -0.604 0.550 159 111 81 0
-1.8278 47.3348 -22.4791 0.566 -0.638 0.522 153 106 77 0
-5.7676 40.8600 -20.1745 -0.053 0.013 0.998 133 78 62 0
-6.7697 39.1934 -19.5891 -0.743 -0.564 0.360 134 77 64 0
-7.2504 38.1094 -19.3191 -0.505 -0.756 -0.415 138 80 68 0
2.7847 48.0021 -25.4398 0.200 -0.275 0.941 141 78 68 0
3.3229 48.2613 -25.7784 0.534 -0.604 0.592 140 76 67 0
3.7153 48.3628 -26.0286 0.534 -0.604 0.592 143 79 69 0
6.5537 47.5349 -27.8975 0.329 -0.670 0.666 141 86 71 0
6.2489 46.9129 -27.7238 -0.623 -0.467 0.628 140 86 71 0
6.3580 46.7122 -27.8021 -0.467 -0.257 0.846 142 88 74 0
6.5360 46.5811 -27.9223 -0.775 -0.583 0.243 140 87 73 0
6.3244 46.0590 -27.8051 -0.525 -0.444 0.726 139 88 70 0
8.3782 43.7975 -29.2206 0.472 -0.705 0.529 186 152 117 0
13.2760 42.3070 -32.4480 -0.573 -0.463 0.676 215 200 177 0
3.5193 30.7530 -26.5706 -0.095 -0.885 0.455 213 202 177 0
-7.2527 20.0007 -20.0055 0.432 -0.902 0.016 211 199 177 0
-6.5880 20.3320 -20.4232 0.448 -0.893 0.032 211 199 177 0
-5.9511 20.6371 -20.8239 0.448 -0.893 0.032 212 200 176 0
-1.3502 16.1593 -23.9726 0.420 -0.332 0.845 206 193 174 0
14.1809 16.6571 -34.0082 -0.017 -0.046 0.999 195 177 157 0
13.4617 15.9987 -33.5675 -0.812 -0.204 0.547 196 175 156 0
15.2574 15.5245 -34.7481 -0.077 -0.853 0.517 195 175 150 0
10.7359 5.0622 -32.2184 -0.230 -0.905 -0.356 164 141 106 0
23.8576 10.8024 -40.4950 -0.913 -0.380 -0.150 157 138 98 0
