ply
format ascii 1.0
element vertex 831
property float x
property float y
property float z
property float nx
property float ny
property float nz
property uchar diffuse_red
property uchar diffuse_green
property uchar diffuse_blue
property uchar class
end_header
16.6902 6.6090 -40.1076 -0.850 -0.525 0.049 245 245 245 0
16.7201 6.4197 -40.1358 -0.855 -0.485 0.183 254 255 255 0
17.1630 6.3974 -40.4399 -0.884 -0.457 0.104 254 254 255 0
17.2432 6.2282 -40.5016 -0.884 -0.457 0.104 255 254 255 0
-43.9256 79.3969 4.0879 -0.927 -0.321 0.195 255 255 255 0
-43.4973 78.7188 3.7674 -0.815 -0.568 0.113 231 212 187 0
-48.2250 61.0426 6.3240 0.153 0.080 0.985 240 220 193 0
-12.8549 57.0831 -18.1126 -0.430 -0.701 -0.569 230 221 204 0
-13.1023 56.1203 -17.9803 -0.519 -0.663 -0.539 230 220 205 0
-6.9492 61.1356 -22.0090 -0.135 0.451 0.883 214 193 179 0
-9.7162 55.4622 -20.3306 0.062 -0.285 0.957 124 76 74 0
-12.9626 50.6545 -18.2893 -0.749 -0.346 0.565 124 65 66 0
-12.2912 51.1446 -18.7312 -0.550 -0.538 0.639 123 63 63 0
-12.0874 51.0794 -18.8736 -0.604 -0.422 0.676 122 62 61 0
-13.4210 40.6757 -18.3636 0.088 -0.741 0.666 126 46 46 0
-12.1848 39.5359 -19.2568 -0.495 -0.442 0.748 124 44 45 0
-12.1075 39.3473 -19.3171 -0.495 -0.442 0.748 123 43 43 0
-12.5997 37.0106 -19.0704 -0.479 -0.726 0.493 124 40 41 0
-11.1164 34.6015 -20.1826 -0.238 -0.274 0.932 112 48 44 0
-11.0395 34.4211 -20.2424 -0.591 -0.788 -0.175 110 45 39 0
-10.5419 34.1285 -20.5954 -0.242 -0.951 0.190 114 46 43 0
-10.3945 33.7623 -20.7109 -0.045 -0.996 0.080 116 46 44 0
-7.0184 32.2757 -23.0866 -0.224 -0.036 0.974 116 55 49 0
-4.6453 31.5488 -24.7441 -0.966 -0.248 -0.076 111 64 55 0
-4.4081 30.5119 -24.9474 -0.503 -0.850 -0.158 111 65 52 0
0.5274 32.4572 -28.2599 0.478 -0.855 0.202 107 69 54 0
-0.9339 31.0589 -27.3112 -0.260 -0.963 -0.066 107 70 55 0
-0.3318 31.2804 -27.7159 -0.277 -0.961 0.016 109 71 56 0
1.1392 32.1745 -28.6909 0.510 -0.702 0.497 110 71 59 0
9.8184 37.2627 -34.4510 -0.375 -0.672 0.639 125 88 78 0
9.8978 37.0489 -34.5138 -0.620 -0.011 0.784 129 93 83 0
7.6610 34.8221 -33.0650 -0.977 -0.098 0.188 137 109 93 0
6.1091 31.3328 -32.1357 -0.711 -0.643 0.284 211 197 173 0
5.8049 30.8583 -31.9453 -0.512 -0.806 0.297 210 195 172 0
18.1580 19.7608 -40.8586 -0.482 -0.691 0.539 199 181 158 0
18.2660 19.5829 -40.9396 -0.472 -0.688 0.551 199 181 157 0
18.2605 19.3456 -40.9451 -0.491 -0.718 0.493 197 179 155 0
18.8549 14.3916 -41.5463 -0.470 -0.318 0.823 189 169 148 0
19.3363 11.7580 -41.9795 -0.818 -0.445 -0.365 183 162 145 0
19.3789 11.5605 -42.0164 -0.825 -0.441 -0.353 182 162 144 0
15.1511 7.4288 -39.2750 -0.514 -0.737 -0.438 180 159 132 0
15.5986 7.4147 -39.5828 -0.592 -0.794 -0.137 178 154 128 0
11.9072 5.4757 -37.1242 -0.227 -0.974 -0.009 159 138 111 0
12.2792 5.4356 -37.3811 -0.250 -0.968 -0.011 157 136 110 0
12.6212 5.3821 -37.6180 -0.264 -0.964 -0.016 101 88 72 0
12.7325 5.2331 -37.7003 -0.736 -0.677 -0.025 50 48 49 0
16.6262 6.6266 -40.3190 -0.859 -0.509 0.058 246 245 245 0
16.8299 6.3061 -40.4713 -0.852 -0.520 0.059 254 254 255 0
-43.6027 78.7778 3.5942 -0.809 -0.576 0.119 233 214 189 0
-13.9480 50.2413 -17.8914 -0.969 0.111 0.221 124 71 70 0
-12.9653 50.8057 -18.5468 -0.645 -0.602 0.470 123 63 63 0
-10.8300 53.0295 -19.9334 0.000 -0.044 0.999 123 61 60 0
-13.5556 40.6615 -18.5208 0.155 -0.664 0.732 125 42 44 0
-11.9558 40.9771 -19.6103 -0.355 -0.929 0.104 121 41 45 0
-11.6644 41.0062 -19.8099 -0.523 -0.679 0.516 123 42 48 0
-12.8595 37.9134 -19.1031 -0.156 -0.125 0.980 126 40 41 0
-11.6747 37.2606 -19.9432 -0.243 -0.484 0.841 121 40 39 0
-11.3574 37.3108 -20.1598 0.130 -0.854 0.503 123 43 42 0
-11.4250 36.9840 -20.1255 -0.231 -0.410 0.882 124 44 44 0
-11.6342 36.5208 -19.9989 -0.379 -0.411 0.829 123 45 44 0
-10.7978 34.5046 -20.6503 -0.227 -0.951 0.209 107 38 37 0
-10.5829 34.4520 -20.8002 -0.299 -0.953 0.056 107 38 37 0
-10.6567 34.1311 -20.7614 -0.081 -0.620 0.781 110 40 40 0
-10.5419 33.7347 -20.8553 -0.098 -0.991 0.096 118 47 47 0
-9.3490 32.8195 -21.7108 -0.226 -0.437 0.871 118 50 46 0
-9.2259 32.6809 -21.8008 -0.787 -0.240 0.569 120 51 47 0
-8.7382 31.8752 -22.1668 0.287 -0.720 0.632 106 41 36 0
-8.1237 31.6712 -22.5975 0.306 -0.714 0.630 108 46 42 0
-6.0733 31.2015 -24.0267 0.041 -0.968 -0.247 117 64 54 0
-6.0404 30.9833 -24.0575 -0.939 -0.344 -0.024 113 62 52 0
-5.5819 31.1189 -24.3680 -0.869 -0.435 0.237 108 59 50 0
-4.8439 31.4836 -24.8625 -0.505 -0.131 0.853 109 60 51 0
-4.8183 31.2575 -24.8886 -0.503 -0.137 0.854 111 63 55 0
-4.5796 30.4692 -25.0824 -0.488 -0.868 -0.098 107 60 51 0
-0.0396 32.1086 -28.1465 0.507 -0.812 0.289 104 65 53 0
0.4594 31.7422 -28.5037 0.385 -0.537 0.751 105 65 56 0
9.1013 36.5476 -34.2729 -0.381 -0.202 0.902 121 85 77 0
9.6645 36.1569 -34.6753 -0.958 0.104 0.268 132 107 93 0
5.8669 30.9949 -32.2545 -0.608 -0.713 0.348 210 195 171 0
17.9932 19.5042 -41.0336 -0.568 -0.675 0.471 198 180 157 0
17.8501 19.1948 -40.9467 -0.299 -0.882 0.364 196 178 154 0
25.3748 20.1815 -46.0900 -0.180 -0.878 -0.443 193 174 156 0
26.0153 20.2562 -46.5281 -0.180 -0.879 -0.442 192 174 154 0
18.5218 14.2896 -41.5931 -0.447 -0.351 0.823 188 167 148 0
1.6622 5.5522 -30.3140 0.314 -0.246 0.917 189 172 148 0
18.6556 11.5053 -41.7896 -0.401 -0.882 0.246 182 163 146 0
19.1129 11.4933 -42.1049 -0.324 -0.914 0.243 181 162 145 0
22.8328 12.2568 -44.6371 -0.657 -0.690 -0.303 180 162 140 0
23.9654 12.5275 -45.4067 -0.830 -0.445 0.336 180 162 138 0
17.5806 9.1246 -41.1388 -0.904 -0.428 -0.009 178 161 134 0
11.9439 5.5340 -37.3930 -0.317 -0.947 -0.045 162 141 114 0
12.5881 5.4111 -37.8410 -0.533 -0.838 -0.120 102 89 74 0
12.7099 5.2662 -37.9303 -0.736 -0.677 -0.025 52 50 51 0
16.6778 6.4894 -40.6161 -0.855 -0.514 0.067 254 255 255 0
17.0445 6.4361 -40.8706 -0.923 -0.362 0.130 254 254 255 0
-42.8175 80.3431 2.8601 -0.038 -0.891 0.453 239 217 196 0
-49.0423 62.1735 6.5030 -0.045 0.140 0.989 236 218 194 0
-49.6268 59.8288 6.8221 -0.065 0.177 0.982 236 219 194 0
-6.7035 64.5819 -22.6392 -0.313 -0.909 -0.275 231 219 205 0
-6.4510 64.5484 -22.8147 -0.307 -0.912 -0.273 230 219 203 0
-13.0184 50.8974 -18.7725 -0.639 -0.506 0.580 121 61 60 0
-13.1944 37.9580 -19.1170 -0.738 -0.181 0.650 130 44 45 0
-12.7579 37.3497 -19.4403 -0.273 -0.583 0.765 124 38 39 0
-11.6343 36.8962 -20.2323 -0.210 -0.423 0.882 124 44 44 0
-11.7346 36.5389 -20.1759 -0.422 -0.415 0.806 124 44 45 0
-11.7687 35.9897 -20.1722 0.002 -0.402 0.916 117 41 41 0
-10.9109 34.0044 -20.8359 0.160 -0.638 0.754 114 42 44 0
-9.6693 32.6379 -21.7422 -0.323 -0.669 0.669 116 44 44 0
-9.4778 32.5610 -21.8772 -0.799 -0.335 0.499 116 44 45 0
-9.3767 32.4032 -21.9527 -0.832 -0.275 0.482 115 44 43 0
-8.0475 32.3339 -22.8728 0.417 -0.660 0.625 104 39 38 0
-6.0636 31.0627 -24.2883 -0.939 -0.344 -0.024 108 55 47 0
-5.8669 30.9808 -24.4270 0.172 -0.403 0.899 108 55 47 0
-5.3229 31.1859 -24.7951 -0.109 -0.423 0.900 109 57 48 0
-0.4323 31.8965 -28.1458 0.603 -0.645 0.469 102 63 52 0
-0.2560 31.2809 -28.2897 0.425 -0.703 0.570 103 63 54 0
2.7211 32.5711 -30.2985 0.450 -0.883 0.132 108 69 61 0
4.0409 33.3249 -31.1825 0.527 -0.797 0.295 109 71 62 0
9.4376 36.6318 -34.7890 -0.986 -0.086 0.145 114 82 73 0
9.8518 36.6714 -35.0736 -1.000 0.020 0.009 115 86 75 0
9.5269 35.8834 -34.8777 -0.976 -0.039 0.215 126 104 89 0
9.2855 35.4331 -34.7272 -0.957 -0.067 0.283 142 123 108 0
8.9710 34.9308 -34.5282 -0.973 0.149 0.179 191 172 157 0
8.6845 33.9208 -34.3668 -0.937 0.140 0.320 208 192 170 0
9.0884 33.6869 -34.6540 -0.952 -0.302 -0.057 209 194 171 0
5.7494 31.0018 -32.4457 -0.608 -0.713 0.348 210 195 172 0
5.4839 30.5560 -32.2784 -0.447 -0.813 0.374 210 195 172 0
17.5800 19.1174 -41.0410 -0.243 -0.892 0.382 195 177 155 0
-8.0382 4.6065 -23.8779 0.384 -0.821 0.423 197 176 160 0
24.7849 20.1943 -45.9762 0.055 -0.976 -0.213 194 176 156 0
26.3604 20.4917 -47.0532 -0.306 -0.825 -0.476 192 174 154 0
26.5339 20.3323 -47.1786 -0.509 -0.721 -0.469 192 174 152 0
27.3043 20.4667 -47.7057 -0.569 -0.663 -0.487 191 173 151 0
-4.9007 4.4394 -26.0500 -0.978 -0.168 -0.126 190 172 150 0
0.9137 5.4320 -30.0282 0.238 -0.106 0.965 186 169 147 0
18.4671 11.4722 -41.9288 -0.383 -0.884 0.267 183 164 146 0
18.6639 11.3445 -42.0693 -0.383 -0.884 0.267 182 164 145 0
20.7212 11.1681 -43.4959 0.322 -0.671 0.668 181 163 139 0
17.9073 9.3123 -41.6201 -0.925 -0.375 0.060 179 162 135 0
17.5051 8.9310 -41.3562 -0.833 -0.541 -0.114 179 161 135 0
18.5237 9.1553 -42.0513 0.349 -0.544 0.763 177 156 132 0
12.3796 5.5630 -37.9391 -0.555 -0.818 -0.150 158 137 110 0
16.5746 6.6932 -40.7944 -0.845 -0.533 0.036 246 245 245 0
16.3873 6.4148 -40.6751 -0.892 -0.426 0.148 254 255 254 0
-44.2574 79.5361 3.5763 -0.825 -0.556 -0.106 255 255 255 0
-42.3416 81.9983 2.3350 -0.459 -0.830 0.318 238 216 197 0
-42.9200 79.9467 2.6646 -0.276 -0.958 0.081 237 217 196 0
-6.7699 64.6845 -22.8886 -0.307 -0.909 -0.281 230 219 204 0
-8.0315 61.0111 -22.1420 -0.184 0.464 0.866 200 175 162 0
-14.2566 51.0942 -18.1749 -0.562 -0.109 0.820 125 76 73 0
-14.0074 51.0901 -18.3476 -0.741 -0.010 0.671 127 77 75 0
-13.1778 50.8629 -18.9297 -0.646 -0.488 0.586 121 60 58 0
-14.9691 47.2499 -17.8144 -0.182 -0.050 0.982 135 58 54 0
-14.9980 46.9237 -17.8056 -0.253 0.010 0.967 144 61 58 0
-15.0780 46.5394 -17.7636 -0.259 -0.023 0.966 152 63 61 0
-15.9582 43.2517 -17.2677 -0.628 -0.196 0.753 152 56 50 0
-14.4568 40.2326 -18.4113 -0.386 -0.174 0.906 125 39 43 0
-14.4503 39.9701 -18.4249 -0.387 -0.182 0.904 125 40 43 0
-12.9220 37.3046 -19.5750 -0.274 -0.595 0.755 123 37 36 0
-12.0186 36.6370 -20.2234 -0.400 -0.623 0.672 124 43 43 0
-11.9015 36.2337 -20.3184 -0.203 -0.132 0.970 123 44 44 0
-12.0131 35.8678 -20.2538 -0.393 -0.686 0.612 118 41 41 0
-11.8878 35.7321 -20.3452 -0.612 -0.604 0.511 114 38 39 0
-9.9525 32.4892 -21.7970 -0.298 -0.575 0.762 116 41 43 0
-9.7170 32.4520 -21.9613 -0.851 -0.209 0.482 115 41 42 0
-9.2306 31.6487 -22.3257 0.035 -0.867 0.498 104 38 39 0
-7.9397 32.0344 -23.2061 0.147 -0.185 0.972 102 39 39 0
-8.0505 31.6914 -23.1412 0.161 -0.193 0.968 101 39 40 0
-1.5209 30.8851 -27.6894 0.534 -0.827 0.176 100 60 50 0
-0.5647 31.1358 -28.3428 0.387 -0.694 0.608 100 60 52 0
0.1520 31.1925 -28.8370 0.506 -0.742 0.440 103 62 55 0
2.1579 32.2350 -30.1896 0.451 -0.885 0.120 105 68 59 0
3.4725 32.9874 -31.0737 0.502 -0.842 0.198 104 69 60 0
9.6633 36.6312 -35.2337 -0.994 -0.105 -0.017 108 79 71 0
9.7910 36.4543 -35.3282 -1.000 0.023 0.016 111 85 74 0
9.5803 36.0240 -35.1972 -0.945 0.032 0.325 115 93 80 0
9.4603 35.6633 -35.1265 -0.946 -0.054 0.319 122 103 89 0
9.3071 35.2794 -35.0338 -0.996 -0.001 0.087 155 135 123 0
8.9742 33.9648 -34.8487 -0.954 -0.295 -0.057 209 193 171 0
9.1195 33.5410 -34.9639 -0.833 -0.456 -0.313 209 196 173 0
5.7824 30.6095 -32.7549 -0.552 -0.825 0.116 209 197 173 0
7.4721 31.3120 -33.9004 0.101 -0.806 0.584 209 197 173 0
16.5953 18.6638 -40.6530 -0.355 -0.932 0.066 197 180 158 0
16.2857 18.2703 -40.4523 -0.839 -0.027 0.543 197 179 158 0
-9.2049 4.0549 -23.2963 0.119 -0.491 0.863 197 177 159 0
23.6080 19.9096 -45.4648 0.003 -0.949 -0.315 193 175 153 0
24.7501 20.2412 -46.2439 0.058 -0.975 -0.214 193 175 155 0
-2.2916 4.6854 -28.0606 -0.894 -0.402 -0.199 189 171 149 0
15.5204 10.8356 -40.1792 -0.896 -0.158 0.414 185 167 146 0
17.1245 11.1357 -41.2793 -0.438 -0.717 0.542 184 165 146 0
18.3033 9.5302 -42.1508 -0.902 -0.422 -0.085 179 161 139 0
17.7193 8.8608 -41.7696 0.307 -0.609 0.732 170 150 126 0
18.3061 8.6911 -42.1817 0.227 -0.553 0.802 164 141 117 0
16.5016 6.7073 -41.0009 -0.850 -0.523 0.061 246 246 246 0
16.3294 6.4349 -40.8912 -0.902 -0.410 0.135 254 255 254 0
-44.3157 79.7304 3.3738 -0.917 -0.388 0.098 255 255 255 0
-44.2146 79.5420 3.2974 -0.800 -0.580 -0.155 136 136 135 0
-42.5223 81.3860 2.1835 -0.570 -0.745 -0.347 237 216 196 0
-6.7051 65.3108 -23.2124 -0.289 -0.615 0.733 230 221 206 0
-14.2522 51.5649 -18.4272 -0.408 -0.492 0.769 125 73 70 0
-14.3816 51.1000 -18.3528 -0.571 -0.170 0.803 123 73 69 0
-13.2955 50.8781 -19.1141 -0.415 -0.170 0.894 120 57 58 0
-15.4417 46.5518 -17.7671 -0.002 -0.191 0.982 154 67 64 0
-13.0695 37.2759 -19.7203 -0.147 -0.576 0.804 126 40 38 0
-12.1853 36.3313 -20.3654 -0.035 -0.346 0.938 126 45 43 0
-11.9955 36.2579 -20.4996 -0.098 -0.020 0.995 129 48 47 0
-12.0078 35.7306 -20.5085 -0.154 -0.175 0.972 124 46 47 0
-10.2054 32.3671 -21.8708 -0.285 -0.576 0.766 115 41 40 0
-9.5876 32.4242 -22.2978 -0.808 -0.260 0.529 118 44 43 0
-9.4240 32.3217 -22.4148 -0.713 -0.374 0.593 108 37 37 0
-9.2314 31.7506 -22.5674 -0.554 -0.763 0.333 105 38 39 0
-6.7423 32.6743 -24.2648 -0.999 -0.036 -0.006 101 39 40 0
-1.1625 31.0135 -28.1933 0.538 -0.714 0.448 97 57 49 0
-0.9541 30.9273 -28.3408 0.417 -0.715 0.560 95 55 47 0
-0.6083 30.9475 -28.5802 0.346 -0.662 0.665 97 57 49 0
0.1009 31.2485 -29.0626 0.525 -0.792 0.312 101 61 53 0
2.8169 32.5821 -30.9040 0.550 -0.772 0.318 98 65 56 0
3.4746 32.8282 -31.3524 0.544 -0.783 0.302 97 66 57 0
9.8711 36.6164 -35.6679 -0.952 0.221 0.212 106 79 70 0
9.7849 36.2784 -35.6192 -0.899 0.283 0.335 109 85 75 0
9.2261 35.0494 -35.2719 -0.990 -0.036 0.138 169 147 134 0
9.0154 34.6254 -35.1396 -0.950 -0.305 0.065 205 183 170 0
21.5212 28.3832 -44.0275 -0.102 -0.288 0.952 204 189 168 0
10.7627 20.8341 -36.8082 -0.097 -0.966 -0.239 203 188 166 0
-1.4689 11.1408 -28.6371 -0.314 -0.471 0.824 198 183 164 0
16.4812 18.6679 -40.8497 -0.827 -0.128 0.548 196 179 158 0
16.6199 18.5092 -40.9512 -0.847 -0.081 0.525 195 177 158 0
0.2313 5.3858 -30.0075 0.317 -0.254 0.914 187 169 147 0
0.7251 4.8859 -30.3668 0.327 -0.266 0.907 185 167 145 0
15.4449 10.8523 -40.3884 0.150 -0.732 0.665 186 167 146 0
15.9451 10.8674 -40.7352 0.079 -0.704 0.706 187 167 147 0
16.8195 11.0495 -41.3362 -0.412 -0.736 0.537 185 166 146 0
16.9470 8.9955 -41.4926 0.419 -0.647 0.637 177 159 140 0
16.4062 6.7123 -41.1925 -0.764 -0.397 0.508 246 247 246 0
16.2999 6.4665 -41.1269 -0.906 -0.402 0.137 253 255 253 0
-44.3999 79.8526 3.1862 -0.917 -0.384 0.108 255 255 255 0
-44.2877 79.6948 3.1031 -0.800 -0.580 -0.155 136 136 135 0
-6.9189 65.2264 -23.3675 -0.289 -0.615 0.733 230 221 206 0
-14.2010 52.0966 -18.7123 -0.530 0.250 0.811 129 72 70 0
-14.4510 51.4811 -18.5576 -0.769 -0.022 0.639 127 69 67 0
-14.3207 51.3322 -18.6530 -0.779 -0.464 0.421 125 68 66 0
-13.4745 52.0524 -19.2194 -0.116 -0.443 0.889 121 64 64 0
-15.5257 46.0194 -17.9818 0.134 -0.607 0.784 155 58 57 0
-16.4514 43.2475 -17.4247 -0.940 -0.339 0.032 148 50 47 0
-16.4358 42.9861 -17.4439 -0.935 -0.353 -0.020 147 49 46 0
-14.9467 41.8735 -18.5156 -0.120 -0.095 0.988 144 50 48 0
-13.1948 37.2696 -19.8804 -0.378 -0.442 0.814 127 39 37 0
-12.1620 36.7302 -20.6164 0.199 -0.750 0.631 123 39 38 0
-12.4164 36.2214 -20.4553 -0.024 -0.381 0.924 124 40 39 0
-12.3099 36.0672 -20.5343 -0.098 -0.020 0.995 126 41 43 0
-13.4028 33.2421 -19.8626 -0.562 -0.793 0.234 114 37 38 0
-13.1338 33.2485 -20.0497 -0.165 -0.868 0.469 116 40 40 0
-10.1209 32.3001 -22.1770 -0.833 -0.312 0.457 117 43 42 0
-9.7858 32.3519 -22.4086 -0.774 -0.282 0.567 117 43 42 0
-9.2306 31.8542 -22.8108 -0.046 -0.835 0.549 105 37 38 0
-8.7378 32.0396 -23.1481 -0.805 -0.484 -0.344 102 36 37 0
-6.5727 32.4222 -24.6433 -0.979 0.071 -0.190 100 42 39 0
-8.0585 30.9036 -23.6568 -0.965 -0.109 0.240 98 42 37 0
-8.5940 29.7204 -23.3214 0.040 -0.682 0.730 100 41 40 0
-7.3171 29.1014 -24.2298 0.106 -0.983 0.151 104 53 49 0
-5.1814 30.1216 -25.6843 0.295 -0.817 0.496 98 51 44 0
-4.7819 29.9567 -25.9677 0.188 -0.770 0.609 100 53 44 0
-4.5633 29.8886 -26.1220 0.230 -0.832 0.504 99 54 46 0
-1.0322 30.7125 -28.5542 0.349 -0.670 0.655 94 53 47 0
-0.1999 31.1106 -29.1211 0.512 -0.806 0.297 97 56 50 0
0.4813 31.3876 -29.5866 0.555 -0.791 0.255 99 59 53 0
1.4174 31.8578 -30.2234 0.567 -0.776 0.277 99 62 54 0
2.8654 32.7167 -31.2043 0.616 -0.664 0.424 97 63 55 0
9.4141 36.1014 -35.6564 -0.858 0.298 0.418 103 78 68 0
9.6180 35.9821 -35.8021 -0.897 0.285 0.336 107 84 73 0
9.1134 34.7962 -35.4883 -0.958 -0.285 0.022 175 153 139 0
8.9113 34.3793 -35.3607 -0.974 -0.222 -0.040 204 185 170 0
8.8657 34.0792 -35.3384 -0.852 -0.519 -0.072 207 191 171 0
7.3647 31.1623 -34.3855 -0.118 -0.922 0.369 209 197 175 0
10.7684 20.9076 -37.0784 -0.098 -0.968 -0.233 201 188 165 0
-1.4581 11.2032 -28.8731 -0.165 -0.430 0.888 199 182 162 0
15.6936 18.3167 -40.5888 -0.850 -0.054 0.523 195 177 158 0
-9.3111 3.9222 -23.6359 0.384 -0.673 0.632 193 175 155 0
-4.2529 4.3641 -27.1432 -0.966 -0.221 0.136 189 171 149 0
-2.5898 4.6333 -28.2925 -0.930 -0.354 0.101 188 170 148 0
16.3371 6.7281 -41.4024 -0.768 -0.384 0.512 246 247 246 0
16.2101 6.4737 -41.3220 -0.901 -0.417 0.123 253 255 253 0
-44.4623 80.0377 2.9847 -0.908 -0.418 0.031 255 255 255 0
-44.3611 79.8480 2.9084 -0.800 -0.580 -0.155 135 136 135 0
-42.5442 82.0437 1.7059 -0.728 -0.648 -0.224 234 216 195 0
-14.5054 51.5739 -18.7830 -0.838 -0.420 0.349 129 67 67 0
-16.3896 46.3116 -17.6258 -0.026 -0.528 0.849 145 57 55 0
-16.2318 46.2076 -17.7391 -0.026 -0.541 0.841 152 60 55 0
-15.1739 41.7577 -18.6113 -0.087 -0.081 0.993 145 51 47 0
-13.3707 37.2123 -20.0066 -0.378 -0.402 0.834 126 38 36 0
-13.5968 34.1678 -19.9403 -0.567 -0.526 0.634 121 38 44 0
-13.5824 33.9303 -19.9575 -0.566 -0.515 0.644 121 38 45 0
-13.5683 33.1943 -19.9894 -0.550 -0.831 0.086 116 36 41 0
-13.4209 33.0857 -20.0956 -0.550 -0.831 0.086 117 38 42 0
-13.1222 33.1199 -20.3031 -0.485 -0.874 -0.029 118 38 42 0
-11.5621 33.8351 -21.3707 0.327 -0.830 0.451 117 42 44 0
-10.2337 32.3038 -22.3440 -0.812 -0.298 0.501 117 41 41 0
-9.7462 32.4922 -22.6787 -0.636 -0.212 0.742 115 41 40 0
-8.8788 32.0192 -23.2984 -0.844 -0.388 -0.370 104 37 38 0
-6.6964 33.1734 -24.7873 -0.999 -0.012 -0.031 97 34 34 0
-6.8367 32.7997 -24.7005 -0.990 -0.118 -0.077 99 35 36 0
-6.6290 32.7277 -24.8477 -0.984 0.125 -0.124 100 39 38 0
-6.5110 32.5779 -24.9346 -0.984 0.115 -0.133 100 40 38 0
-4.9148 29.9453 -26.1279 -0.790 -0.609 0.078 99 51 44 0
-4.5906 29.9624 -26.3538 0.242 -0.866 0.438 99 53 45 0
-3.0408 30.2189 -27.4279 0.239 -0.954 -0.180 89 51 45 0
-1.8364 30.6755 -28.2550 0.163 -0.980 -0.115 90 51 45 0
-1.1703 30.7001 -28.7193 -0.685 -0.702 -0.194 89 48 43 0
1.6343 31.8670 -30.6421 0.586 -0.678 0.443 92 58 52 0
9.4509 35.9580 -35.9758 -0.932 0.235 0.277 104 78 68 0
9.7522 35.9111 -36.1876 -0.991 -0.103 -0.083 110 85 74 0
9.3652 35.0815 -35.9423 -0.990 -0.139 -0.007 130 107 95 0
9.1334 34.6412 -35.7937 -0.960 -0.277 0.039 164 145 130 0
8.9341 34.2269 -35.6670 -0.862 -0.505 -0.055 203 187 169 0
8.9051 33.9392 -35.6555 -0.949 -0.309 -0.062 204 190 170 0
6.6893 31.0272 -34.1961 -0.071 -0.738 0.671 208 196 174 0
7.1890 31.1287 -34.5419 -0.031 -0.914 0.405 209 197 175 0
4.4909 26.0148 -32.8120 -0.187 -0.855 -0.484 209 197 175 0
-1.3965 11.2938 -29.1444 0.099 -0.439 0.893 199 183 160 0
-1.1880 11.0156 -29.2983 0.136 -0.519 0.844 197 181 157 0
0.7693 9.9095 -30.6979 -0.499 -0.865 0.050 196 176 160 0
14.9622 8.8542 -40.6375 0.497 -0.318 0.807 181 162 146 0
16.2813 6.7494 -41.6216 -0.783 -0.365 0.503 246 247 246 0
16.2227 6.5227 -41.5875 -0.913 -0.393 0.107 253 255 253 0
-44.5460 80.1635 2.7955 -0.898 -0.440 -0.001 255 255 255 0
-44.4347 80.0016 2.7130 -0.800 -0.580 -0.155 135 136 135 0
-42.7640 82.7641 1.6223 -0.685 -0.695 -0.219 234 214 190 0
-8.8190 61.7724 -22.7394 -0.203 0.475 0.856 210 187 173 0
-14.6158 51.5984 -18.9719 -0.811 -0.141 0.568 129 67 65 0
-16.4822 46.0589 -17.8234 -0.010 -0.453 0.892 152 57 55 0
-16.5011 42.3520 -17.9160 -0.931 -0.343 0.124 157 58 61 0
-13.7382 33.8918 -20.0916 -0.544 -0.538 0.644 124 40 47 0
-12.9743 34.1222 -20.6198 -0.199 -0.605 0.771 124 43 50 0
-10.0107 32.3606 -22.7447 -0.065 -0.193 0.979 112 36 37 0
-6.1168 34.2937 -25.4153 0.061 0.172 0.983 104 38 39 0
-6.9106 33.0919 -24.8940 -0.163 0.145 0.976 98 34 36 0
-6.9826 32.7773 -24.8525 0.060 -0.207 0.976 98 34 35 0
-6.6302 32.8302 -25.0977 0.090 -0.035 0.995 99 36 36 0
-6.5059 32.6855 -25.1888 0.107 -0.080 0.991 97 35 36 0
-9.1814 29.4189 -23.4091 0.038 -0.632 0.774 96 36 36 0
-9.2744 28.3863 -23.3736 -0.025 -0.583 0.812 101 44 43 0
-5.5021 29.8095 -25.9737 -0.826 -0.563 -0.015 94 45 40 0
-5.2926 29.7356 -26.1224 -0.845 -0.485 0.225 96 48 42 0
-2.5113 30.4870 -28.0480 0.295 -0.943 -0.152 88 47 43 0
-1.9350 30.6939 -28.4455 0.167 -0.980 -0.111 88 47 43 0
-1.5254 30.7670 -28.7301 -0.266 -0.936 -0.230 87 46 42 0
-1.2566 30.7283 -28.9194 -0.666 -0.708 -0.233 85 44 40 0
-0.4648 30.8455 -29.4704 0.502 -0.823 0.266 89 52 46 0
0.1253 31.0519 -29.8775 0.553 -0.740 0.384 91 54 50 0
0.8305 31.3442 -30.3629 0.551 -0.724 0.415 87 51 47 0
1.4337 31.5548 -30.7791 0.564 -0.703 0.433 91 56 52 0
8.0189 34.9848 -35.2910 -0.523 -0.850 -0.067 100 72 64 0
9.2287 34.8102 -36.1430 -0.900 -0.430 0.071 128 107 94 0
9.0137 34.3833 -36.0046 -0.854 -0.515 -0.071 184 166 151 0
8.9989 34.1051 -36.0022 -0.832 -0.494 -0.253 204 188 172 0
9.0732 33.8929 -36.0603 -0.842 -0.484 -0.238 204 191 173 0
6.2867 31.0860 -34.1898 -0.039 -0.999 -0.000 206 194 172 0
12.6698 22.6345 -38.8994 -0.005 -0.915 -0.403 199 187 167 0
11.3095 21.3642 -37.9834 -0.267 -0.876 -0.402 200 188 164 0
-1.8264 11.1132 -29.0804 0.133 -0.424 0.896 197 182 159 0
-1.6312 11.0249 -29.2196 0.028 -0.547 0.837 196 182 157 0
-8.7151 6.9513 -24.3769 -0.768 -0.535 -0.353 195 181 155 0
1.0990 10.1352 -31.1562 -0.323 -0.912 0.253 195 176 159 0
-0.3809 4.8696 -30.2705 -0.634 0.320 0.704 189 167 153 0
-0.1193 4.8102 -30.4553 -0.964 0.077 0.254 188 166 151 0
0.9855 5.1419 -31.2193 0.155 -0.567 0.809 186 165 150 0
15.1877 10.4658 -41.0093 0.267 -0.139 0.953 183 163 144 0
11.9148 8.3764 -38.7778 0.471 -0.324 0.821 183 162 143 0
15.9402 6.8566 -41.6391 -0.748 -0.642 0.166 51 50 51 0
16.1672 6.7469 -41.8011 -0.783 -0.365 0.503 246 247 246 0
16.1610 6.5414 -41.8026 -0.804 -0.550 0.228 253 255 253 0
-44.7108 80.5391 2.6694 -0.849 -0.521 -0.083 255 255 255 0
-44.6275 80.2963 2.6044 -0.800 -0.580 -0.155 255 255 255 0
-44.5085 80.1556 2.5171 -0.800 -0.580 -0.155 136 136 136 0
-44.3895 80.0149 2.4298 -0.800 -0.580 -0.155 70 63 58 0
-44.1751 79.6672 2.2699 -0.835 -0.542 -0.093 231 214 189 0
-45.4418 75.2047 3.0384 -0.490 -0.852 -0.184 235 216 193 0
-46.4018 50.7712 3.0517 -0.305 0.034 0.952 238 226 212 0
-14.0470 53.4008 -19.5896 -0.729 0.072 0.680 148 86 86 0
-16.8927 46.0099 -17.7918 -0.006 -0.435 0.900 150 54 56 0
-17.0631 42.9650 -17.7546 -0.462 -0.726 0.509 138 42 44 0
-16.9641 42.7989 -17.8285 -0.545 -0.703 0.457 138 42 44 0
-15.6151 35.4436 -18.9744 -0.000 -0.747 0.665 126 35 40 0
-13.9556 33.7938 -20.1839 -0.532 -0.620 0.577 126 42 48 0
-11.8083 29.8871 -21.7969 -0.074 -0.927 0.367 108 36 39 0
-9.4783 31.6988 -23.3836 -0.458 -0.840 0.291 103 34 35 0
-7.2361 33.1657 -24.9178 0.130 0.138 0.982 98 33 34 0
-7.2167 32.6784 -24.9446 0.328 -0.071 0.942 97 31 33 0
-9.6006 29.1612 -23.3663 -0.088 -0.389 0.917 95 35 35 0
-9.5907 28.9305 -23.3795 -0.150 -0.341 0.928 91 32 31 0
-8.3983 28.9739 -24.2153 0.108 -0.985 0.135 102 46 45 0
-6.7518 29.3712 -25.3604 -0.058 -0.874 -0.482 105 54 50 0
-5.8594 29.6151 -25.9803 -0.614 -0.709 -0.347 92 43 39 0
-5.5112 29.6544 -26.2236 -0.683 -0.657 -0.319 92 43 38 0
-4.6555 29.6128 -26.8254 0.439 -0.898 -0.014 93 46 42 0
-2.6588 30.4661 -28.2040 0.295 -0.943 -0.152 89 45 44 0
-2.0726 30.6814 -28.6097 0.171 -0.979 -0.110 88 46 44 0
-1.6413 30.7720 -28.9100 -0.120 -0.960 -0.254 86 44 42 0
-1.2660 30.8168 -29.1723 -0.663 -0.709 -0.239 86 45 43 0
-0.8804 30.6180 -29.4483 0.503 -0.803 0.321 88 51 45 0
-0.3807 30.7557 -29.7954 0.473 -0.815 0.334 89 50 47 0
0.1737 30.9334 -30.1798 0.453 -0.696 0.556 86 48 45 0
0.5447 30.9675 -30.4392 0.453 -0.696 0.556 89 53 49 0
1.3794 31.3554 -31.0147 0.550 -0.682 0.482 93 58 54 0
7.8520 34.9595 -35.4609 -0.518 -0.853 -0.061 98 69 63 0
9.4523 35.8888 -36.5591 -0.883 -0.341 -0.324 100 71 65 0
9.4252 35.0545 -36.5626 -0.986 -0.165 0.014 117 94 82 0
9.1737 34.5994 -36.3984 -0.949 -0.301 -0.094 151 132 118 0
9.0335 34.2282 -36.3101 -0.834 -0.486 -0.261 201 185 169 0
9.1577 34.0518 -36.4020 -0.830 -0.488 -0.269 203 190 172 0
9.2334 33.8402 -36.4609 -0.673 -0.575 -0.465 204 191 172 0
6.1560 31.0841 -34.3751 -0.003 -0.999 0.051 206 194 172 0
7.5316 31.8184 -35.3209 -0.626 -0.771 0.115 208 196 174 0
-1.7370 11.0231 -29.3768 0.066 -0.604 0.795 193 181 157 0
0.9441 10.1083 -31.2836 -0.296 -0.902 0.313 194 175 158 0
-3.4104 4.1981 -28.3866 0.468 -0.469 0.749 188 169 152 0
12.6702 7.9470 -39.5735 0.496 -0.403 0.769 166 147 130 0
13.0754 7.9212 -39.8587 0.496 -0.403 0.769 163 144 128 0
13.5212 7.9118 -40.1719 0.498 -0.471 0.728 166 147 131 0
14.8724 8.0863 -41.1157 0.429 -0.782 0.452 171 153 133 0
16.2266 8.2530 -42.0618 0.266 -0.951 0.157 174 153 132 0
15.7634 7.6447 -41.7531 -0.659 -0.714 0.235 176 152 128 0
15.4987 7.3288 -41.5758 -0.685 -0.712 0.153 175 151 127 0
15.6366 7.1825 -41.6765 -0.675 -0.723 0.147 172 149 124 0
15.8768 6.8750 -41.8534 -0.748 -0.642 0.166 51 50 51 0
16.0530 6.7443 -41.9807 -0.783 -0.365 0.503 247 247 246 0
16.0650 6.5462 -41.9944 -0.816 -0.535 0.219 253 255 253 0
-44.8173 80.6018 2.4934 -0.847 -0.530 -0.051 255 255 255 0
-44.7109 80.4246 2.4139 -0.837 -0.543 -0.072 255 255 255 0
-44.5801 80.3172 2.3191 -0.829 -0.552 -0.096 136 136 136 0
-44.1157 79.7187 1.9769 -0.852 -0.517 -0.086 234 216 193 0
-14.0079 53.9322 -19.8752 -0.736 0.074 0.673 144 83 83 0
-14.2121 53.3603 -19.7461 -0.726 0.063 0.685 135 73 73 0
-14.2456 53.0032 -19.7316 -0.778 -0.625 0.060 130 65 65 0
-17.2548 42.8842 -17.8716 -0.546 -0.711 0.444 135 39 41 0
-17.1282 42.7498 -17.9642 -0.542 -0.707 0.455 135 40 41 0
-17.0375 42.5745 -18.0326 -0.553 -0.704 0.446 137 42 44 0
-16.8112 42.5531 -18.1924 -0.652 -0.623 0.433 139 44 46 0
-15.6925 35.7386 -19.1538 -0.144 -0.868 0.475 128 37 45 0
-15.7173 35.4574 -19.1435 -0.093 -0.792 0.604 123 33 41 0
-14.4456 34.6907 -20.0583 -0.030 -0.451 0.892 121 34 43 0
-8.3037 32.5868 -24.4355 0.325 -0.059 0.944 100 31 34 0
-8.0901 32.5235 -24.5875 0.322 -0.075 0.944 100 32 34 0
-7.5600 31.9840 -24.9744 0.276 -0.044 0.960 94 30 31 0
-9.7922 28.6187 -23.4890 -0.203 -0.382 0.902 93 35 34 0
-6.7636 29.4577 -25.5995 -0.096 -0.950 -0.296 99 50 45 0
-6.3501 29.5540 -25.8881 0.101 -0.966 -0.237 96 47 43 0
-5.8410 29.7263 -26.2421 -0.622 -0.701 -0.349 91 41 39 0
-5.4946 29.7641 -26.4850 -0.683 -0.657 -0.319 88 38 35 0
-5.3926 29.6027 -26.5609 -0.422 -0.866 -0.268 90 40 37 0
-2.0897 30.7642 -28.8563 0.213 -0.977 0.018 87 43 42 0
7.1098 34.5012 -35.2367 -0.433 -0.813 0.389 96 67 61 0
7.8491 34.7885 -35.7497 -0.614 -0.787 -0.060 97 68 62 0
8.2225 34.7992 -36.0123 -0.604 -0.797 -0.004 99 71 65 0
9.0624 35.1554 -36.5944 -0.982 -0.187 0.022 105 78 70 0
9.3047 35.0648 -36.7673 -0.965 -0.254 -0.063 108 83 74 0
9.3604 34.8359 -36.8124 -0.966 -0.253 -0.062 116 95 83 0
9.2807 34.5078 -36.7646 -0.944 -0.309 -0.117 168 150 137 0
9.1801 34.1658 -36.7026 -0.846 -0.465 -0.260 201 184 169 0
-8.5957 6.2269 -24.9029 -0.038 -0.927 -0.374 193 178 159 0
0.6821 10.2215 -31.3318 -0.173 -0.983 0.068 195 176 162 0
0.9233 10.1515 -31.5034 -0.251 -0.923 0.290 194 175 160 0
0.9869 9.9883 -31.5524 -0.353 -0.918 0.183 194 175 160 0
-9.6370 3.7690 -24.2327 0.362 -0.844 0.396 192 174 157 0
-8.2673 4.1244 -25.1878 0.410 -0.758 0.507 190 172 154 0
4.1456 6.1331 -33.8743 -0.878 -0.344 0.331 185 166 149 0
11.2682 7.5800 -38.8512 0.494 -0.416 0.763 169 151 132 0
15.8325 8.1320 -42.0501 0.359 -0.800 0.481 173 152 132 0
16.9342 8.3926 -42.8189 0.322 -0.837 0.443 172 151 130 0
15.6297 7.6343 -41.9200 -0.649 -0.742 0.168 172 150 129 0
15.4189 7.3409 -41.7791 -0.681 -0.719 0.139 171 149 128 0
15.5709 7.2004 -41.8897 -0.675 -0.723 0.147 169 148 127 0
15.7016 7.0509 -41.9855 -0.731 -0.665 0.153 108 95 84 0
15.8113 6.8927 -42.0668 -0.747 -0.648 0.150 51 50 51 0
15.9778 6.7579 -42.1874 -0.665 -0.728 0.168 247 247 246 0
16.0304 6.5762 -42.2290 -0.786 -0.580 0.215 254 255 254 0
-44.8897 80.7635 2.2952 -0.848 -0.526 -0.056 255 255 255 0
-44.7799 80.5952 2.2136 -0.848 -0.526 -0.056 255 255 255 0
-45.1577 76.2290 2.3754 -0.611 -0.792 -0.006 234 216 193 0
-20.6473 53.0353 -15.4832 -0.490 -0.844 -0.219 235 228 212 0
-24.3378 46.8189 -13.0274 -0.210 -0.963 0.171 231 223 209 0
-14.2674 53.4566 -19.9765 -0.729 0.066 0.681 130 69 69 0
-14.1901 53.2365 -20.0364 -0.804 -0.550 0.226 127 62 63 0
-17.2560 42.7421 -18.1242 -0.598 -0.399 0.695 133 37 39 0
-16.9144 42.5737 -18.3695 -0.467 -0.535 0.704 140 44 46 0
-16.8159 42.4068 -18.4430 -0.461 -0.533 0.709 139 44 45 0
-17.0275 41.8902 -18.3060 -0.321 -0.120 0.940 139 45 46 0
-16.9678 41.6814 -18.3532 -0.342 -0.114 0.933 139 43 45 0
-16.7204 40.0442 -18.5671 -0.129 -0.532 0.837 134 35 43 0
-16.6073 39.8978 -18.6505 -0.172 -0.460 0.871 137 38 46 0
-15.8036 35.7438 -19.3176 -0.502 -0.747 0.436 125 35 44 0
-15.2064 35.5794 -19.7431 0.271 -0.936 0.227 119 32 40 0
-14.0540 33.4206 -20.6084 -0.537 -0.673 0.508 147 65 62 0
-8.5891 32.1905 -24.4955 0.314 -0.068 0.947 102 30 34 0
-8.1584 32.3174 -24.7965 0.178 0.056 0.982 101 30 34 0
-8.0578 31.6569 -24.8834 0.255 -0.041 0.966 96 29 31 0
-8.9359 30.6534 -24.2877 -0.832 0.327 0.448 96 30 32 0
-9.8323 28.6814 -23.7022 -0.118 -0.659 0.743 92 33 33 0
-7.4080 29.5077 -25.3937 0.147 -0.973 -0.175 97 46 41 0
-6.8409 29.4907 -25.7944 0.117 -0.676 0.728 94 45 40 0
-6.5964 29.4487 -25.9680 0.237 -0.848 0.474 94 44 41 0
-6.0214 29.6756 -26.3684 0.164 -0.911 0.378 92 42 41 0
-5.8118 29.6026 -26.5182 -0.692 -0.701 0.171 89 38 37 0
-5.5800 29.5469 -26.6831 -0.717 -0.688 -0.113 89 38 36 0
-5.1233 29.6721 -27.0025 0.038 -0.933 -0.358 91 40 39 0
-2.6073 30.9496 -28.7479 0.397 -0.908 -0.137 85 39 39 0
-1.8777 31.0288 -29.2609 0.257 -0.959 0.124 84 40 39 0
-4.0917 29.0317 -27.7461 0.376 -0.906 -0.194 84 41 40 0
-0.9691 30.7402 -29.9092 0.329 -0.394 0.858 85 44 42 0
-0.6726 30.7203 -30.1190 0.318 -0.363 0.876 84 43 41 0
-0.3029 30.7561 -30.3791 -0.022 -0.152 0.988 83 43 41 0
6.1595 33.8848 -34.8657 -0.245 -0.471 0.847 94 65 61 0
8.3480 34.7233 -36.3904 -0.610 -0.792 0.013 100 73 66 0
9.0854 35.0019 -36.9043 -0.849 -0.447 -0.282 101 76 69 0
9.2503 34.8537 -37.0242 -0.954 -0.282 -0.100 108 86 76 0
9.2836 34.6085 -37.0535 -0.944 -0.309 -0.117 130 110 99 0
9.1845 34.2668 -36.9918 -0.847 -0.462 -0.264 189 170 158 0
9.4243 33.9061 -37.1698 -0.816 -0.491 -0.306 205 190 172 0
9.6493 33.8020 -37.3311 -0.854 -0.509 -0.103 205 193 170 0
-4.7146 3.6632 -27.9156 0.458 -0.484 0.746 185 170 149 0
3.9942 6.1098 -34.0044 -0.873 -0.339 0.351 183 164 148 0
7.5270 7.3406 -36.4686 0.508 -0.394 0.766 183 164 149 0
13.8140 7.7246 -40.8972 0.356 -0.900 0.251 171 152 135 0
14.1766 7.6765 -41.1543 0.353 -0.847 0.397 171 152 135 0
15.5842 7.6611 -42.1483 -0.718 -0.685 0.120 167 149 130 0
15.3552 7.3597 -41.9939 -0.681 -0.719 0.139 166 147 129 0
15.4906 7.2122 -42.0930 -0.681 -0.719 0.139 165 145 128 0
15.6337 7.0677 -42.1975 -0.740 -0.658 0.140 105 93 84 0
15.7538 6.9136 -42.2860 -0.740 -0.658 0.140 51 50 51 0
15.8734 6.7594 -42.3741 -0.668 -0.726 0.166 246 246 245 0
15.9734 6.5971 -42.4486 -0.771 -0.601 0.211 254 255 255 0
16.4248 6.5782 -42.7677 -0.759 -0.610 0.225 254 255 255 0
-44.8471 80.7720 2.0114 -0.822 -0.560 -0.098 255 255 255 0
-48.2504 66.6702 4.1031 -0.890 -0.453 0.058 234 219 194 0
-25.5531 46.2100 -12.4235 0.471 -0.774 0.424 233 226 210 0
-19.1682 53.3107 -16.7833 0.481 -0.677 0.557 231 221 209 0
-10.0050 61.6830 -23.0810 -0.354 0.538 0.765 182 155 143 0
-14.4047 53.7685 -20.1448 -0.280 -0.201 0.938 140 75 76 0
-14.3673 53.4976 -20.1774 -0.326 -0.158 0.932 128 64 65 0
-14.3328 53.2239 -20.2079 -0.287 -0.196 0.938 125 60 61 0
-14.5943 52.5837 -20.0373 -0.456 -0.063 0.888 124 57 58 0
-17.3519 42.4920 -18.3124 0.211 -0.975 0.064 135 36 41 0
-15.9136 35.7502 -19.4822 -0.497 -0.755 0.428 121 33 41 0
-15.7372 35.6730 -19.6088 -0.509 -0.829 0.231 119 32 40 0
-15.3086 35.3375 -19.9197 -0.186 -0.961 0.205 123 34 43 0
-14.3523 33.7458 -20.6325 -0.502 -0.594 0.629 138 48 52 0
-8.6224 31.2710 -24.7440 -0.269 -0.047 0.962 97 28 31 0
-9.1157 30.3548 -24.4155 -0.811 0.320 0.490 96 30 32 0
-10.0001 28.6364 -23.8281 -0.106 -0.707 0.700 90 31 31 0
-7.5502 29.4868 -25.5431 0.336 -0.942 -0.014 96 45 41 0
-6.9362 29.2663 -25.9827 0.212 -0.793 0.571 92 43 39 0
-6.4377 29.4320 -26.3319 0.334 -0.808 0.485 91 41 40 0
-5.7283 29.7670 -26.8265 0.288 -0.597 0.749 87 37 37 0
-5.3249 29.8501 -27.1102 0.109 -0.955 -0.277 87 36 35 0
-4.9819 29.8826 -27.3522 0.042 -0.935 -0.352 87 37 36 0
-2.7415 30.9398 -28.9143 0.437 -0.896 -0.079 83 37 37 0
-1.5826 30.6068 -29.7421 0.459 -0.701 0.545 85 43 41 0
-1.2730 30.5989 -29.9614 0.359 -0.411 0.838 83 42 40 0
-0.9263 30.6187 -30.2064 0.380 -0.607 0.698 83 42 40 0
-0.7448 30.5093 -30.3373 0.097 -0.094 0.991 82 42 40 0
-0.7135 30.2834 -30.3645 0.053 -0.140 0.989 85 46 43 0
-0.9197 29.8754 -30.2278 0.517 -0.462 0.720 86 48 45 0
-0.5835 29.8850 -30.4655 0.543 -0.603 0.585 87 50 47 0
-0.0768 30.0234 -30.8211 0.572 -0.666 0.479 90 56 53 0
8.2389 34.7416 -36.6012 -0.588 -0.757 -0.285 100 72 67 0
8.6862 34.8051 -36.9164 -0.492 -0.794 -0.356 98 73 67 0
9.3090 34.7261 -37.3590 -0.975 -0.216 -0.048 112 90 81 0
9.1730 34.3565 -37.2710 -0.858 -0.509 -0.065 152 132 123 0
9.2519 34.1457 -37.3316 -0.834 -0.541 -0.108 199 180 170 0
9.3977 33.9840 -37.4384 -0.838 -0.537 -0.101 203 187 172 0
9.4232 33.7349 -37.4622 -0.947 -0.094 0.306 202 190 168 0
10.0304 33.9069 -37.8881 -0.282 -0.391 0.876 204 193 169 0
10.2183 33.7743 -38.0241 -0.118 -0.394 0.911 205 194 170 0
-4.6191 15.3302 -27.9365 0.624 -0.509 0.594 205 188 169 0
15.5265 7.6829 -42.3686 -0.718 -0.685 0.120 168 149 133 0
15.3509 7.4036 -42.2506 -0.755 -0.641 0.142 166 147 131 0
15.4394 7.2361 -42.3170 -0.675 -0.723 0.147 165 145 128 0
15.5743 7.0881 -42.4158 -0.740 -0.658 0.140 106 93 84 0
15.6906 6.9323 -42.5016 -0.745 -0.650 0.149 51 50 51 0
15.8037 6.7752 -42.5852 -0.668 -0.726 0.166 247 247 245 0
15.9035 6.6127 -42.6595 -0.823 -0.540 0.175 254 255 255 0
-45.0377 81.0808 1.8987 -0.822 -0.562 -0.094 255 255 255 0
-25.0696 46.1517 -13.0078 0.444 -0.739 0.506 233 223 212 0
-14.1999 57.4515 -20.4861 -0.682 -0.651 0.332 226 217 200 0
-10.7995 60.8438 -22.8286 -0.357 0.539 0.763 163 134 122 0
-14.7515 53.4998 -20.1775 -0.035 -0.176 0.984 144 75 76 0
-14.7316 53.2078 -20.1978 -0.047 -0.160 0.986 130 62 64 0
-14.4022 53.3027 -20.4296 -0.305 -0.009 0.952 127 57 61 0
-18.6435 42.2564 -17.6509 -0.342 -0.601 0.723 138 40 49 0
-18.0919 39.8711 -18.0925 0.170 -0.470 0.866 140 40 46 0
-17.8131 39.9115 -18.2895 -0.624 -0.120 0.772 140 39 47 0
-17.5638 39.9179 -18.4664 -0.594 -0.084 0.800 137 36 46 0
-16.0057 35.7749 -19.6592 -0.400 -0.760 0.513 120 33 41 0
-15.7939 35.7338 -19.8105 -0.677 -0.463 0.572 120 33 41 0
-15.2843 34.9675 -20.1883 -0.780 -0.501 0.374 124 32 43 0
-14.2615 33.1930 -20.9515 -0.170 -0.912 0.372 124 34 36 0
-14.9267 29.8760 -20.5489 -0.121 -0.628 0.768 118 33 38 0
-8.3330 32.3732 -25.1768 -0.904 -0.040 -0.426 100 29 33 0
-4.8242 29.3705 -27.7304 0.538 -0.810 0.232 82 36 37 0
-4.0920 29.7103 -28.2430 0.538 -0.810 0.232 83 37 38 0
-1.7499 30.3219 -29.8926 0.359 -0.411 0.838 82 41 40 0
-1.1244 30.3102 -30.3369 -0.003 -0.156 0.988 82 42 40 0
-0.3071 29.9415 -30.9247 0.465 -0.847 0.259 90 55 53 0
0.3068 30.1600 -31.3559 0.450 -0.862 0.232 90 58 55 0
8.6227 34.8575 -37.1601 -0.824 -0.526 -0.211 98 71 67 0
8.9263 34.8127 -37.3764 -0.921 -0.381 -0.084 101 77 71 0
9.1640 34.4485 -37.5529 -0.875 -0.081 0.477 124 102 94 0
9.2182 34.2191 -37.5961 -0.945 0.022 0.326 181 161 152 0
9.2359 33.9636 -37.6141 -0.943 0.033 0.332 201 184 170 0
9.3659 33.7903 -37.7100 -0.877 -0.141 0.459 201 188 168 0
9.6795 33.7499 -37.9334 -0.292 -0.347 0.891 203 192 168 0
7.7468 31.8272 -36.6019 -0.364 -0.811 0.458 205 193 170 0
4.4137 29.1814 -34.2915 -0.255 -0.680 0.687 207 195 173 0
2.7092 26.9828 -33.1278 -0.394 -0.101 0.914 209 197 175 0
-4.7883 15.0856 -28.0557 0.615 -0.440 0.654 204 189 170 0
15.4687 7.7047 -42.5892 -0.718 -0.685 0.120 167 148 133 0
15.5129 7.5177 -42.6245 -0.683 -0.723 0.102 165 146 131 0
15.6441 7.3675 -42.7208 -0.675 -0.730 0.110 164 144 129 0
15.5148 7.1086 -42.6344 -0.740 -0.658 0.140 106 94 84 0
15.6292 6.9518 -42.7189 -0.747 -0.648 0.150 50 50 51 0
15.7251 6.7875 -42.7904 -0.761 -0.637 0.123 247 247 245 0
15.7857 6.6087 -42.8372 -0.811 -0.559 0.171 254 255 255 0
-44.7313 79.4305 1.3935 -0.751 -0.634 0.184 234 216 194 0
-25.1109 46.2554 -13.2177 0.079 -0.990 0.119 232 223 209 0
-19.5069 52.8852 -17.0775 -0.129 -0.736 0.665 232 223 208 0
-14.2679 57.5408 -20.7159 -0.624 -0.776 0.091 224 214 196 0
-14.0985 57.4293 -20.8386 -0.617 -0.782 0.088 222 205 190 0
-13.9234 57.3249 -20.9653 -0.600 -0.790 0.124 190 165 152 0
-13.7325 57.2403 -21.1028 -0.560 -0.790 0.251 148 116 105 0
-15.5942 52.2917 -19.8740 0.328 -0.363 0.872 134 62 64 0
-15.6926 51.8556 -19.8124 0.317 -0.307 0.897 131 56 59 0
-17.5618 47.7165 -18.5626 -0.008 -0.035 0.999 145 54 55 0
-18.6770 42.0789 -17.8785 -0.454 -0.783 0.425 140 40 50 0
-18.4709 42.0397 -18.0260 -0.462 -0.864 0.200 139 40 47 0
-18.3115 41.6692 -18.1466 -0.135 -0.627 0.767 137 37 43 0
-18.7610 39.5238 -17.8684 0.054 -0.407 0.912 137 37 44 0
-16.6598 39.1523 -19.3713 -0.632 -0.557 0.539 132 34 41 0
-16.1454 35.7510 -19.8036 -0.400 -0.760 0.513 121 34 42 0
-15.9005 35.7439 -19.9781 -0.632 -0.475 0.613 120 33 41 0
-15.3275 34.5312 -20.4095 -0.139 -0.528 0.838 123 31 42 0
-14.2553 33.5611 -21.1916 -0.060 -0.766 0.640 129 35 40 0
-14.1030 33.4568 -21.3020 -0.060 -0.766 0.640 125 33 38 0
-14.0938 33.2148 -21.3133 -0.172 -0.912 0.373 121 30 36 0
-15.4283 29.9936 -20.4261 -0.000 -0.816 0.579 116 34 40 0
-15.2914 29.8814 -20.5257 0.010 -0.694 0.720 117 33 40 0
-15.1478 29.7751 -20.6300 0.010 -0.694 0.720 118 32 39 0
-10.3069 30.9911 -24.0520 -0.765 -0.458 -0.453 103 29 34 0
-8.1791 32.6129 -25.5349 -0.901 -0.043 -0.431 100 29 33 0
-8.7556 31.8573 -25.1393 -0.903 -0.010 -0.429 99 30 34 0
-8.8059 30.3317 -25.1332 -0.764 -0.233 -0.602 93 28 32 0
-7.8840 29.1617 -25.8122 0.046 -0.704 0.709 86 35 33 0
-7.6690 29.0978 -25.9664 -0.467 -0.342 0.815 91 40 39 0
-7.1968 29.2450 -26.2997 -0.286 -0.786 0.549 90 40 39 0
-5.2000 29.8993 -27.7082 0.030 -0.938 -0.344 84 36 36 0
-4.5942 29.1606 -28.1538 0.588 -0.611 0.530 82 36 38 0
-1.6641 30.4849 -30.2136 -0.014 -0.940 -0.341 78 38 38 0
-0.5826 31.0791 -30.9718 0.129 -0.936 -0.327 80 40 40 0
-0.9478 30.5429 -30.7223 0.261 -0.581 0.771 81 41 41 0
-0.6955 30.4878 -30.9030 -0.227 -0.457 0.860 82 42 42 0
-0.7410 29.9525 -30.8810 0.150 -0.622 0.769 85 47 46 0
8.0188 34.7769 -37.0222 -0.599 -0.794 -0.103 93 65 61 0
8.5882 34.9317 -37.4244 -0.826 -0.499 -0.260 96 68 64 0
8.7755 34.8004 -37.5603 -0.903 -0.425 -0.057 97 71 67 0
9.1760 34.5561 -37.8502 -0.784 -0.011 0.621 110 86 80 0
9.1419 34.2614 -37.8316 -0.803 -0.021 0.596 144 122 114 0
9.1440 33.9941 -37.8383 -0.803 -0.021 0.596 193 174 161 0
9.1460 33.7275 -37.8449 -0.803 -0.021 0.596 201 185 167 0
9.3787 33.6289 -38.0125 -0.233 -0.301 0.925 202 189 168 0
4.1853 29.1079 -34.4039 -0.278 -0.679 0.680 207 195 172 0
18.3434 22.4294 -44.6113 -0.460 -0.844 0.275 199 180 165 0
27.4423 19.0152 -51.1542 -0.824 -0.563 -0.058 184 169 148 0
15.5287 7.7765 -42.8931 -0.572 -0.813 0.109 167 148 133 0
15.4639 7.5431 -42.8515 -0.691 -0.713 0.120 164 145 130 0
15.5855 7.3887 -42.9410 -0.675 -0.730 0.110 163 144 128 0
15.7311 7.2443 -43.0475 -0.689 -0.715 0.116 106 94 84 0
15.8629 7.0941 -43.1443 -0.683 -0.722 0.111 50 50 51 0
15.5915 6.7771 -42.9573 -0.824 -0.566 0.004 247 247 245 0
15.7003 6.6181 -43.0378 -0.824 -0.566 0.004 254 255 255 0
-44.7523 80.7011 1.1775 -0.877 -0.475 -0.068 228 211 191 0
-44.8347 79.5011 1.2148 -0.751 -0.634 0.184 232 214 192 0
-13.4370 59.4832 -21.5546 -0.830 -0.276 -0.485 226 218 200 0
-13.3677 58.8966 -21.6145 -0.734 -0.472 -0.487 222 208 191 0
-14.1935 57.4836 -21.0505 -0.609 -0.788 0.089 205 186 171 0
-13.9811 57.4273 -21.2031 -0.603 -0.789 0.116 166 136 125 0
-12.5810 58.5698 -22.1819 -0.264 0.464 0.846 138 92 87 0
-15.9035 52.0676 -19.9271 0.341 -0.384 0.858 139 63 63 0
-15.2427 52.5827 -20.3895 0.312 -0.230 0.922 137 57 60 0
-17.9637 44.7519 -18.5879 -0.670 0.128 0.731 134 38 41 0
-18.8102 42.0633 -18.0319 -0.490 -0.808 0.328 140 40 50 0
-17.4044 43.1299 -19.0162 -0.356 -0.889 0.288 139 40 45 0
-17.5188 42.4373 -18.9470 -0.506 0.306 0.807 140 39 45 0
-18.9911 39.6665 -17.9458 0.037 -0.610 0.791 135 34 42 0
-17.2624 38.8952 -19.1935 -0.401 -0.914 0.063 135 34 45 0
-16.7833 39.1472 -19.5309 -0.628 -0.561 0.539 135 35 43 0
-16.6824 38.7204 -19.6106 -0.602 -0.670 0.434 134 34 44 0
-16.0899 35.9273 -20.0836 -0.566 -0.821 -0.076 125 38 46 0
-15.9744 35.7875 -20.1686 -0.429 -0.358 0.829 124 37 45 0
-14.4614 33.9780 -21.2809 -0.179 -0.711 0.680 132 35 42 0
-14.4555 33.4796 -21.2941 -0.053 -0.771 0.634 130 35 41 0
-10.2257 31.1656 -24.3546 -0.767 -0.466 -0.440 105 28 34 0
-8.0154 32.8619 -25.9018 -0.902 -0.043 -0.429 103 29 34 0
-8.8764 31.6063 -25.3098 -0.913 -0.222 -0.342 99 28 34 0
-8.8335 30.4084 -25.3619 -0.758 -0.271 -0.593 92 27 31 0
-8.0776 29.0979 -25.9249 0.090 -0.689 0.719 86 31 33 0
-7.8451 29.0489 -26.0918 -0.397 -0.358 0.845 87 35 36 0
-7.6642 28.9565 -26.2225 -0.035 -0.737 0.675 88 36 37 0
-6.2509 29.1430 -27.2280 0.525 -0.811 0.256 83 35 35 0
-1.9663 30.5942 -30.2600 0.144 -0.915 -0.378 77 33 33 0
-0.0624 31.5825 -31.6012 0.258 -0.949 -0.184 77 37 37 0
-0.9678 30.3723 -30.9767 -0.225 -0.478 0.849 80 40 40 0
0.2950 30.0888 -31.8831 0.459 -0.852 0.251 89 57 54 0
8.6431 34.8019 -37.7571 -0.865 -0.199 0.461 96 69 65 0
8.9939 34.7914 -38.0077 -0.829 0.009 0.560 100 75 70 0
9.0853 34.5883 -38.0765 -0.489 -0.091 0.868 105 80 74 0
9.0584 34.2985 -38.0625 -0.448 -0.170 0.878 115 91 82 0
8.9708 33.9653 -38.0059 -0.431 -0.060 0.900 167 147 134 0
9.0521 33.7564 -38.0677 -0.430 -0.092 0.898 202 185 168 0
9.1071 33.5287 -38.1111 -0.395 -0.224 0.891 201 188 167 0
9.3551 31.3259 -38.3276 0.059 -0.987 0.150 209 197 177 0
15.5332 34.8236 -42.6745 -0.193 -0.736 -0.649 206 195 175 0
-7.8744 11.7290 -26.3815 0.534 -0.623 0.571 200 186 165 0
-0.9082 14.0573 -31.3120 0.515 -0.651 0.558 199 184 163 0
22.5531 21.0693 -47.9317 0.243 -0.943 -0.228 191 173 152 0
15.4619 7.7946 -43.1085 -0.572 -0.813 0.109 168 147 133 0
15.5267 7.4099 -43.1617 -0.675 -0.730 0.110 165 144 127 0
15.6721 7.2652 -43.2680 -0.689 -0.715 0.116 106 94 84 0
15.8048 7.1152 -43.3654 -0.683 -0.722 0.111 51 50 51 0
15.6293 6.8376 -43.2451 -0.762 -0.634 0.132 247 247 245 0
15.7056 6.6648 -43.3027 -0.756 -0.634 0.165 254 255 255 0
15.9324 6.5540 -43.4666 -0.821 -0.557 0.130 254 255 255 0
16.3839 6.5344 -43.7892 -0.742 -0.665 0.080 255 255 255 0
-44.9383 79.5718 1.0358 -0.751 -0.634 0.184 232 214 192 0
-12.4513 63.7726 -22.4754 -0.461 -0.734 -0.499 232 222 208 0
-12.2135 63.7394 -22.6461 -0.461 -0.734 -0.499 231 222 207 0
-13.2556 59.2252 -21.9743 -0.775 -0.368 -0.513 206 190 174 0
-12.9996 59.2208 -22.1576 -0.618 -0.547 -0.565 171 149 136 0
-15.6645 52.2187 -20.3652 0.339 -0.241 0.909 137 57 58 0
-18.3042 45.3574 -18.5885 -0.930 -0.310 0.197 134 42 47 0
-17.9354 45.2201 -18.8547 -0.732 -0.604 0.315 132 36 41 0
-17.9886 44.8682 -18.8224 -0.684 0.177 0.708 133 36 40 0
-18.8703 42.1327 -18.2362 -0.483 -0.812 0.326 139 39 47 0
-17.3457 43.3385 -19.3077 -0.300 -0.524 0.797 139 36 45 0
-18.1954 41.2476 -18.7338 -0.925 -0.329 0.190 135 34 42 0
-16.8914 39.1590 -19.7014 -0.731 -0.415 0.541 137 36 44 0
-16.8005 38.7210 -19.7736 -0.602 -0.670 0.434 138 35 43 0
-16.6548 38.6104 -19.8798 -0.605 -0.674 0.424 139 39 44 0
-16.5659 38.4388 -19.9462 -0.661 -0.618 0.426 139 41 44 0
-17.2571 34.8474 -19.5104 -0.744 -0.536 0.399 128 39 48 0
-15.9002 35.2100 -20.4756 -0.184 -0.834 0.521 130 40 48 0
-14.5333 33.7685 -21.4776 -0.535 -0.224 0.815 130 34 45 0
-8.9459 31.1522 -25.5196 -0.960 0.263 0.097 97 27 33 0
-8.7057 31.1124 -25.6922 -0.993 0.070 -0.099 97 28 33 0
-8.2817 30.9821 -25.9978 0.285 -0.861 0.421 92 26 33 0
-8.1618 28.6422 -26.1221 0.487 -0.401 0.776 86 36 39 0
-7.5460 28.9084 -26.5584 -0.008 -0.980 0.201 87 37 40 0
-2.0805 30.6008 -30.4424 0.123 -0.896 -0.426 75 34 34 0
8.2596 34.6165 -37.7773 -0.665 -0.382 0.642 95 67 63 0
8.5202 34.5400 -37.9650 -0.788 -0.375 0.487 100 72 68 0
9.0104 34.6323 -38.3144 -0.861 0.286 0.420 100 75 70 0
8.8812 33.9977 -38.2323 -0.472 -0.217 0.854 138 115 107 0
8.8141 33.6802 -38.1895 -0.430 -0.092 0.898 195 175 162 0
8.7887 33.3943 -38.1760 -0.415 -0.082 0.906 203 186 168 0
5.1312 29.7140 -35.6186 -0.569 -0.816 -0.102 204 192 173 0
5.2725 29.5613 -35.7223 -0.581 -0.805 -0.115 205 193 175 0
10.9694 32.2851 -39.7550 -0.997 -0.074 0.012 207 194 176 0
11.5522 32.1593 -40.1742 -0.958 -0.261 -0.119 206 193 176 0
16.8460 21.9837 -44.1301 0.570 -0.668 0.478 201 180 164 0
17.5851 22.1510 -44.6564 0.547 -0.556 0.626 201 179 165 0
3.6727 10.3048 -34.8933 0.376 -0.878 0.295 191 173 157 0
1.8925 6.1222 -33.6877 -0.481 -0.767 0.425 187 168 150 0
0.9381 5.4862 -33.0151 -0.743 -0.241 0.624 185 165 150 0
1.1153 4.2744 -33.1618 -0.827 -0.459 0.326 171 152 137 0
8.0398 6.2372 -38.0857 0.381 -0.842 0.381 172 155 132 0
15.3949 7.8128 -43.3241 -0.572 -0.813 0.109 169 146 131 0
15.4679 7.4311 -43.3826 -0.675 -0.730 0.110 168 145 124 0
15.6131 7.2862 -43.4889 -0.689 -0.715 0.116 108 95 83 0
15.7465 7.1364 -43.5869 -0.683 -0.722 0.111 51 50 50 0
15.7933 6.9505 -43.6234 -0.740 -0.650 0.172 246 246 245 0
15.6424 6.6835 -43.5198 -0.756 -0.634 0.165 254 255 255 0
17.3226 7.1689 -44.7144 -0.839 -0.460 0.289 254 255 254 0
17.3422 6.9700 -44.7317 -0.839 -0.466 0.281 255 255 254 0
-45.0560 79.6025 0.8661 -0.753 -0.629 0.193 232 214 194 0
-12.1739 64.3457 -22.9608 -0.825 0.025 0.564 231 222 207 0
-13.1231 59.5819 -22.3505 -0.645 -0.555 -0.525 186 165 151 0
-18.9324 46.2006 -18.3802 -0.351 -0.259 0.900 139 49 49 0
-18.8150 46.0517 -18.4666 -0.789 -0.129 0.601 139 49 49 0
-18.8533 45.7134 -18.4442 -0.801 -0.096 0.590 135 44 46 0
-18.3359 45.4675 -18.8192 -0.807 -0.289 0.515 134 42 47 0
-18.4686 45.0185 -18.7306 -0.838 -0.471 0.274 133 38 44 0
-17.8804 45.4333 -19.1466 -0.881 -0.440 0.174 132 35 41 0
-18.3788 41.4511 -18.8481 -0.881 -0.443 0.167 139 35 44 0
-18.2351 41.3389 -18.9529 -0.923 -0.334 0.189 137 34 43 0
-18.0941 34.6098 -19.1542 -0.587 -0.087 0.805 125 34 43 0
-17.3145 34.9067 -19.7094 -0.748 -0.531 0.399 128 38 47 0
-15.2072 33.9805 -21.2356 -0.574 -0.288 0.766 133 38 50 0
-12.8878 29.7372 -22.9634 -0.914 -0.404 -0.030 114 31 34 0
-11.6841 29.8396 -23.8258 -0.407 -0.756 -0.513 104 28 36 0
-11.2967 29.9381 -24.1024 -0.400 -0.775 -0.489 104 28 38 0
-8.3003 31.3163 -26.2324 0.080 -0.481 0.873 93 23 31 0
-8.2043 31.1503 -26.3038 0.295 -0.903 0.311 91 25 32 0
-7.5040 31.5014 -26.8011 0.299 -0.924 0.237 90 27 32 0
-6.8033 31.5980 -27.3026 0.690 -0.590 0.420 90 30 35 0
-8.3124 29.8265 -26.2459 -0.628 0.556 0.545 83 24 29 0
-8.6727 27.8382 -26.0169 0.504 -0.849 0.159 82 32 33 0
-2.2069 30.5980 -30.6164 0.223 -0.939 -0.263 75 35 35 0
-0.1682 31.6956 -32.0632 0.523 -0.853 -0.011 75 35 35 0
-1.5027 29.4007 -31.1396 0.419 -0.886 0.197 82 43 42 0
2.9883 31.5566 -34.3308 0.477 -0.876 0.067 86 55 51 0
7.6497 34.2618 -37.6360 -0.505 -0.861 0.061 95 66 63 0
8.2961 34.4733 -38.0969 -0.840 -0.322 0.437 97 69 66 0
8.4788 34.3388 -38.2300 -0.504 -0.687 0.524 98 74 69 0
8.2304 32.8191 -38.0743 -0.856 0.262 0.445 206 189 170 0
7.1416 31.7676 -37.3085 -0.399 -0.847 0.352 205 191 171 0
5.6618 30.1854 -36.2700 -0.688 -0.708 0.158 204 191 174 0
5.4351 29.7681 -36.1135 -0.613 -0.787 -0.066 204 193 175 0
-5.8870 14.2565 -28.2183 -0.531 -0.365 0.765 200 187 170 0
19.1985 19.6972 -46.1415 0.194 -0.933 -0.304 190 177 154 0
3.3320 9.7853 -34.9014 -0.072 -0.825 -0.560 190 171 154 0
8.7946 11.0734 -38.8028 -0.634 -0.699 0.332 188 169 152 0
-2.0550 4.3076 -31.1166 -0.613 -0.783 0.103 188 168 150 0
-1.0751 4.2240 -31.8211 -0.857 -0.506 0.094 181 163 149 0
-0.9364 4.1072 -31.9224 -0.852 -0.521 0.048 177 159 144 0
-0.8381 3.9717 -31.9950 -0.849 -0.526 0.045 169 152 136 0
0.7299 4.3267 -33.1151 -0.943 -0.332 0.012 168 149 134 0
15.4090 7.4524 -43.6039 -0.675 -0.730 0.110 168 146 125 0
15.6882 7.1576 -43.8087 -0.683 -0.722 0.111 51 50 50 0
15.7709 6.9865 -43.8706 -0.734 -0.661 0.155 247 247 245 0
15.6233 6.7205 -43.7687 -0.652 -0.737 0.177 254 255 255 0
15.8434 6.6065 -43.9283 -0.598 -0.761 0.254 254 255 254 0
17.2643 6.9830 -44.9425 -0.839 -0.466 0.281 255 255 254 0
-44.9612 81.2203 0.5644 -0.875 -0.481 -0.058 229 213 190 0
