ply
format ascii 1.0
element vertex 825
property float x
property float y
property float z
property float nx
property float ny
property float nz
property uchar diffuse_red
property uchar diffuse_green
property uchar diffuse_blue
property uchar class
end_header
-21.8044 47.0008 -21.4813 -0.484 -0.045 0.874 123 37 46 0
-21.8210 46.7020 -21.4746 -0.490 -0.037 0.871 124 35 45 0
-22.8826 44.6514 -20.6734 -0.068 -0.290 0.955 122 30 41 0
-23.2457 43.9650 -20.3991 -0.291 -0.915 0.281 123 29 40 0
-22.9296 43.5170 -20.6604 0.021 -0.742 0.670 127 33 46 0
-22.7832 43.4139 -20.7792 0.021 -0.742 0.670 125 31 41 0
-22.8082 42.3202 -20.7828 -0.552 -0.401 0.731 150 54 62 0
-22.5590 42.0669 -20.9867 -0.781 -0.315 0.539 137 32 46 0
-22.5868 41.7727 -20.9708 -0.757 -0.343 0.556 136 32 46 0
-23.5593 36.6587 -20.3064 -0.219 -0.283 0.934 155 45 55 0
-23.5496 36.4223 -20.3192 -0.773 -0.183 0.608 157 49 61 0
-22.3911 32.0515 -21.3356 -0.745 -0.475 0.468 175 70 80 0
-16.6430 27.4376 -26.0111 0.459 -0.334 0.823 100 18 30 0
-16.1615 27.3730 -26.3958 0.365 -0.914 0.179 98 16 30 0
-15.6505 26.8772 -26.8133 0.022 -0.743 0.669 110 30 40 0
-13.3105 27.3388 -28.6664 -0.419 -0.693 0.586 84 15 25 0
-12.1694 27.5238 -29.5709 -0.576 -0.238 0.782 77 15 21 0
-11.2960 27.2623 -30.2719 -0.548 -0.713 -0.436 70 16 19 0
-10.4688 27.4172 -30.9271 -0.704 -0.197 0.682 67 12 17 0
-10.2089 27.3782 -31.1348 0.004 -0.609 0.793 67 14 18 0
-10.6105 26.8514 -30.8264 -0.519 -0.850 0.090 69 17 22 0
-10.4021 25.8612 -31.0137 -0.512 -0.754 0.411 69 24 29 0
-4.4494 29.1825 -35.6815 -0.496 -0.778 -0.384 71 30 35 0
-4.6116 28.8262 -35.5601 -0.065 -0.899 -0.433 71 34 37 0
-7.0798 26.6149 -33.6425 0.349 -0.916 -0.197 72 40 41 0
-3.5708 28.8332 -36.3886 -0.440 -0.893 -0.090 72 41 42 0
-3.2659 28.8036 -36.6319 -0.536 -0.506 0.675 75 45 44 0
0.2615 30.0038 -39.4145 0.394 -0.908 -0.145 89 63 58 0
6.2464 33.2872 -44.1088 0.302 -0.931 0.207 110 87 81 0
6.8335 33.1530 -44.5791 0.299 -0.750 0.590 181 163 150 0
2.8717 24.1464 -41.6184 0.048 -0.261 0.964 199 187 173 0
13.7895 26.0043 -50.2707 -0.111 -0.905 -0.411 194 181 164 0
-12.4060 8.7745 -29.7855 -0.307 -0.929 -0.206 192 176 161 0
-0.9547 10.7911 -38.8591 0.531 -0.824 0.197 183 167 151 0
13.1491 7.7226 -50.1538 -0.901 -0.418 -0.118 106 95 85 0
13.2363 7.5456 -50.2271 -0.897 -0.426 -0.115 50 50 50 0
-42.1894 94.3759 -4.5267 -0.721 -0.690 -0.058 255 255 255 0
-42.0409 94.2884 -4.6470 -0.486 -0.816 -0.313 135 136 135 0
-41.8770 94.2413 -4.7788 -0.486 -0.816 -0.313 69 66 62 0
-41.7224 94.1688 -4.9037 -0.502 -0.808 -0.307 234 222 211 0
-41.5484 94.1470 -5.0430 -0.486 -0.816 -0.313 240 225 213 0
-16.6638 62.3531 -25.5455 -0.568 -0.807 -0.160 220 218 200 0
-14.3661 62.6148 -27.3748 -0.967 0.153 0.205 133 90 91 0
-21.7327 48.3715 -21.7777 -0.702 0.336 0.628 117 34 43 0
-23.3446 43.9995 -20.5782 -0.282 -0.917 0.281 122 29 39 0
-23.0256 43.5543 -20.8417 -0.408 -0.464 0.786 126 30 43 0
-23.0175 43.2951 -20.8534 -0.657 -0.209 0.724 126 30 41 0
-22.9787 42.2730 -20.9047 -0.639 -0.504 0.580 158 61 68 0
-22.7145 42.0368 -21.1204 -0.757 -0.316 0.571 136 33 45 0
-22.6742 41.8173 -21.1570 -0.761 -0.346 0.548 137 32 46 0
-22.2963 40.6574 -21.4818 -0.441 -0.703 -0.557 146 39 49 0
-21.5661 40.6576 -22.0648 -0.430 -0.715 -0.551 151 40 52 0
-21.4685 40.5009 -22.1459 -0.546 -0.703 -0.456 151 40 51 0
-23.6370 36.7054 -20.4903 -0.803 -0.191 0.564 157 47 58 0
-23.6692 36.4254 -20.4702 -0.773 -0.183 0.608 156 49 61 0
-22.0849 34.6039 -21.7715 -0.216 -0.306 0.927 152 40 56 0
-21.7853 33.4530 -22.0337 -0.662 -0.749 0.027 164 58 68 0
-22.9406 32.1106 -21.1381 -0.575 -0.810 0.116 170 65 76 0
-22.5010 32.0613 -21.4900 -0.753 -0.471 0.460 177 71 81 0
-16.7536 26.9968 -26.1798 0.353 -0.936 -0.002 99 17 29 0
-15.9974 26.9252 -26.7851 0.078 -0.260 0.962 97 15 27 0
-15.8692 26.8016 -26.8898 0.022 -0.743 0.669 102 20 32 0
-15.8339 26.6050 -26.9219 0.381 -0.892 0.243 110 28 40 0
-15.3060 26.7943 -27.3397 0.326 -0.941 0.087 100 18 30 0
-13.4058 27.3622 -28.8454 -0.770 -0.504 0.391 84 14 24 0
-11.2156 27.4181 -30.5929 -0.537 -0.721 -0.438 69 15 17 0
-10.6105 27.4074 -31.0762 -0.704 -0.197 0.682 69 14 19 0
-10.4917 27.2643 -31.1740 -0.077 -0.596 0.799 69 15 20 0
-10.6637 26.9066 -31.0438 -0.515 -0.852 0.089 73 19 25 0
-3.5364 29.4395 -36.6836 -0.480 -0.777 -0.407 69 35 39 0
-3.6629 29.1071 -36.5892 -0.499 -0.728 -0.470 72 38 40 0
-3.6056 28.9046 -36.6390 -0.487 -0.847 -0.213 74 41 41 0
-3.4255 28.7879 -36.7851 -0.589 -0.438 0.679 76 45 44 0
1.1543 30.4581 -40.4082 0.383 -0.914 -0.136 89 65 61 0
6.0122 33.2309 -44.2313 0.304 -0.800 0.518 106 83 77 0
6.4181 32.9763 -44.5605 0.307 -0.740 0.598 177 160 147 0
0.6267 27.8768 -40.0385 -0.269 0.106 0.957 200 188 174 0
8.1845 29.6944 -46.0363 -0.990 -0.131 0.062 201 190 175 0
2.5293 24.0249 -41.6344 0.048 -0.261 0.964 198 188 173 0
-10.5147 11.3141 -31.4741 -0.593 -0.803 -0.065 192 179 161 0
-12.4250 9.0037 -29.9950 -0.674 -0.662 -0.328 192 176 161 0
11.3371 12.1818 -48.9030 -0.604 -0.720 -0.342 175 154 137 0
11.3430 11.9667 -48.9120 -0.634 -0.700 -0.329 176 153 140 0
3.3682 6.0199 -42.6638 -0.106 -0.875 -0.472 168 153 131 0
13.1678 7.7797 -50.4525 -0.900 -0.420 -0.114 104 97 86 0
13.2595 7.6041 -50.5292 -0.900 -0.420 -0.114 50 50 51 0
-42.2965 94.4890 -4.7326 -0.744 -0.665 -0.062 255 255 255 0
-42.1380 94.4283 -4.8606 -0.486 -0.816 -0.313 135 136 135 0
-41.9741 94.3813 -4.9927 -0.486 -0.816 -0.313 69 65 62 0
-41.8352 94.2663 -5.1061 -0.493 -0.815 -0.306 232 221 211 0
-41.6510 94.2720 -5.2535 -0.483 -0.820 -0.308 237 223 213 0
-41.5649 94.0149 -5.3271 -0.752 -0.659 0.000 236 223 215 0
-16.7125 62.4857 -25.8062 -0.700 -0.686 -0.198 220 220 201 0
-16.1174 62.2532 -26.2870 -0.585 -0.798 -0.145 154 166 136 0
-14.9247 62.7728 -27.2323 -0.678 0.495 0.544 140 120 109 0
-14.4270 62.3969 -27.6377 -0.782 -0.590 0.201 126 79 80 0
-23.5876 44.1390 -20.6401 -0.291 -0.124 0.949 123 30 40 0
-22.9067 41.9660 -21.2254 -0.748 -0.261 0.611 137 33 45 0
-22.9015 41.7079 -21.2343 -0.790 -0.246 0.562 137 32 46 0
-21.6887 40.6637 -22.2246 -0.383 -0.760 -0.525 152 39 51 0
-23.7222 36.9923 -20.6641 -0.515 -0.030 0.857 157 46 58 0
-23.9243 36.5345 -20.5108 -0.393 -0.357 0.847 155 45 58 0
-23.8305 36.3853 -20.5887 -0.401 -0.354 0.845 153 44 59 0
-21.0959 32.7949 -22.8443 -0.599 -0.587 0.544 179 74 85 0
-18.4805 32.8200 -24.9378 0.415 -0.909 -0.036 175 89 100 0
-18.1020 28.0241 -25.3293 0.562 -0.825 0.057 109 23 36 0
-19.3448 26.7687 -24.3574 0.482 -0.874 -0.067 108 22 35 0
-18.2983 27.4107 -25.1834 0.511 -0.857 0.066 107 22 35 0
-17.0031 27.5699 -26.2175 0.034 -0.113 0.993 99 17 30 0
-16.9832 26.9104 -26.2455 0.353 -0.936 -0.002 96 15 28 0
-10.8082 27.5877 -31.1770 -0.504 -0.862 -0.055 70 15 19 0
-10.7809 27.3763 -31.2027 -0.582 -0.249 0.774 71 14 20 0
-10.7701 27.1532 -31.2155 -0.047 -0.577 0.816 72 17 23 0
-10.8297 26.8787 -31.1729 -0.486 -0.872 0.058 80 26 32 0
-10.1462 27.1517 -31.7150 0.365 -0.931 -0.015 77 24 32 0
-3.5760 30.2446 -36.9183 -0.964 -0.131 -0.231 69 28 32 0
-4.0217 29.6812 -36.5719 -0.805 -0.520 -0.285 71 31 36 0
-3.7971 28.8664 -36.7667 -0.846 -0.519 -0.127 74 43 41 0
-3.7118 28.6839 -36.8383 -0.478 -0.390 0.787 76 46 43 0
0.7220 30.2614 -40.3591 0.375 -0.915 -0.146 90 65 61 0
2.3391 31.1072 -41.6382 0.393 -0.910 -0.132 97 72 68 0
5.6396 33.0811 -44.2443 0.304 -0.800 0.518 103 79 74 0
5.9945 32.7936 -44.5337 0.332 -0.771 0.543 172 155 142 0
8.5561 33.9702 -46.5630 0.358 -0.922 -0.151 197 183 170 0
0.6232 28.2116 -40.3179 -0.519 -0.063 0.853 200 186 173 0
0.5901 27.9449 -40.2962 -0.495 -0.089 0.865 199 187 173 0
8.2905 29.8537 -46.4262 -0.991 -0.115 0.070 202 190 177 0
2.7412 24.4729 -42.0825 -0.366 0.178 0.913 196 189 173 0
2.6543 24.1831 -42.0183 0.076 -0.368 0.927 196 189 172 0
-10.8235 11.2100 -31.4667 -0.633 -0.657 0.409 190 177 161 0
0.1289 13.2661 -40.1977 -0.032 -0.883 0.468 187 171 158 0
12.6845 11.2792 -50.2868 -0.980 0.183 0.082 171 152 135 0
13.2711 7.6584 -50.8232 -0.900 -0.420 -0.114 50 50 51 0
-42.3970 94.6211 -4.9441 -0.744 -0.665 -0.062 255 255 255 0
-42.2354 94.5685 -5.0747 -0.486 -0.816 -0.313 135 136 136 0
-42.0726 94.5185 -5.2063 -0.482 -0.813 -0.327 69 66 63 0
-41.9283 94.4176 -5.3239 -0.470 -0.825 -0.315 232 220 211 0
-41.7511 94.4044 -5.4664 -0.464 -0.833 -0.300 237 222 213 0
-41.6992 94.0552 -5.5139 -0.770 -0.637 0.036 236 223 216 0
-24.5260 43.2055 -20.1619 -0.916 -0.135 0.377 124 31 40 0
-23.2273 42.2815 -21.2202 -0.659 -0.611 0.438 138 34 46 0
-23.2212 42.0234 -21.2295 -0.554 -0.528 0.644 136 31 45 0
-22.1209 40.5993 -22.1370 -0.469 -0.690 -0.551 151 38 50 0
-21.8584 40.6193 -22.3474 -0.460 -0.703 -0.543 152 37 50 0
-23.9550 37.3753 -20.7189 -0.883 0.337 0.327 153 40 54 0
-22.7063 38.4356 -21.7035 -0.632 0.157 0.759 155 42 56 0
-23.3682 37.4909 -21.1881 -0.409 -0.816 0.409 153 41 55 0
-23.1614 37.4562 -21.3547 -0.460 -0.833 0.307 151 41 55 0
-23.2631 37.1008 -21.2791 -0.250 -0.941 0.226 150 39 56 0
-23.1473 36.9716 -21.3742 -0.271 -0.934 0.235 151 39 57 0
-22.3750 36.2726 -22.0061 -0.209 -0.973 0.099 158 44 59 0
-21.5089 32.2850 -22.7689 -0.634 -0.495 0.595 177 75 88 0
-18.7277 32.7094 -24.9947 0.415 -0.909 -0.036 175 88 101 0
-18.4984 32.6773 -25.1794 0.189 -0.976 0.109 169 86 98 0
-17.4108 33.4164 -26.0401 0.475 -0.880 0.006 160 79 89 0
-19.8804 29.1150 -24.1300 0.179 -0.775 0.606 145 51 63 0
-19.8080 28.9499 -24.1910 0.419 -0.745 0.520 143 50 61 0
-15.7475 29.8522 -27.4358 0.572 -0.820 0.002 110 22 36 0
-17.3627 26.9271 -26.1884 0.445 -0.894 0.045 95 16 29 0
-17.2041 26.8308 -26.3174 0.356 -0.934 0.001 93 14 27 0
-16.7796 26.7224 -26.6601 0.190 -0.091 0.978 91 12 25 0
-15.3717 26.7105 -27.7906 0.508 -0.838 0.201 89 12 22 0
-12.9082 28.1728 -29.7438 -0.590 -0.396 -0.704 83 11 20 0
-12.1202 27.8524 -30.3819 -0.350 -0.658 -0.667 80 18 23 0
-10.9059 27.3790 -31.3648 -0.883 -0.149 0.445 70 13 19 0
-10.9927 27.0832 -31.3002 -0.399 -0.902 -0.163 74 17 24 0
-10.8097 26.9882 -31.4487 -0.279 -0.870 -0.406 78 22 29 0
-10.4727 27.0062 -31.7190 -0.252 -0.846 -0.470 73 20 27 0
-6.8441 27.2940 -34.6274 -0.054 -0.998 -0.040 66 35 36 0
-3.8093 28.9540 -37.0360 -0.772 -0.626 0.112 73 43 40 0
-3.8988 28.6489 -36.9693 -0.478 -0.390 0.787 74 46 42 0
0.4517 30.1745 -40.4364 0.384 -0.914 -0.133 90 63 62 0
5.2688 32.9319 -44.2573 0.304 -0.800 0.518 103 79 74 0
8.3089 33.9082 -46.6817 0.354 -0.923 -0.153 196 183 169 0
0.1933 27.5331 -40.2736 -0.271 0.101 0.957 202 190 176 0
4.3278 26.9805 -43.6025 -0.755 -0.562 0.337 200 186 176 0
2.4105 24.8341 -42.0994 -0.598 0.106 0.794 198 187 174 0
2.5366 24.6720 -42.2034 -0.366 0.178 0.913 195 187 172 0
2.0258 23.8895 -41.8064 -0.544 0.118 0.831 196 189 171 0
10.1667 19.9180 -48.4098 0.366 -0.426 0.827 190 171 157 0
20.8318 16.6002 -57.0287 -0.434 0.258 0.863 174 155 138 0
11.5340 11.9456 -49.6424 -0.621 -0.783 -0.032 173 155 136 0
12.6982 11.3414 -50.5873 -0.972 0.188 0.144 171 153 132 0
-42.4889 94.7775 -5.1628 -0.754 -0.654 -0.063 255 255 255 0
-42.3338 94.7070 -5.2887 -0.481 -0.812 -0.330 135 135 136 0
-42.1680 94.6651 -5.4229 -0.490 -0.806 -0.331 69 65 64 0
-42.0267 94.5555 -5.5383 -0.470 -0.825 -0.315 232 220 213 0
-41.8398 94.5685 -5.6886 -0.486 -0.816 -0.313 236 223 214 0
-41.6503 94.5868 -5.8409 -0.482 -0.820 -0.308 236 223 216 0
-14.1623 64.8196 -28.4302 -0.893 0.196 0.405 151 150 127 0
-22.1395 49.8072 -22.2383 -0.524 0.332 0.784 119 43 52 0
-23.3455 42.2926 -21.3828 -0.749 -0.385 0.539 136 31 46 0
-23.4826 41.8747 -21.2789 -0.363 -0.279 0.889 136 31 45 0
-23.7354 37.2363 -21.1466 -0.559 -0.825 0.084 150 38 52 0
-23.7026 36.7728 -21.1802 -0.739 -0.624 0.255 150 38 55 0
-23.7431 36.4831 -21.1520 -0.655 -0.626 0.424 151 38 56 0
-22.6496 36.3675 -22.0342 -0.151 -0.985 0.088 156 44 59 0
-22.4987 36.2730 -22.1572 -0.608 -0.791 0.071 155 40 55 0
-22.7347 35.7879 -21.9746 -0.551 -0.834 -0.039 155 40 54 0
-20.7688 36.7642 -23.5424 -0.713 -0.696 0.087 150 38 54 0
-20.3734 36.9059 -23.8586 -0.103 -0.969 0.225 150 37 55 0
-20.1869 33.4004 -24.0626 -0.618 -0.063 0.784 176 76 90 0
-18.7320 32.5793 -25.2467 0.155 -0.988 0.005 163 77 92 0
-18.3521 32.6826 -25.5509 0.432 -0.902 0.012 160 76 90 0
-15.5370 34.9700 -27.7824 0.550 -0.827 -0.117 157 74 85 0
-20.0860 29.0411 -24.2109 0.178 -0.762 0.622 141 46 58 0
-18.7031 28.8609 -25.3271 -0.004 -0.949 0.314 120 28 44 0
-13.9914 30.9373 -29.0887 0.401 -0.890 -0.217 102 18 32 0
-3.4621 30.2775 -37.5764 -0.747 -0.636 -0.192 70 31 38 0
-1.8690 28.6871 -38.8835 0.369 -0.917 -0.154 91 65 65 0
3.3476 31.9905 -43.0328 0.398 -0.918 -0.001 97 71 70 0
0.0880 27.3126 -40.4803 -0.557 -0.557 0.616 201 188 174 0
8.3222 29.8027 -47.0717 -0.989 0.060 0.134 200 186 177 0
8.7480 19.0340 -47.5801 0.182 -0.430 0.884 192 173 159 0
3.8686 6.3659 -43.8463 0.433 -0.869 0.241 168 150 133 0
14.7008 9.3706 -52.5215 -0.668 -0.472 0.575 161 148 128 0
14.0328 7.1981 -52.0171 -0.783 -0.614 0.102 255 255 255 0
-42.6028 94.8746 -5.3653 -0.756 -0.651 -0.066 255 255 255 0
-42.4301 94.8523 -5.5050 -0.488 -0.814 -0.314 135 135 136 0
-42.2638 94.8112 -5.6398 -0.496 -0.810 -0.313 69 65 63 0
-42.1316 94.6768 -5.7484 -0.475 -0.823 -0.312 232 220 212 0
-41.9373 94.7097 -5.9048 -0.486 -0.816 -0.313 236 223 214 0
-41.7487 94.7259 -6.0569 -0.482 -0.820 -0.308 235 223 217 0
-13.5082 65.8620 -29.2576 -0.833 0.333 0.443 150 146 124 0
-22.1593 49.9476 -22.4929 -0.566 0.343 0.750 119 44 52 0
-23.8013 42.7226 -21.2672 -0.503 -0.497 0.708 133 31 47 0
-23.7213 42.5463 -21.3342 -0.503 -0.497 0.708 134 32 49 0
-23.6839 41.0037 -21.3857 -0.616 -0.085 0.783 141 37 48 0
-23.8929 37.9532 -21.2592 -0.857 0.191 0.479 153 38 51 0
-23.7404 37.3607 -21.3906 -0.720 -0.688 0.087 153 38 52 0
-22.7711 36.1226 -22.1903 -0.640 -0.066 0.766 157 42 58 0
-22.9354 35.7098 -22.0633 -0.563 -0.827 -0.012 156 41 55 0
-22.4524 35.4586 -22.4568 -0.848 -0.163 0.504 150 37 54 0
-22.3584 35.3072 -22.5348 -0.859 -0.159 0.487 151 39 55 0
-22.6054 34.8177 -22.3421 -0.040 -0.578 0.815 151 39 55 0
-18.8613 32.5754 -25.3961 0.189 -0.974 0.126 159 70 87 0
-15.7303 34.9134 -27.8918 0.553 -0.827 -0.106 155 68 81 0
-19.0665 26.1849 -25.3189 0.240 -0.937 -0.254 98 18 31 0
-15.7303 26.3977 -28.0096 0.450 -0.886 0.112 84 11 22 0
-12.6972 26.6869 -30.4545 0.493 -0.725 0.481 75 18 25 0
-3.4822 30.3625 -37.8438 0.285 -0.956 -0.071 70 31 36 0
-6.8841 27.2179 -35.1406 -0.169 -0.985 -0.018 69 38 37 0
-8.9723 25.0554 -33.4846 -0.309 -0.753 0.582 76 48 45 0
-2.1372 28.5988 -38.9542 0.365 -0.918 -0.156 90 65 66 0
3.2881 32.0503 -43.2868 0.387 -0.922 0.025 95 71 71 0
0.2392 27.5027 -40.8880 -0.686 -0.486 0.540 200 188 174 0
0.0989 27.1680 -40.7794 -0.599 -0.537 0.594 201 187 174 0
5.1299 21.8467 -44.9150 -0.236 -0.947 0.220 192 180 166 0
5.5038 21.8200 -45.2173 -0.084 -0.956 0.280 193 181 166 0
18.5381 13.8708 -55.8511 -0.010 -0.997 -0.072 171 153 132 0
3.9348 6.4417 -44.1632 0.494 -0.792 0.358 167 146 131 0
5.5273 6.8766 -45.4430 0.479 -0.805 0.351 167 148 131 0
13.1517 8.1876 -51.5807 -0.931 -0.348 -0.109 159 144 125 0
13.2276 8.0044 -51.6446 -0.931 -0.348 -0.109 101 94 83 0
-42.7023 95.0120 -5.5794 -0.756 -0.651 -0.066 255 255 255 0
-42.5279 94.9942 -5.7208 -0.488 -0.814 -0.314 135 136 136 0
-42.3638 94.9472 -5.8543 -0.488 -0.814 -0.314 68 65 62 0
-42.2306 94.8149 -5.9637 -0.477 -0.820 -0.316 230 219 210 0
-42.0132 94.9106 -6.1386 -0.471 -0.827 -0.306 235 223 212 0
-41.8472 94.8653 -6.2735 -0.482 -0.820 -0.308 235 225 215 0
-41.6253 94.9694 -6.4519 -0.477 -0.840 -0.259 237 224 213 0
-13.6033 65.9432 -29.4972 -0.833 0.333 0.443 149 145 121 0
-21.8739 51.0487 -22.9839 -0.828 0.339 0.446 122 46 56 0
-22.7456 47.9641 -22.3161 -0.662 -0.727 0.181 126 45 54 0
-24.9987 41.7719 -20.5679 0.004 -0.263 0.965 129 28 42 0
-24.6518 40.3320 -20.8665 -0.009 -0.974 0.227 137 32 45 0
-23.8430 38.3914 -21.5452 -0.863 0.129 0.488 152 37 51 0
-24.0001 37.9712 -21.4232 -0.792 0.158 0.590 152 37 50 0
-23.9961 37.7236 -21.4295 -0.809 0.155 0.566 151 36 47 0
-22.9440 35.8259 -22.3047 -0.263 -0.867 0.424 157 41 56 0
-19.1245 32.4499 -25.4387 0.204 -0.967 0.152 154 63 81 0
-19.1799 32.1610 -25.3974 0.428 -0.882 0.195 152 64 80 0
-16.4032 34.4244 -27.6177 0.568 -0.820 -0.072 152 63 79 0
-20.1789 26.9145 -24.6530 -0.542 -0.277 0.794 107 25 37 0
-16.9086 27.8192 -27.2898 -0.686 -0.666 0.293 100 17 31 0
-16.8632 27.6284 -27.3288 -0.666 -0.685 0.295 99 17 31 0
-17.0244 27.2710 -27.2027 -0.129 -0.978 0.165 96 15 27 0
-17.1597 26.7111 -27.1001 -0.913 0.101 0.394 93 13 25 0
-15.8321 25.7421 -28.1869 0.555 -0.700 0.451 79 16 25 0
-11.0700 27.3128 -32.0233 -0.035 -0.934 -0.357 70 13 20 0
-10.4973 27.5069 -32.4846 -0.080 -0.924 -0.375 69 13 22 0
-2.7409 30.9936 -38.7218 0.320 -0.928 -0.190 68 31 35 0
-2.3919 28.5195 -39.0348 0.356 -0.920 -0.167 91 68 69 0
6.3707 22.6192 -46.2021 -0.786 -0.445 0.430 191 179 164 0
5.8644 22.0991 -45.7985 -0.833 -0.311 0.457 192 180 164 0
0.1129 13.5101 -41.2473 0.242 -0.682 0.690 188 171 155 0
22.6258 19.3015 -59.4039 0.523 -0.822 0.228 179 160 145 0
18.8292 13.8194 -56.3974 0.045 -0.991 -0.130 171 152 131 0
4.9021 6.8775 -45.2065 0.461 -0.850 0.256 165 145 130 0
-42.8050 95.1415 -5.7917 -0.763 -0.642 -0.078 255 255 255 0
-42.6260 95.1364 -5.9371 -0.488 -0.814 -0.314 135 136 136 0
-42.4629 95.0863 -6.0700 -0.486 -0.816 -0.313 67 65 62 0
-42.1116 95.0517 -6.3556 -0.482 -0.820 -0.308 235 224 212 0
-41.9385 95.0255 -6.4965 -0.462 -0.835 -0.300 234 226 214 0
-41.7392 95.0689 -6.6578 -0.494 -0.831 -0.255 236 224 212 0
-17.5143 63.4372 -26.6668 -0.731 -0.670 -0.131 225 220 208 0
-15.3757 63.5172 -28.4024 -0.623 0.509 0.593 142 122 108 0
-22.4798 49.5970 -22.7840 -0.431 0.469 0.771 117 39 50 0
-25.4595 41.9166 -20.4472 -0.860 -0.509 -0.042 126 30 42 0
-25.3725 41.7526 -20.5197 -0.859 -0.511 -0.040 128 28 42 0
-25.0940 41.8072 -20.7452 -0.591 -0.299 0.749 129 27 41 0
-22.5563 44.4304 -22.7774 0.046 0.053 0.998 131 28 42 0
-23.3663 42.4344 -22.1412 -0.718 0.090 0.690 135 30 45 0
-23.0435 40.6769 -22.4222 -0.076 -0.977 -0.199 146 38 52 0
-22.5426 40.4350 -22.8315 0.356 -0.932 0.069 148 36 51 0
-24.1433 38.4574 -21.5531 -0.991 -0.057 0.124 149 35 50 0
-23.9960 38.3612 -21.6737 -0.869 0.137 0.476 151 36 50 0
-24.1300 37.9651 -21.5692 -0.845 0.136 0.517 150 35 48 0
-24.0306 37.8185 -21.6514 -0.941 -0.031 0.337 149 34 44 0
-23.2719 36.8571 -22.2778 -0.737 -0.588 0.334 154 42 58 0
-23.2005 36.6814 -22.3377 -0.730 -0.606 0.315 157 45 59 0
-22.9239 36.7165 -22.5619 -0.586 -0.737 0.336 161 49 63 0
-22.8328 36.5606 -22.6375 -0.597 -0.723 0.348 156 44 58 0
-23.1147 35.7782 -22.4171 -0.238 -0.873 0.425 156 39 55 0
-19.7386 31.7676 -25.2013 0.472 -0.514 0.716 148 57 75 0
-17.0860 33.9249 -27.3319 0.568 -0.820 -0.072 148 57 74 0
-19.6162 29.7692 -25.3222 0.043 0.102 0.994 135 39 54 0
-17.0323 27.3639 -27.4460 0.142 -0.976 0.165 98 16 28 0
-17.2427 26.2940 -27.2867 -0.990 0.003 0.139 93 14 27 0
-17.3543 25.9821 -27.1995 -0.987 0.004 0.163 91 14 26 0
-15.6484 25.7555 -28.5869 -0.668 -0.664 0.335 76 14 24 0
-15.2737 25.8203 -28.8905 0.506 -0.799 0.324 75 16 24 0
-15.3686 24.6355 -28.8262 -0.239 -0.971 -0.005 69 15 21 0
-15.2359 24.5145 -28.9352 -0.040 -0.995 0.089 69 14 20 0
-15.0092 24.4636 -29.1198 -0.089 -0.995 0.044 70 15 21 0
-9.8775 26.8951 -33.2603 -0.675 -0.692 -0.254 69 23 30 0
-9.4373 26.9829 -33.6167 -0.324 -0.928 -0.183 67 25 30 0
-9.1892 26.9297 -33.8187 -0.247 -0.950 -0.190 67 26 30 0
7.1691 23.1461 -47.1412 -0.560 0.091 0.824 191 179 164 0
-0.0437 13.2870 -41.3909 0.402 -0.447 0.799 186 172 153 0
-42.9033 95.2843 -6.0081 -0.763 -0.642 -0.078 255 255 255 0
-42.7243 95.2789 -6.1538 -0.488 -0.814 -0.314 136 136 136 0
-42.5628 95.2243 -6.2858 -0.490 -0.816 -0.306 67 66 62 0
-42.4296 95.0913 -6.3955 -0.495 -0.808 -0.320 230 220 211 0
-42.2316 95.1348 -6.5564 -0.470 -0.821 -0.324 235 224 212 0
-42.0400 95.1591 -6.7122 -0.462 -0.835 -0.300 233 225 214 0
-41.8783 95.1009 -6.8444 -0.497 -0.824 -0.274 235 223 213 0
-41.2419 96.3203 -7.3513 -0.402 -0.805 -0.435 235 224 212 0
-40.5860 97.5811 -7.8737 -0.430 -0.755 -0.495 234 225 213 0
-17.7410 65.0464 -26.7736 -0.804 -0.384 -0.453 228 225 210 0
-22.5461 49.3906 -23.0054 -0.325 0.441 0.837 119 43 52 0
-26.2087 41.4608 -20.0962 -0.875 -0.475 -0.093 126 30 41 0
-26.1391 41.2788 -20.1546 -0.851 -0.523 -0.049 128 29 41 0
-25.1263 41.9148 -20.9733 -0.909 -0.363 0.205 131 28 42 0
-24.5048 42.3591 -21.4753 -0.499 -0.225 0.837 131 26 41 0
-24.3958 42.2168 -21.5653 -0.547 -0.192 0.815 131 26 41 0
-24.3689 41.9817 -21.5894 -0.561 -0.174 0.809 132 27 42 0
-23.2661 40.5732 -22.5002 -0.518 -0.828 -0.215 146 39 54 0
-23.7847 38.7209 -22.0950 -0.960 -0.279 0.015 150 37 48 0
-24.2107 38.0116 -21.7547 -0.846 0.146 0.513 152 37 50 0
-23.5247 36.9737 -22.3229 -0.615 -0.558 0.558 155 42 58 0
-23.3403 36.9149 -22.4735 -0.474 -0.617 0.627 157 44 60 0
-23.0916 36.9219 -22.6759 -0.173 -0.666 0.725 159 45 60 0
-22.9617 36.8056 -22.7828 -0.130 -0.691 0.711 163 50 64 0
-19.0459 30.8454 -26.0259 0.591 -0.715 0.374 138 41 58 0
-18.2665 28.7285 -26.6800 -0.697 -0.698 0.166 111 27 40 0
-18.3228 28.4516 -26.6366 -0.630 -0.770 0.097 110 26 39 0
-16.5288 27.8719 -28.1027 0.305 -0.895 0.325 99 17 29 0
-11.2902 26.6462 -32.3792 -0.013 -0.209 0.978 68 17 24 0
-3.7841 30.1975 -38.4581 0.026 -0.928 -0.372 68 32 36 0
-5.0637 27.1117 -37.4447 0.245 -0.942 -0.229 90 66 66 0
-3.4435 27.9875 -38.7558 0.309 -0.916 -0.256 90 67 69 0
8.9469 24.7173 -48.8742 -0.041 -0.982 -0.185 194 182 170 0
9.3853 24.7175 -49.2311 -0.021 -0.984 -0.174 194 182 167 0
-1.5024 13.8700 -40.4662 0.158 -0.946 0.282 191 174 158 0
18.9316 15.8652 -57.0853 -0.301 0.395 0.868 175 159 139 0
18.2859 15.3512 -56.5642 -0.344 0.253 0.904 177 159 139 0
16.3052 13.5820 -54.9678 -0.439 0.392 0.808 171 155 132 0
6.9155 7.7841 -47.3761 0.588 -0.379 0.714 167 148 131 0
5.5287 7.0281 -46.2539 0.509 -0.506 0.697 168 149 132 0
13.3463 7.9898 -52.6101 -0.931 -0.348 -0.109 50 50 51 0
-43.0017 95.4275 -6.2251 -0.763 -0.642 -0.078 255 255 255 0
-42.8229 95.4218 -6.3711 -0.488 -0.814 -0.314 135 136 136 0
-42.6621 95.3651 -6.5029 -0.490 -0.816 -0.306 68 66 62 0
-42.5268 95.2373 -6.6143 -0.495 -0.808 -0.320 231 222 212 0
-42.3300 95.2775 -6.7747 -0.470 -0.821 -0.324 236 225 214 0
-42.1417 95.2929 -6.9283 -0.462 -0.835 -0.300 232 223 214 0
-41.9798 95.2350 -7.0609 -0.503 -0.819 -0.277 234 223 213 0
-23.2431 48.4205 -22.7173 -0.577 0.052 0.815 131 56 63 0
-23.2403 48.1373 -22.7218 -0.406 -0.913 0.046 135 58 66 0
-24.4706 41.7455 -21.7661 -0.473 0.150 0.868 135 30 45 0
-23.2156 40.5057 -22.8003 -0.912 -0.398 0.101 151 44 58 0
-23.5260 37.1017 -22.5729 -0.575 -0.523 0.629 156 41 56 0
-23.4867 36.8921 -22.6066 -0.474 -0.617 0.627 159 44 59 0
-23.3922 36.7400 -22.6849 -0.474 -0.617 0.627 161 46 61 0
-22.7532 36.1491 -23.2112 -0.452 -0.868 0.204 157 39 58 0
-22.6318 33.5802 -23.3299 -0.623 -0.780 0.053 159 43 56 0
-22.4857 33.4817 -23.4500 -0.127 -0.376 0.918 159 43 56 0
-21.9007 32.6061 -23.9343 -0.641 -0.169 0.749 183 78 85 0
-19.6238 31.6211 -25.8009 0.636 -0.749 0.183 141 44 64 0
-19.2038 30.8152 -26.1500 0.559 -0.734 0.386 138 41 59 0
-18.8637 28.5564 -26.4449 0.208 -0.728 0.654 111 24 40 0
-18.3612 28.7522 -26.8537 -0.698 -0.703 0.133 111 25 40 0
-18.3957 28.4934 -26.8276 -0.630 -0.772 0.083 111 26 39 0
-16.7263 28.0414 -28.1941 0.129 -0.990 0.061 102 17 30 0
-17.2998 26.8933 -27.7346 -0.381 -0.899 0.216 92 15 24 0
-17.1415 26.7950 -27.8646 -0.381 -0.899 0.216 92 15 27 0
-16.9828 26.6965 -27.9949 -0.381 -0.899 0.216 90 15 28 0
-6.5597 29.2716 -36.4856 0.062 -0.933 -0.355 68 23 28 0
-7.5700 27.3444 -35.6754 -0.154 -0.986 -0.069 69 33 35 0
-4.6088 27.5196 -38.0918 0.329 -0.928 -0.174 91 66 67 0
2.2028 31.1958 -43.6253 0.288 -0.920 -0.265 104 83 76 0
8.4351 34.6129 -48.6878 0.287 -0.919 -0.269 193 180 165 0
1.4916 22.4223 -43.1117 0.361 -0.931 0.049 196 184 170 0
8.8226 24.7303 -49.0798 0.097 -0.993 -0.069 194 182 168 0
14.8235 13.7007 -54.0638 0.357 -0.932 0.062 174 156 134 0
13.7675 7.3484 -53.2501 -0.970 -0.151 0.192 255 255 255 0
-43.1004 95.5709 -6.4426 -0.763 -0.642 -0.078 255 255 255 0
-42.9217 95.5650 -6.5889 -0.488 -0.814 -0.314 135 136 136 0
-42.7571 95.5183 -6.7239 -0.488 -0.814 -0.314 67 66 62 0
-42.6242 95.3837 -6.8336 -0.495 -0.808 -0.320 232 222 212 0
-42.4335 95.4072 -6.9896 -0.462 -0.824 -0.328 235 224 213 0
-42.2413 95.4332 -7.1468 -0.477 -0.800 -0.364 233 223 214 0
-23.3079 48.2174 -22.9367 -0.406 -0.913 0.041 129 51 59 0
-23.0341 48.2609 -23.1606 -0.423 -0.905 0.052 119 39 48 0
-24.3780 38.6076 -22.1190 -0.687 -0.702 0.189 148 36 50 0
-23.8727 36.8698 -22.5433 -0.556 -0.795 0.242 153 38 53 0
-22.7408 33.5934 -23.4901 -0.675 -0.729 0.110 161 44 58 0
-21.7143 31.0051 -24.3463 -0.587 -0.350 0.730 148 50 65 0
-19.6307 31.0166 -26.0522 0.576 -0.508 0.641 138 41 61 0
-18.7426 28.5335 -26.7945 0.122 -0.957 0.261 113 26 41 0
-18.5536 28.4637 -26.9497 0.052 -0.996 0.073 110 24 39 0
-18.0531 28.6551 -27.3583 -0.005 -0.972 0.235 102 18 31 0
-17.3229 26.9736 -27.9664 -0.345 -0.931 0.123 92 15 25 0
-17.2095 26.8388 -28.0601 -0.311 -0.928 0.206 90 14 26 0
-17.0945 26.7053 -28.1551 -0.381 -0.899 0.216 88 14 26 0
-4.0943 29.9269 -38.7797 -0.320 -0.434 0.842 70 32 35 0
-3.7902 29.8968 -39.0289 -0.290 -0.085 0.953 70 35 35 0
-3.8192 29.6291 -39.0068 0.073 -0.632 0.772 69 38 36 0
-5.8287 27.9622 -37.3716 0.237 -0.971 -0.034 73 43 41 0
8.6904 24.7389 -49.2791 0.043 -0.992 -0.121 193 181 167 0
6.4032 17.8089 -47.4486 0.477 -0.730 0.489 185 172 153 0
0.4928 5.8854 -42.6820 0.527 -0.747 0.405 167 150 135 0
13.2434 7.8404 -53.1099 -0.969 -0.200 0.146 247 247 245 0
-43.1993 95.7148 -6.6605 -0.763 -0.642 -0.078 255 255 255 0
-43.0207 95.7085 -6.8073 -0.488 -0.814 -0.314 135 136 136 0
-42.8516 95.6743 -6.9462 -0.475 -0.817 -0.328 67 65 62 0
-42.7219 95.5304 -7.0534 -0.495 -0.808 -0.320 230 220 210 0
-42.5327 95.5498 -7.2087 -0.462 -0.824 -0.328 234 222 212 0
-42.3349 95.5911 -7.3708 -0.477 -0.800 -0.364 231 222 213 0
-33.0830 46.4413 -15.1900 0.369 -0.205 0.906 231 227 215 0
-18.3311 59.8244 -27.2417 -0.619 0.486 0.617 128 93 85 0
-23.3633 48.3126 -23.1621 -0.413 -0.907 0.083 118 39 48 0
-23.1297 48.3077 -23.3539 -0.433 -0.899 0.067 116 35 44 0
-23.2449 41.8111 -23.2888 -0.721 -0.294 -0.627 144 39 53 0
-23.9878 37.6337 -22.6977 -0.930 -0.284 0.234 153 36 54 0
-22.4928 33.4719 -23.9441 -0.659 -0.239 0.713 166 51 62 0
-22.1755 32.5777 -24.2086 -0.513 -0.505 0.695 170 65 72 0
-20.8201 30.5284 -25.3308 -0.054 0.077 0.996 140 47 63 0
-20.7219 30.3834 -25.4122 0.306 -0.289 0.907 136 42 60 0
-19.9917 30.1018 -26.0129 0.107 0.000 0.994 132 38 56 0
-18.7410 28.8689 -27.0454 0.038 -0.771 0.636 113 25 40 0
-18.9854 28.4314 -26.8467 0.018 -0.995 0.102 112 25 40 0
-17.5086 26.6967 -28.0671 0.103 -0.965 0.243 91 15 27 0
-17.7071 26.0881 -27.9069 0.268 -0.923 0.275 85 11 24 0
-17.2300 26.2446 -28.2979 -0.504 -0.764 0.402 83 11 23 0
-16.8589 26.3146 -28.6023 -0.905 -0.423 0.034 84 13 24 0
-5.0834 30.7988 -38.2505 -0.863 0.309 0.400 70 22 30 0
-4.0397 29.8181 -39.1119 -0.290 -0.085 0.953 70 34 35 0
8.5528 24.7444 -49.4741 0.057 -0.988 -0.140 194 182 168 0
-7.1783 14.1560 -36.6059 -0.826 -0.559 -0.070 188 177 159 0
5.6136 17.4775 -47.0938 0.539 -0.709 0.456 185 172 154 0
-2.3187 4.9738 -40.6376 0.521 -0.781 0.346 169 154 135 0
-0.7690 5.4197 -41.9079 0.528 -0.746 0.406 169 152 136 0
13.1981 7.8743 -53.3647 -0.969 -0.200 0.146 247 247 245 0
13.2493 7.6808 -53.4076 -0.965 -0.210 0.156 254 255 255 0
13.2710 7.4766 -53.4264 -0.969 -0.200 0.146 254 255 255 0
13.5841 7.3806 -53.6839 -0.983 -0.134 0.125 255 255 255 0
-43.2985 95.8590 -6.8791 -0.763 -0.642 -0.078 255 255 255 0
-43.1199 95.8524 -7.0261 -0.488 -0.814 -0.314 135 135 135 0
-42.8174 95.6838 -7.2756 -0.497 -0.809 -0.316 230 218 211 0
-42.6306 95.6967 -7.4294 -0.467 -0.823 -0.324 233 221 210 0
-42.4326 95.7389 -7.5924 -0.472 -0.801 -0.367 233 222 212 0
-33.0652 46.3578 -15.4518 0.459 -0.243 0.854 230 226 213 0
-23.3518 48.2015 -23.4439 -0.755 -0.613 0.234 118 36 48 0
-22.9205 48.1467 -23.7992 -0.798 0.179 0.575 118 34 47 0
-24.0308 44.5835 -22.8956 -0.401 0.371 0.837 128 29 46 0
-24.1724 44.1443 -22.7803 -0.434 0.374 0.820 130 28 44 0
-23.5323 41.6349 -23.3148 -0.611 -0.435 -0.661 144 39 53 0
-23.6589 39.1395 -23.2179 -0.497 -0.859 -0.126 149 37 53 0
-23.3833 39.1772 -23.4448 -0.406 0.159 0.900 149 34 51 0
-22.9902 34.3164 -23.7829 -0.826 -0.330 0.456 154 39 48 0
-22.9378 34.1249 -23.8266 -0.826 -0.330 0.456 159 43 54 0
-22.5374 33.3068 -24.1587 -0.307 -0.712 0.631 182 68 81 0
-22.4060 33.1931 -24.2672 -0.357 -0.652 0.669 192 82 92 0
-22.3242 32.5527 -24.3365 -0.513 -0.505 0.695 168 60 70 0
-20.1290 30.3224 -26.1505 0.178 -0.951 -0.254 132 36 55 0
-20.3569 29.8867 -25.9641 0.418 -0.862 0.286 131 36 55 0
-17.5636 28.1183 -28.2693 -0.989 -0.131 -0.073 128 41 54 0
-15.3610 26.2312 -30.0885 -0.905 -0.022 -0.425 74 13 23 0
-8.7829 28.8966 -35.4968 -0.063 -0.127 0.990 71 17 23 0
-8.6373 28.7645 -35.6170 -0.006 -0.147 0.989 72 19 24 0
-8.8282 28.1452 -35.4617 -0.027 -0.171 0.985 71 22 31 0
-2.8499 29.2723 -40.3806 0.004 -0.942 -0.335 84 58 57 0
8.8844 20.3956 -50.0685 -0.062 -0.998 -0.003 187 175 161 0
8.0486 13.1450 -49.4019 0.297 -0.663 0.687 178 162 147 0
1.1760 6.0696 -43.7643 0.511 -0.451 0.732 172 152 137 0
11.2464 8.4535 -52.0488 -0.166 -0.433 0.886 164 146 124 0
13.1893 7.7090 -53.6507 -0.969 -0.200 0.146 254 255 255 0
13.2657 7.5250 -53.7142 -0.972 -0.210 0.104 254 254 255 0
13.5286 7.4102 -53.9310 -0.988 -0.123 0.096 255 254 255 0
-43.4578 96.3441 -7.0481 -0.739 -0.669 -0.085 255 255 255 0
-43.3979 96.0035 -7.0981 -0.763 -0.642 -0.078 255 255 255 0
-42.9159 95.8304 -7.4963 -0.497 -0.809 -0.316 231 218 212 0
-42.6969 95.9322 -7.6769 -0.465 -0.808 -0.361 234 221 212 0
-42.5269 95.8971 -7.8174 -0.465 -0.808 -0.361 233 222 212 0
-18.2774 59.9500 -27.8897 -0.802 0.468 0.371 125 81 78 0
-22.8825 48.6433 -24.1033 -0.763 0.292 0.577 119 37 49 0
-23.0417 48.1629 -23.9725 -0.798 0.179 0.575 119 34 47 0
-24.4164 44.8358 -22.8422 -0.729 -0.097 0.678 123 28 46 0
-23.7399 42.0803 -23.4046 -0.764 -0.222 -0.606 139 34 49 0
-22.6323 42.5106 -24.3185 -0.594 -0.690 -0.414 142 38 51 0
-22.9186 40.5981 -24.0848 -0.917 -0.268 0.295 148 36 54 0
-23.6849 39.5067 -23.4536 -0.331 0.034 0.943 149 35 53 0
-23.7749 38.6359 -23.3805 -0.427 -0.047 0.903 148 31 50 0
-22.6976 33.2705 -24.2775 -0.307 -0.712 0.631 177 62 78 0
-22.5434 33.1790 -24.4050 -0.461 -0.636 0.619 186 74 87 0
-20.4575 29.9060 -26.1318 0.378 -0.926 0.019 131 36 55 0
-19.7899 27.9551 -26.6858 -0.592 -0.806 -0.029 112 25 41 0
-19.6691 27.8301 -26.7857 -0.338 -0.855 0.394 108 22 37 0
-19.5864 27.6729 -26.8541 -0.535 -0.501 0.680 101 17 32 0
-17.5864 28.2018 -28.5047 -0.987 -0.158 -0.008 109 23 36 0
-17.5537 27.9988 -28.5320 -0.987 -0.158 -0.008 101 17 29 0
-17.5135 27.8024 -28.5655 -0.983 -0.170 -0.075 96 14 26 0
-17.0852 26.1047 -28.9215 -0.948 -0.297 0.112 82 12 23 0
-10.1274 28.2300 -34.6633 0.298 -0.394 0.869 70 17 23 0
-4.9624 30.5932 -38.9246 -0.986 0.164 0.035 67 25 29 0
-4.5286 29.4205 -39.2845 0.008 -0.701 0.713 71 41 41 0
9.1948 26.0326 -50.6201 -0.993 0.037 -0.109 190 181 164 0
9.0901 25.7204 -50.5341 -0.982 0.039 -0.183 190 181 166 0
7.8650 12.6865 -49.5408 -0.018 -0.994 -0.107 177 161 146 0
0.1515 5.7023 -43.1819 0.029 -0.938 0.344 172 152 137 0
13.1489 7.7447 -53.9105 -0.967 -0.206 0.153 254 255 255 0
13.1805 7.5437 -53.9369 -0.969 -0.200 0.146 254 254 255 0
-43.5249 96.5823 -7.2950 -0.727 -0.680 -0.090 255 255 255 0
-43.4745 96.2133 -7.3367 -0.750 -0.647 -0.133 255 255 255 0
-42.8283 95.9886 -7.8717 -0.506 -0.810 -0.296 234 220 213 0
-42.6856 95.8778 -7.9898 -0.522 -0.734 -0.434 232 221 212 0
-17.8482 60.6980 -28.5486 -0.837 0.418 0.352 127 83 80 0
-24.9322 44.9325 -22.6805 -0.983 -0.095 0.156 125 32 48 0
-24.6298 45.0145 -22.9309 -0.726 -0.034 0.687 126 32 49 0
-24.6143 44.7563 -22.9437 -0.726 -0.035 0.687 127 30 48 0
-24.4903 44.6264 -23.0464 -0.511 -0.284 0.811 126 27 45 0
-24.2902 44.3102 -23.2120 -0.362 -0.310 0.879 129 27 43 0
-24.2095 44.1297 -23.2788 -0.028 -0.657 0.754 129 28 42 0
-23.6667 43.9349 -23.7281 0.070 -0.925 0.375 131 30 44 0
-22.9654 40.6870 -24.3083 -0.894 -0.363 0.262 148 37 55 0
-23.2388 40.1273 -24.0818 -0.791 0.125 0.599 149 36 55 0
-23.3082 39.7910 -24.0243 -0.777 0.125 0.617 149 32 51 0
-23.8491 36.4105 -23.5759 -0.681 -0.728 0.082 150 35 50 0
-23.1030 34.2050 -24.1932 -0.828 -0.345 0.442 165 48 63 0
-22.9093 33.4252 -24.3535 -0.321 -0.739 0.593 165 49 67 0
-22.8357 33.2556 -24.4144 -0.312 -0.695 0.648 168 51 70 0
-22.6915 33.1545 -24.5338 -0.316 -0.707 0.633 171 57 74 0
-19.7385 27.8742 -26.9779 -0.751 -0.521 0.405 107 20 36 0
-19.6612 27.7122 -27.0418 -0.725 -0.308 0.616 102 16 32 0
-18.5781 28.3978 -27.9388 -0.405 -0.870 0.282 102 15 31 0
-18.4943 28.0086 -28.0080 0.086 -0.905 0.416 103 15 31 0
-17.6766 28.2297 -28.6851 -0.973 -0.229 -0.004 100 16 30 0
-17.6050 28.0586 -28.7444 -0.978 -0.208 -0.021 97 14 28 0
-19.1022 25.2604 -27.5043 -0.654 -0.398 0.643 89 11 25 0
-9.8721 28.5205 -35.1471 -0.235 -0.296 0.926 70 19 23 0
-9.5549 28.5191 -35.4098 -0.059 -0.167 0.984 71 19 23 0
-5.2547 29.2457 -38.9703 -0.278 -0.424 0.862 68 36 38 0
-4.7753 29.3431 -39.3673 -0.316 -0.527 0.789 71 41 41 0
-5.4136 28.1572 -38.8386 0.449 -0.893 0.027 85 56 55 0
9.1737 25.8546 -50.9161 -0.986 0.059 -0.155 190 181 166 0
7.1065 23.6810 -49.2041 -0.977 0.202 -0.061 191 179 163 0
7.7867 12.7122 -49.7654 -0.018 -0.994 -0.107 177 161 146 0
-0.0316 5.6770 -43.2909 0.004 -0.958 0.287 171 153 138 0
0.7030 5.5900 -43.8991 0.150 -0.987 0.059 174 152 138 0
13.1015 7.7779 -54.1651 -0.967 -0.206 0.153 254 255 255 0
13.1505 7.5831 -54.2057 -0.963 -0.216 0.162 254 254 255 0
13.3252 7.4353 -54.3503 -0.979 -0.161 0.125 255 254 255 0
-43.6538 96.6464 -7.4914 -0.738 -0.670 -0.079 255 255 255 0
-43.5580 96.4052 -7.5706 -0.784 -0.617 -0.069 255 255 255 0
-43.2414 96.2757 -7.8332 -0.432 -0.832 -0.348 68 64 63 0
-43.0938 96.1795 -7.9556 -0.450 -0.825 -0.341 228 217 213 0
-42.9354 96.1129 -8.0870 -0.496 -0.811 -0.311 233 220 214 0
-42.7843 96.0254 -8.2123 -0.535 -0.717 -0.447 232 220 214 0
-22.9269 48.3375 -24.6164 -0.352 0.000 0.936 123 35 48 0
-24.0073 46.7533 -23.7166 -0.535 0.520 0.666 123 35 48 0
-24.9613 45.3304 -22.9220 -0.996 -0.071 0.053 124 34 48 0
-24.9777 45.0333 -22.9080 -0.980 -0.196 -0.025 128 35 49 0
-24.7626 45.0118 -23.0865 -0.879 -0.045 0.475 130 35 49 0
-24.7174 44.7885 -23.1237 -0.749 -0.005 0.662 129 33 47 0
-24.7580 44.4647 -23.0894 -0.885 -0.136 0.446 127 28 45 0
-23.7686 44.2428 -23.9105 0.545 -0.558 0.626 134 34 48 0
-23.8468 43.6045 -23.8444 -0.667 -0.043 0.744 133 32 46 0
-23.9006 43.2704 -23.7991 -0.706 -0.449 -0.547 134 33 47 0
-23.7291 43.1943 -23.9414 0.405 -0.786 0.468 135 34 48 0
-23.3489 42.2715 -24.2554 -0.749 -0.432 -0.503 146 40 56 0
-23.3400 40.6827 -24.2601 -0.241 0.470 0.849 147 36 52 0
-22.9711 33.4847 -24.5538 -0.367 -0.680 0.635 164 46 66 0
-22.8419 33.3690 -24.6609 -0.515 -0.386 0.765 164 46 68 0
-22.7806 33.1872 -24.7115 -0.515 -0.386 0.765 165 48 68 0
-22.7194 33.0056 -24.7620 -0.515 -0.386 0.765 164 50 68 0
-19.7946 30.4791 -27.1860 0.360 -0.931 -0.055 131 34 53 0
-19.8390 28.1203 -27.1450 -0.581 -0.809 -0.083 108 22 39 0
-19.8201 27.9082 -27.1604 -0.710 -0.522 0.473 106 19 36 0
-18.3508 27.5440 -28.3796 -0.382 -0.025 0.924 98 16 30 0
-18.6514 26.6162 -28.1285 -0.322 0.060 0.945 94 14 26 0
-14.3779 27.9852 -31.6790 -0.966 -0.227 0.126 79 11 23 0
-14.7099 27.4915 -31.4026 -0.947 -0.046 0.318 79 12 22 0
-14.0414 27.0874 -31.9569 -0.579 -0.701 -0.416 73 14 20 0
-14.1008 26.5811 -31.9067 -0.534 -0.663 -0.525 73 13 21 0
-14.7986 25.5921 -31.3256 -0.469 -0.724 0.506 72 15 22 0
-6.1865 27.9483 -38.4802 0.460 -0.875 0.152 81 51 50 0
2.1093 31.9949 -45.3752 0.106 -0.932 -0.347 101 77 72 0
12.4880 22.2637 -53.9755 -0.702 -0.541 0.464 186 174 160 0
7.4810 13.0729 -49.8022 0.376 -0.855 0.358 178 162 147 0
13.0541 7.8111 -54.4203 -0.967 -0.206 0.153 254 255 255 0
13.1610 7.6378 -54.5088 -0.966 -0.147 0.212 254 254 255 0
13.2559 7.4601 -54.5873 -0.963 -0.209 0.171 255 255 255 0
-43.7400 96.8330 -7.7242 -0.727 -0.679 -0.098 255 255 255 0
-43.6505 96.5728 -7.7979 -0.783 -0.618 -0.071 255 255 255 0
-43.1905 96.3343 -8.1801 -0.449 -0.827 -0.337 227 216 213 0
-43.0283 96.2781 -8.3149 -0.514 -0.809 -0.285 232 219 215 0
-43.1053 95.5542 -8.2484 -0.906 -0.340 0.253 231 220 215 0
-42.6108 96.4213 -8.6630 -0.496 -0.787 -0.366 234 220 214 0
-16.4931 64.2202 -30.3017 -0.563 0.515 0.646 134 136 105 0
-20.3545 57.5142 -27.0644 -0.800 0.386 0.459 123 73 75 0
-23.9261 49.0252 -24.0625 -0.681 0.296 0.670 119 43 51 0
-23.0392 48.3654 -24.7988 -0.606 0.253 0.754 123 35 47 0
-25.0433 45.3887 -23.1202 -0.980 -0.196 -0.025 126 37 49 0
-24.9976 45.1650 -23.1575 -0.980 -0.196 -0.025 134 42 55 0
-24.9521 44.9417 -23.1946 -0.980 -0.196 -0.025 145 49 63 0
-24.9276 44.6940 -23.2143 -0.922 -0.008 0.388 137 40 54 0
-24.8563 44.5021 -23.2729 -0.885 -0.136 0.446 129 31 46 0
-24.6929 44.4189 -23.4087 -0.604 0.034 0.796 130 30 44 0
-23.8750 43.4487 -24.0865 0.079 -0.538 0.839 133 32 46 0
-23.8277 43.2304 -24.1252 0.402 -0.565 0.720 135 34 48 0
-22.8674 33.7066 -24.8931 -0.668 -0.493 0.557 163 46 66 0
-22.7930 33.5366 -24.9544 -0.668 -0.493 0.557 163 45 67 0
-23.2547 31.8918 -24.5646 -0.281 -0.639 0.716 160 49 66 0
-23.1409 31.7634 -24.6588 -0.279 -0.651 0.706 156 46 62 0
-22.9404 31.7173 -24.8256 -0.130 -0.674 0.727 153 44 61 0
-21.3725 30.5816 -26.1273 0.193 -0.902 0.386 131 34 53 0
-20.2230 28.5826 -27.0778 -0.405 -0.898 -0.171 111 25 41 0
-19.8397 28.6835 -27.3972 -0.431 -0.875 -0.220 109 25 41 0
-19.1835 28.7852 -27.9439 -0.240 -0.953 0.184 107 22 39 0
-19.8438 27.9915 -27.3915 -0.556 -0.744 0.369 106 18 35 0
-19.8894 27.7247 -27.3527 -0.732 -0.313 0.605 103 13 31 0
-20.0660 27.3480 -27.2044 -0.453 -0.793 0.408 103 13 30 0
-18.1720 27.7940 -28.7828 0.217 -0.974 0.059 97 15 29 0
-18.6546 25.3692 -28.3729 -0.483 -0.743 -0.463 87 11 24 0
-17.2081 26.2999 -29.5804 -0.797 -0.310 0.518 86 11 25 0
-14.7604 27.5513 -31.6225 -0.803 -0.079 0.591 79 11 23 0
-14.5614 27.4757 -31.7879 -0.951 -0.063 0.303 80 12 23 0
-14.5316 27.2674 -31.8121 -0.953 -0.060 0.297 78 13 23 0
-14.0326 27.4245 -32.2280 -0.484 -0.696 -0.530 75 14 21 0
-13.9461 27.2596 -32.2996 -0.658 -0.616 -0.433 74 13 20 0
-13.9331 27.0380 -32.3096 -0.493 -0.659 -0.568 72 11 20 0
5.4133 10.7062 -48.3633 -0.674 -0.686 0.275 178 162 146 0
5.4643 10.5175 -48.4052 -0.697 -0.558 0.450 177 162 146 0
13.0407 7.8573 -54.7045 -0.949 -0.287 0.130 254 255 255 0
13.2206 7.7110 -54.8538 -0.947 -0.258 0.193 254 255 255 0
-43.7756 96.6484 -7.9983 -0.666 -0.727 -0.171 255 255 255 0
-43.2936 96.4720 -8.3998 -0.450 -0.825 -0.341 228 217 214 0
-43.1203 96.4466 -8.5444 -0.520 -0.807 -0.282 232 219 215 0
-43.1955 95.7252 -8.4780 -0.912 -0.246 0.329 231 220 215 0
-16.6715 64.1900 -30.4691 -0.648 0.515 0.562 133 135 105 0
-22.0760 54.2241 -25.9078 -0.186 -0.336 0.923 121 59 67 0
-21.6738 53.8076 -26.2415 -0.229 -0.191 0.955 120 49 59 0
-24.1116 48.0932 -24.1781 -0.955 -0.297 0.005 121 38 48 0
-23.3734 48.4141 -24.7960 -0.875 -0.223 -0.430 122 35 47 0
-23.3784 48.1189 -24.7904 -0.934 -0.181 -0.309 122 34 46 0
-24.9552 44.5391 -23.4563 -0.914 -0.197 0.355 131 30 45 0
-24.8620 44.3733 -23.5334 -0.595 0.029 0.803 128 29 42 0
-23.7122 42.9663 -24.4864 0.448 -0.547 0.707 137 35 49 0
-24.4363 41.6088 -23.8752 0.620 -0.746 0.244 143 38 53 0
-23.7575 41.8358 -24.4430 0.562 -0.718 0.410 147 38 54 0
-23.6296 32.1230 -24.5022 -0.321 -0.660 0.679 162 49 67 0
-23.5274 31.9838 -24.5869 -0.308 -0.663 0.682 161 49 67 0
-23.4293 31.8407 -24.6680 -0.310 -0.669 0.676 155 45 62 0
-23.3617 31.6685 -24.7236 -0.297 -0.653 0.697 150 40 56 0
-22.9998 31.5397 -25.0252 -0.979 -0.132 0.158 145 37 56 0
-22.9124 31.3859 -25.0974 -0.522 -0.597 0.610 143 37 56 0
-20.8653 30.9190 -26.8043 0.059 -0.905 0.422 131 34 53 0
-20.7087 29.6519 -26.9288 -0.347 -0.906 0.244 127 33 51 0
-20.6102 29.5065 -27.0103 -0.358 -0.850 0.386 126 34 52 0
-20.3540 28.8050 -27.2208 -0.604 -0.227 0.764 111 24 40 0
-19.4217 29.1502 -28.0009 0.227 -0.602 0.765 109 26 41 0
-19.9554 28.0002 -27.5497 -0.692 -0.517 0.504 105 17 34 0
-20.0241 27.7135 -27.4909 -0.725 -0.306 0.616 103 13 31 0
-20.3191 27.2361 -27.2423 -0.306 -0.921 0.242 103 13 29 0
-18.4754 27.8738 -28.7848 0.214 -0.976 0.040 94 12 26 0
-19.2947 26.5128 -28.0941 -0.519 -0.645 0.561 92 11 25 0
-19.4437 26.1657 -27.9679 -0.338 0.141 0.931 88 8 22 0
-19.8144 25.6391 -27.6558 -0.316 0.191 0.929 89 9 22 0
-19.3499 25.3510 -28.0422 -0.937 -0.252 0.241 88 10 24 0
-17.4095 26.4637 -29.6678 -0.936 -0.199 0.290 87 11 24 0
-17.1436 26.4496 -29.8897 -0.884 0.002 0.468 86 10 26 0
-16.8019 26.4947 -30.1753 0.519 -0.842 0.147 84 11 25 0
-14.1145 27.4599 -32.4238 -0.685 -0.511 -0.519 74 12 21 0
-13.9168 27.3811 -32.5885 -0.638 -0.623 -0.454 73 11 21 0
-14.0406 26.8220 -32.4823 -0.568 -0.677 -0.467 73 12 25 0
-14.5206 25.9951 -32.0775 -0.452 -0.649 -0.612 71 15 22 0
-13.0899 26.3928 -33.2740 -0.786 -0.612 -0.087 69 20 21 0
-12.8317 26.1260 -33.4883 -0.534 -0.765 -0.360 67 18 20 0
-12.7347 25.9685 -33.5685 -0.766 -0.636 -0.100 69 19 26 0
-7.1396 27.7030 -38.2486 0.339 -0.870 0.357 77 45 43 0
-6.4253 27.7305 -38.8451 0.460 -0.875 0.150 81 51 49 0
2.8836 32.7352 -46.6419 -0.026 -0.913 -0.407 103 81 76 0
3.6833 33.0223 -47.3110 -0.051 -0.907 -0.417 121 103 94 0
1.8826 18.6643 -45.7371 -0.346 -0.867 0.357 190 176 164 0
5.2650 10.6989 -48.5221 -0.389 -0.529 0.755 178 162 146 0
5.2992 10.5029 -48.5497 -0.703 -0.548 0.454 177 162 146 0
12.9950 7.8915 -54.9624 -0.949 -0.287 0.130 254 255 255 0
13.1308 7.5147 -55.0739 -0.978 -0.147 0.145 255 255 255 0
-43.8768 96.7931 -8.2195 -0.666 -0.727 -0.171 255 255 255 0
-43.7157 96.7362 -8.3540 -0.436 -0.833 -0.340 135 135 136 0
-43.3938 96.6188 -8.6228 -0.450 -0.825 -0.341 227 218 211 0
-43.2313 96.5632 -8.7585 -0.514 -0.809 -0.285 232 219 212 0
-43.2651 95.9555 -8.7263 -0.878 -0.355 0.321 232 220 214 0
-42.8535 96.5962 -9.0750 -0.505 -0.817 -0.278 233 220 212 0
-22.5456 52.2742 -25.7902 -0.230 -0.162 0.960 120 49 57 0
-23.7525 49.2810 -24.7604 -0.956 -0.063 -0.285 121 41 50 0
-23.2719 48.7019 -25.1590 -0.902 -0.189 -0.388 124 37 48 0
-23.3021 48.3747 -25.1315 -0.932 -0.186 -0.310 123 35 48 0
-24.6174 46.4978 -24.0181 -0.978 0.116 -0.172 125 35 48 0
-25.0418 44.5909 -23.6504 -0.914 -0.197 0.355 131 30 45 0
-25.0057 44.3573 -23.6791 -0.623 0.043 0.781 129 28 42 0
-23.9089 42.8907 -24.5879 0.467 -0.555 0.689 136 34 48 0
-23.7246 35.5542 -24.6946 -0.504 -0.655 0.563 152 37 54 0
-23.5853 35.4477 -24.8105 -0.453 -0.741 0.495 152 37 54 0
-24.0037 34.0415 -24.4511 -0.455 -0.593 0.665 155 40 55 0
-23.5045 31.4115 -24.8520 0.051 -0.998 0.024 146 39 56 0
-22.6804 31.4830 -25.5424 -0.543 -0.627 0.559 139 36 57 0
-22.7442 31.1865 -25.4870 -0.421 -0.705 0.571 138 36 57 0
-20.4047 31.9292 -27.4507 0.579 -0.613 0.537 129 33 53 0
-20.6587 29.5720 -27.2227 -0.440 -0.822 0.362 125 32 50 0
-20.0020 29.2184 -27.7703 -0.496 -0.226 0.838 112 25 41 0
-19.5040 29.1858 -28.1870 -0.532 -0.504 0.681 111 28 42 0
-19.7083 26.7211 -27.9999 -0.521 -0.700 0.488 95 12 28 0
-19.6036 26.5827 -28.0867 -0.484 -0.632 0.605 93 11 27 0
-19.5091 26.4358 -28.1648 -0.484 -0.632 0.605 92 11 26 0
-19.6264 25.8913 -28.0632 -0.502 -0.265 0.823 92 10 25 0
-19.4641 25.8008 -28.1984 -0.162 -0.193 0.968 90 9 24 0
-17.0837 26.3689 -30.1952 -0.776 -0.560 0.291 87 12 27 0
-15.2450 26.9070 -31.7381 -0.097 -0.938 -0.332 76 11 21 0
-14.2517 27.4524 -32.5733 -0.087 -0.954 -0.285 74 12 22 0
-13.8856 27.5046 -32.8802 -0.609 -0.694 -0.384 73 11 23 0
-13.9794 26.9671 -32.7981 -0.948 -0.300 0.104 71 11 23 0
-11.5620 25.7775 -34.8144 0.078 -0.857 -0.509 68 27 31 0
-9.3044 26.9547 -36.7122 -0.184 -0.905 -0.383 70 33 37 0
-6.4257 28.3110 -39.1313 0.072 -0.990 0.118 76 45 43 0
-6.2572 28.1887 -39.2715 0.089 -0.991 0.103 79 49 47 0
-0.1893 30.9660 -44.3700 0.155 -0.936 -0.315 97 73 72 0
6.3282 34.1326 -49.8475 -0.057 -0.883 -0.466 191 180 162 0
1.8224 18.7056 -45.9747 -0.677 -0.736 -0.019 190 176 163 0
2.0773 18.3905 -46.1862 -0.783 -0.593 -0.186 191 174 164 0
-14.2323 9.0442 -32.4700 0.308 -0.436 0.845 187 174 160 0
5.1469 10.4939 -48.7050 -0.493 -0.187 0.850 177 164 148 0
14.7149 13.2886 -56.7340 -0.510 -0.843 0.170 170 157 141 0
13.1653 9.5241 -55.4121 -0.878 -0.475 -0.065 166 147 132 0
-44.0824 97.1585 -8.3556 -0.717 -0.690 -0.094 255 255 255 0
-43.9835 96.9229 -8.4368 -0.721 -0.678 -0.143 255 255 255 0
-43.8175 96.8800 -8.5758 -0.436 -0.833 -0.340 135 135 135 0
-43.6469 96.8491 -8.7188 -0.436 -0.833 -0.340 69 65 63 0
-43.4943 96.7660 -8.8462 -0.450 -0.825 -0.341 228 219 211 0
-43.3320 96.7095 -8.9821 -0.517 -0.803 -0.296 233 220 212 0
-43.3817 96.0549 -8.9350 -0.878 -0.355 0.321 234 221 214 0
-19.5490 59.1320 -28.6465 -0.850 0.375 0.370 122 73 76 0
-22.5680 52.4216 -26.0575 -0.358 -0.036 0.933 120 48 59 0
-22.7174 51.9304 -25.9281 -0.629 -0.752 -0.196 118 44 54 0
-24.1702 48.3506 -24.6794 -0.957 -0.291 0.005 120 36 49 0
-23.1714 48.9896 -25.5231 -0.912 -0.179 -0.369 123 36 49 0
-23.2551 48.5961 -25.4497 -0.950 -0.177 -0.256 122 34 48 0
-24.5043 46.7947 -24.3863 -0.979 0.119 -0.165 124 33 47 0
-24.6472 46.3385 -24.2627 -0.979 0.120 -0.163 124 32 45 0
-25.0997 44.6770 -23.8693 -0.911 -0.196 0.363 131 30 46 0
-25.1846 44.2998 -23.7950 -0.617 0.045 0.785 129 28 44 0
-23.7339 43.5122 -25.0066 0.626 -0.352 0.696 133 31 45 0
-23.7900 43.1747 -24.9568 0.542 -0.215 0.812 135 33 47 0
-24.5418 42.0483 -24.3164 0.334 -0.182 0.925 137 35 49 0
-24.5891 41.7264 -24.2741 0.442 -0.589 0.677 141 37 52 0
-25.1960 35.9003 -23.7175 -0.151 -0.572 0.806 147 31 50 0
-23.8625 35.5403 -24.8342 -0.504 -0.655 0.563 151 36 53 0
-23.5058 35.4064 -25.1326 -0.813 0.110 0.572 148 33 50 0
-24.0350 34.1333 -24.6780 -0.560 -0.550 0.619 156 43 57 0
-23.2904 31.7316 -25.2837 -0.116 -0.977 0.181 145 38 56 0
-23.1334 31.4068 -25.4129 -0.131 -0.308 0.942 143 40 59 0
-23.0653 31.2348 -25.4687 -0.328 -0.159 0.931 138 36 57 0
-22.6136 30.9511 -25.8457 -0.185 -0.948 0.259 136 34 56 0
-20.5691 29.5267 -27.5507 -0.444 -0.896 -0.024 120 29 46 0
-19.6434 29.4052 -28.3269 -0.945 -0.269 0.187 110 25 40 0
-19.6215 29.1909 -28.3436 -0.953 -0.271 0.137 108 24 37 0
-19.4213 29.1311 -28.5112 -0.974 -0.196 0.111 106 22 36 0
-19.5735 26.0335 -28.3584 -0.423 -0.746 0.514 94 11 27 0
-19.2728 26.0556 -28.6110 -0.370 -0.608 0.703 92 11 26 0
-17.1079 26.6759 -30.4337 -0.642 0.152 0.751 88 11 27 0
-17.1536 26.4117 -30.3932 -0.769 -0.579 0.270 89 14 29 0
-12.1976 26.5609 -34.5554 -0.046 -0.981 -0.190 68 18 25 0
-12.7257 25.9355 -34.1070 -0.387 -0.792 -0.473 68 19 28 0
-9.2461 27.3304 -37.0398 0.109 -0.899 -0.425 70 30 36 0
-7.6090 28.0409 -38.4200 0.035 -0.938 -0.345 72 37 39 0
-4.8900 28.7699 -40.7087 0.333 -0.930 0.158 83 55 53 0
5.6757 34.0638 -49.6225 -0.066 -0.882 -0.466 190 177 160 0
16.5714 13.9032 -58.6075 0.209 -0.677 0.706 171 158 142 0
12.7159 8.1037 -55.3236 -0.970 -0.228 0.081 247 247 245 0
13.3462 7.6971 -55.8495 -0.930 -0.366 0.011 255 254 255 0
-44.1970 97.2672 -8.5668 -0.701 -0.689 -0.184 255 255 255 0
-44.0848 97.0694 -8.6594 -0.729 -0.669 -0.142 255 255 255 0
-43.9195 97.0243 -8.7981 -0.436 -0.833 -0.340 136 135 135 0
-43.7488 96.9934 -8.9415 -0.436 -0.833 -0.340 69 65 63 0
-43.5950 96.9135 -9.0703 -0.450 -0.825 -0.341 229 219 209 0
-43.4347 96.8510 -9.2046 -0.509 -0.809 -0.294 233 221 210 0
-44.0159 94.1857 -8.6895 -0.621 0.313 0.718 234 222 213 0
-42.1234 66.9352 -10.0191 -0.514 0.364 0.776 235 227 218 0
-42.3516 66.0894 -9.8188 -0.509 0.362 0.781 235 227 218 0
-22.9014 54.3282 -26.0809 -0.194 -0.862 0.468 119 65 71 0
-22.6485 54.3440 -26.2940 -0.742 -0.100 0.663 118 61 68 0
-20.7288 53.3637 -27.9008 -0.868 -0.482 0.118 121 39 51 0
-24.4648 48.1537 -24.7049 -0.942 -0.336 0.008 121 37 50 0
-23.5462 48.9904 -25.4864 -0.970 -0.240 0.044 121 37 50 0
-23.2444 49.0667 -25.7412 -0.960 -0.041 0.278 123 36 49 0
-23.9533 47.6236 -25.1304 -0.879 0.232 0.417 123 32 47 0
-24.6425 46.5040 -24.5393 -0.984 0.109 -0.140 122 30 44 0
-24.6940 41.7533 -24.4499 0.448 -0.545 0.709 141 37 52 0
-24.4648 41.4766 -24.6403 0.259 -0.902 0.346 145 38 54 0
-23.9877 35.2908 -24.9821 -0.668 -0.580 0.466 147 32 49 0
-23.6096 35.4275 -25.3017 -0.975 -0.167 0.146 147 31 49 0
-23.1894 31.7065 -25.6196 -0.400 -0.264 0.877 149 45 62 0
-23.2078 31.4516 -25.6015 -0.529 -0.260 0.808 142 40 58 0
