ply
format ascii 1.0
element vertex 820
property float x
property float y
property float z
property float nx
property float ny
property float nz
property uchar diffuse_red
property uchar diffuse_green
property uchar diffuse_blue
property uchar class
end_header
-27.0622 33.0357 -32.9143 -0.403 -0.915 -0.004 113 19 35 0
-27.2659 32.6080 -32.6928 -0.231 -0.965 -0.127 115 21 39 0
-26.0293 33.2647 -33.9311 0.029 -0.528 0.848 111 18 36 0
-22.7078 31.8491 -37.0833 -0.935 -0.094 -0.343 95 16 30 0
-23.7697 30.2368 -35.9626 -0.963 0.024 -0.268 96 18 31 0
-23.3361 30.3642 -36.3912 0.413 -0.910 -0.026 96 20 32 0
-22.4001 30.9076 -37.3310 0.419 -0.908 -0.015 96 19 32 0
-24.2956 28.8661 -35.3764 0.210 -0.961 -0.179 96 20 32 0
-24.0214 28.8608 -35.6427 0.472 -0.770 0.430 96 20 32 0
-24.3217 28.3840 -35.3247 0.400 -0.550 0.733 95 19 32 0
5.4852 22.6244 -63.9924 -0.394 0.123 0.911 182 169 161 0
3.2088 20.2458 -61.6488 -0.812 -0.175 0.557 181 167 158 0
-5.8136 6.9878 -52.1511 -0.719 -0.274 -0.639 173 161 155 0
-26.1557 60.6287 -35.6292 -0.737 0.250 0.629 196 197 193 0
-26.0149 60.1607 -35.7401 -0.577 0.077 0.813 193 193 191 0
-25.4571 60.5733 -36.3074 -0.631 -0.766 0.124 190 190 188 0
-17.7382 68.6186 -44.2875 0.167 -0.798 0.579 180 175 176 0
-24.0049 55.9934 -37.4652 -0.922 0.367 -0.122 142 71 83 0
-24.4306 55.1586 -37.0031 -0.918 0.387 -0.088 142 70 84 0
-24.7640 54.4413 -36.6375 -0.905 0.422 -0.061 141 66 80 0
-27.4576 49.6893 -33.7432 -0.987 0.152 0.042 135 53 67 0
-27.5266 49.0263 -33.6385 -0.707 0.560 0.431 135 54 67 0
-27.6670 48.5715 -33.4760 -0.679 0.548 0.489 134 53 66 0
-28.0207 47.8678 -33.0914 -0.907 0.120 0.404 135 52 65 0
-28.0094 47.5963 -33.0872 -0.905 0.114 0.411 136 51 64 0
-27.9792 47.3477 -33.1026 -0.899 0.127 0.420 134 47 60 0
-28.0744 46.9539 -32.9876 -0.725 0.487 0.487 135 44 60 0
-30.2307 43.9014 -30.7129 0.098 -0.551 0.828 135 42 60 0
-30.0911 43.7917 -30.8429 0.132 -0.143 0.981 136 40 60 0
-28.4269 44.3271 -32.4958 0.316 -0.538 0.781 138 37 53 0
-28.4995 42.8896 -32.3440 -0.836 -0.549 -0.000 142 37 54 0
-28.3896 42.2067 -32.4126 -0.701 0.154 0.696 151 44 60 0
-28.9057 40.0689 -31.7889 -0.793 0.090 0.602 141 37 51 0
-28.7354 37.4334 -31.8065 0.003 -0.598 0.802 142 40 54 0
-28.1500 36.0229 -32.2978 -0.547 -0.660 0.514 129 28 42 0
-28.2047 35.4744 -32.2135 -0.924 -0.315 0.215 131 30 44 0
-26.9352 33.5165 -33.3411 -0.858 -0.153 0.490 116 19 36 0
-26.7985 33.4020 -33.4679 -0.858 -0.151 0.492 114 20 36 0
-23.3589 30.4568 -36.6559 0.455 -0.509 0.731 95 20 30 0
-22.6333 30.1124 -37.3440 0.137 -0.990 -0.045 94 18 31 0
-2.4256 41.6658 -57.6998 -0.844 0.411 0.345 77 30 38 0
2.8504 20.1472 -61.6317 -0.755 -0.132 0.643 180 167 158 0
3.1204 20.0364 -61.8887 -0.443 -0.090 0.892 180 167 158 0
-25.8230 61.6158 -36.3378 -0.561 0.040 0.827 198 198 197 0
-25.6255 61.2168 -36.5077 -0.529 -0.430 0.731 196 196 197 0
-25.1598 61.1747 -36.9607 -0.660 -0.697 0.280 193 191 194 0
-23.1349 58.5404 -38.7878 -0.837 0.472 0.276 150 89 99 0
-23.0080 58.3750 -38.9023 -0.878 0.440 0.187 149 82 92 0
-24.1223 55.7234 -37.6588 -0.918 0.388 -0.087 143 72 86 0
-24.4291 55.0352 -37.3188 -0.889 0.457 -0.003 141 67 82 0
-24.7321 54.3556 -36.9831 -0.859 0.511 0.021 142 64 79 0
-27.3503 49.9903 -34.1694 -0.954 0.231 0.190 135 55 68 0
-27.5984 49.1113 -33.8757 -0.703 0.560 0.438 136 54 68 0
-28.1082 47.6466 -33.2922 -0.905 0.120 0.407 140 54 67 0
-30.4983 43.7488 -30.7287 0.126 -0.629 0.767 135 42 60 0
-30.1963 43.8269 -31.0285 -0.263 0.191 0.946 136 40 60 0
-27.9953 45.8042 -33.2956 0.160 -0.512 0.844 139 38 58 0
-28.4682 44.7114 -32.7697 0.350 -0.774 0.529 138 37 53 0
-28.6596 42.8641 -32.4754 -0.763 -0.646 0.027 142 37 54 0
-28.5537 42.7124 -32.5701 -0.745 -0.666 -0.033 143 38 55 0
-28.4941 42.5097 -32.6166 -0.563 -0.826 0.016 144 36 54 0
-28.4965 42.2393 -32.5986 -0.722 0.154 0.674 145 36 53 0
-29.0288 40.0809 -31.9527 -0.793 0.090 0.602 148 46 59 0
-29.2746 39.3013 -31.6671 -0.835 0.248 0.492 139 34 50 0
-29.2585 39.0613 -31.6689 -0.814 0.261 0.518 137 32 47 0
-27.4247 35.8731 -33.2771 -0.906 -0.420 -0.056 128 27 40 0
-24.1459 29.6737 -36.1234 -0.719 -0.658 -0.226 95 22 31 0
-2.9383 41.1111 -57.5257 -0.620 0.432 0.655 81 34 41 0
-7.3727 35.2663 -52.8502 -0.449 -0.845 -0.292 99 71 72 0
-3.0562 35.6427 -57.0929 -0.054 -0.998 0.043 151 142 137 0
-3.5324 34.4882 -56.5603 -0.249 -0.967 -0.060 161 149 149 0
-8.2575 30.6969 -51.7197 -0.709 -0.688 0.153 165 153 153 0
-28.2941 57.2094 -33.9806 -0.816 -0.568 -0.107 193 193 194 0
-22.7228 58.9269 -39.5467 -0.854 0.484 0.190 150 88 97 0
-24.3684 55.9239 -37.7535 -0.859 0.491 0.147 151 82 94 0
-27.2660 50.5600 -34.5915 -0.860 0.289 0.422 136 58 70 0
-27.1528 50.4011 -34.6930 -0.875 0.316 0.366 136 56 69 0
-28.2291 47.6710 -33.4744 -0.852 0.134 0.506 144 60 74 0
-28.2000 47.4205 -33.4880 -0.902 0.121 0.413 142 56 70 0
-28.3067 47.0118 -33.3589 -0.731 0.469 0.495 135 47 62 0
-28.9698 45.6785 -32.6289 -0.749 0.557 0.358 137 44 62 0
-28.5309 45.9078 -33.0731 -0.334 0.165 0.928 136 42 60 0
-29.0920 44.9833 -32.4676 -0.310 0.184 0.933 135 39 58 0
-29.3047 43.3749 -32.1629 -0.984 0.000 -0.176 138 36 52 0
-28.6780 42.9959 -32.7548 -0.753 -0.657 0.033 142 37 55 0
-28.6230 42.7873 -32.7963 -0.733 -0.680 0.019 143 36 56 0
-28.6237 42.5177 -32.7795 -0.410 -0.912 0.027 143 35 55 0
-29.1000 40.1485 -32.1709 -0.729 -0.038 0.684 157 53 67 0
-29.3346 39.3793 -31.8949 -0.837 0.250 0.487 139 34 50 0
-28.0936 40.1754 -33.1594 -0.886 -0.280 -0.368 137 32 48 0
-28.5411 38.6706 -32.6307 -0.878 -0.433 -0.204 131 29 46 0
-28.9771 37.7096 -32.1456 -0.878 -0.361 0.314 130 29 45 0
-27.8634 36.0705 -33.1398 0.030 -0.861 0.508 130 29 43 0
-26.8349 32.6474 -33.9439 -0.105 -0.673 0.732 115 23 40 0
-5.9844 36.6800 -54.6319 -0.946 0.096 0.310 100 73 76 0
-5.9308 36.4444 -54.6704 -0.950 0.079 0.301 97 74 74 0
1.2745 39.6828 -61.9297 0.088 -0.260 0.962 143 133 129 0
-8.2362 30.5606 -52.0580 -0.766 -0.476 0.431 169 155 155 0
-8.0179 30.4539 -52.2657 -0.704 -0.473 0.529 169 157 156 0
-10.3257 28.3822 -49.8788 -0.768 -0.470 0.435 172 162 160 0
-24.0248 56.2215 -38.4343 -0.884 0.454 0.109 146 75 89 0
-27.0719 50.6733 -35.0967 -0.859 0.312 0.407 139 59 72 0
-27.3093 50.0931 -34.8277 -0.815 0.342 0.468 139 57 71 0
-28.3640 47.3940 -33.6246 -0.895 0.119 0.430 142 55 71 0
-29.0343 45.2094 -32.8310 -0.254 0.120 0.960 136 41 60 0
-29.0377 43.8316 -32.7430 -0.981 -0.023 -0.192 137 35 52 0
-29.4975 43.0413 -32.2423 -0.976 -0.216 -0.013 139 36 53 0
-30.3268 41.5765 -31.3367 -0.988 -0.027 -0.150 140 37 55 0
-29.2386 40.1440 -32.3189 -0.729 -0.038 0.684 143 39 53 0
-28.5565 38.7940 -32.9067 -0.879 -0.429 -0.207 129 28 46 0
-27.8910 39.2276 -33.5878 -0.998 -0.053 -0.025 129 27 46 0
-27.8334 39.0284 -33.6322 -0.997 -0.063 -0.042 128 27 46 0
-29.0704 36.9931 -32.2906 0.120 -0.886 0.448 129 28 44 0
-27.0426 36.5086 -34.2550 -0.085 -0.996 -0.025 131 29 43 0
-26.9822 32.6325 -34.0762 -0.112 -0.692 0.713 114 23 38 0
-23.3524 33.7154 -37.7124 -0.617 -0.781 0.095 101 19 33 0
-22.4550 34.2603 -38.6285 -0.422 -0.904 0.073 100 18 32 0
-22.2518 34.1895 -38.8240 -0.420 -0.905 0.069 99 18 31 0
-23.5935 31.5538 -37.3425 -0.997 -0.000 0.082 98 17 32 0
-3.3639 41.0435 -57.8201 -0.771 0.379 0.512 89 42 51 0
-5.7790 36.9518 -55.1936 -0.955 0.229 0.190 100 75 76 0
-5.8410 36.6297 -55.1128 -0.968 0.120 0.222 103 81 80 0
3.0176 19.7315 -62.7862 -0.331 -0.433 0.838 177 168 158 0
-23.4672 57.4213 -39.3870 -0.846 0.490 0.211 150 79 92 0
-27.1806 50.7182 -35.3014 -0.850 0.513 0.123 140 61 74 0
-28.4467 47.7489 -33.8652 -0.736 0.310 0.602 139 54 70 0
-28.4647 47.4421 -33.8281 -0.898 0.118 0.424 140 53 69 0
-29.4313 43.2702 -32.6113 -0.940 -0.224 0.256 138 36 54 0
-27.9264 44.6926 -34.1852 0.494 -0.654 0.573 141 38 57 0
-28.7167 43.5310 -33.3325 -0.853 -0.366 -0.372 140 37 56 0
-29.3905 40.1251 -32.4528 -0.722 -0.031 0.691 138 36 50 0
-28.2607 38.9840 -33.4950 -0.993 -0.118 -0.026 128 26 48 0
-28.7955 37.1569 -32.8522 -0.949 -0.312 -0.031 126 26 45 0
-26.8351 37.6077 -34.8140 0.277 -0.937 0.214 127 28 43 0
-27.1747 32.5760 -34.1613 -0.112 -0.692 0.713 113 23 38 0
-21.9203 34.6033 -39.4713 -0.430 -0.749 -0.504 97 17 30 0
-23.9566 31.3575 -37.2580 -0.931 -0.225 0.286 100 17 33 0
-23.9879 31.0910 -37.2103 -0.932 -0.234 0.276 99 18 33 0
-24.6841 29.5541 -36.4266 -0.935 -0.329 -0.134 99 23 35 0
-23.6202 29.9745 -37.5025 -0.766 -0.309 0.563 94 19 33 0
-23.5695 29.7804 -37.5402 -0.766 -0.309 0.563 91 17 34 0
-20.3422 32.2133 -40.8767 -0.567 -0.406 -0.717 90 17 33 0
-18.9384 33.1229 -42.3186 -0.485 -0.502 -0.716 89 20 34 0
-5.7010 37.1299 -55.6267 -0.943 0.257 0.213 102 79 79 0
-5.8168 36.7670 -55.4896 -0.944 0.247 0.219 111 90 89 0
1.8330 40.3313 -63.2592 -0.159 -0.317 0.935 145 134 131 0
-5.7754 18.2069 -54.3580 -0.954 -0.093 0.286 185 171 169 0
2.7941 19.9438 -62.9192 -0.239 -0.357 0.903 176 168 157 0
-15.3744 72.8447 -48.7230 -0.881 0.044 0.472 192 184 182 0
-15.3705 72.4719 -48.7026 -0.985 -0.041 0.169 189 180 179 0
-14.7316 72.9264 -49.3640 -0.996 -0.077 0.037 187 177 175 0
-21.7704 60.3865 -41.5890 -0.812 0.577 0.086 155 92 103 0
-23.4828 57.5960 -39.7143 -0.834 0.496 0.239 153 83 97 0
-25.3016 53.1667 -37.6281 -0.918 0.397 0.010 139 63 75 0
-25.5849 52.2160 -37.2863 -0.886 0.463 -0.035 138 56 70 0
-28.5204 47.8297 -34.0985 -0.730 0.336 0.595 138 53 69 0
-28.5187 47.5455 -34.0817 -0.896 0.117 0.429 140 52 68 0
-28.5269 39.8859 -33.5767 -0.762 -0.418 -0.494 132 30 49 0
-28.2907 39.6129 -33.7925 -0.769 -0.419 -0.484 131 30 50 0
-27.3947 40.0269 -34.7056 -0.907 -0.345 -0.243 127 28 49 0
-28.1222 37.7247 -33.8367 -0.915 -0.368 -0.166 129 30 50 0
-27.9165 37.6785 -34.0371 -0.906 -0.377 -0.192 127 28 47 0
-26.2124 37.3350 -35.7003 0.208 -0.512 0.834 128 27 41 0
-26.0851 37.2041 -35.8177 0.166 -0.486 0.858 126 26 41 0
-26.6786 33.3980 -34.9838 -0.842 -0.358 -0.404 113 25 39 0
-27.3667 32.5196 -34.2462 -0.112 -0.692 0.713 115 25 39 0
-26.4582 31.4331 -35.0742 -0.999 0.030 -0.015 103 21 35 0
-26.3795 31.2657 -35.1413 -0.987 0.100 0.126 102 20 35 0
-26.3742 31.0332 -35.1313 -0.879 0.355 0.320 99 19 32 0
-25.7324 30.4149 -35.7260 0.344 -0.851 0.398 98 15 31 0
-24.0767 31.3696 -37.4254 -0.930 -0.218 0.296 99 16 32 0
-10.1738 42.1782 -51.8769 -0.413 -0.838 0.356 98 22 33 0
-23.4143 30.2580 -38.0085 -0.858 -0.513 -0.038 94 20 34 0
-23.0854 30.2942 -38.3362 -0.857 -0.512 -0.062 92 19 35 0
-5.5247 37.3820 -56.1638 -0.935 0.230 0.270 109 89 88 0
-18.1873 13.7874 -42.1096 -0.557 0.221 0.800 185 177 166 0
-5.9264 18.2045 -54.5223 -0.887 -0.394 -0.241 183 169 168 0
2.4775 19.8661 -62.9418 -0.302 -0.470 0.829 177 168 158 0
2.0756 19.4256 -62.5157 0.210 -0.628 0.750 176 168 158 0
-15.1983 73.6936 -49.3357 -0.931 0.196 0.308 195 187 185 0
-15.3365 73.1307 -49.1611 -0.879 0.067 0.473 193 185 183 0
-15.0341 73.1471 -49.4621 -0.832 -0.338 0.441 191 183 181 0
-14.7141 72.8048 -49.7567 -0.734 -0.677 0.062 187 177 176 0
-16.9874 69.4847 -47.2809 -0.880 0.473 0.043 187 175 175 0
-27.2871 50.6453 -35.8108 -0.994 0.103 0.033 137 59 72 0
-27.6835 49.8720 -35.3662 -0.971 0.196 0.135 138 58 71 0
-28.7640 47.4230 -34.1314 -0.889 0.105 0.447 140 53 69 0
-28.4136 45.0127 -34.3184 -0.943 -0.109 -0.313 137 41 59 0
-28.5626 44.5662 -34.1409 -0.963 -0.084 -0.257 138 40 58 0
-28.8170 44.0028 -33.8511 -0.853 -0.442 0.276 138 40 57 0
-28.2988 44.3120 -34.3857 -0.791 -0.559 -0.250 138 40 59 0
-28.2310 43.8379 -34.4213 -0.906 -0.396 0.152 135 37 54 0
-31.1447 37.7561 -31.1265 -0.823 0.326 0.465 133 32 50 0
-28.4635 39.3134 -33.8894 -0.028 -0.947 0.320 130 29 50 0
-26.3493 37.0789 -35.8375 0.166 -0.486 0.858 128 28 43 0
-26.5810 33.6117 -35.3769 -0.842 -0.358 -0.404 112 24 38 0
-26.4414 33.4967 -35.5077 -0.628 -0.494 -0.602 114 24 39 0
-26.1618 33.5104 -35.7858 -0.682 -0.435 -0.588 115 23 38 0
-26.1582 33.0260 -35.7572 -0.861 -0.303 -0.408 112 23 37 0
-25.9873 32.6960 -35.9047 -0.867 -0.300 -0.399 108 21 34 0
-25.9277 32.5077 -35.9513 -0.886 -0.267 -0.379 104 19 33 0
-26.3880 31.8525 -35.4511 -1.000 0.027 -0.008 102 19 33 0
-26.4058 31.5975 -35.4165 -0.998 0.050 0.036 102 21 35 0
-26.4033 31.3613 -35.4032 -0.987 0.100 0.126 102 21 34 0
-26.5004 31.0375 -35.2854 -0.875 0.354 0.330 99 18 31 0
-26.2845 30.7550 -35.4807 -0.164 -0.759 0.630 99 19 32 0
-25.9368 30.3513 -35.7986 0.400 -0.801 0.445 98 16 31 0
-24.2950 31.2971 -37.4900 -0.819 -0.277 0.503 96 13 29 0
-10.4291 42.3856 -51.9809 -0.380 -0.818 0.431 99 21 34 0
-10.0576 41.8386 -52.3130 -0.730 -0.556 0.397 101 26 37 0
-10.0308 41.5750 -52.3220 -0.902 -0.166 0.398 94 22 33 0
-8.7537 30.1144 -52.8255 -0.657 -0.551 0.515 174 164 161 0
-8.6583 29.9242 -52.9075 -0.657 -0.551 0.515 175 166 161 0
-5.5953 18.2247 -55.1664 -0.843 -0.442 -0.307 181 169 166 0
-5.4618 18.0650 -55.2881 -0.878 -0.357 -0.318 180 169 166 0
-5.6702 17.7293 -55.0590 -0.939 -0.225 0.259 181 170 168 0
-5.2050 7.1941 -54.8189 0.099 -0.968 -0.232 172 160 148 0
-14.8236 72.8977 -50.0385 -0.734 -0.677 0.062 190 179 180 0
-21.3328 61.0057 -42.7518 -0.867 0.492 -0.081 162 101 111 0
-28.4785 44.8203 -34.5387 -0.963 -0.084 -0.257 137 40 57 0
-28.8691 44.1008 -34.1011 -0.861 -0.437 0.261 136 39 56 0
-28.9419 43.7441 -34.0043 -0.806 -0.241 0.541 137 40 58 0
-28.3042 43.9118 -34.6500 -0.921 -0.357 0.158 138 40 57 0
-31.3608 37.6643 -31.1831 -0.913 0.271 0.305 134 33 51 0
-27.0763 37.5170 -35.4344 -0.618 0.112 0.778 131 34 46 0
-26.6537 36.9139 -35.8136 0.172 -0.482 0.859 127 27 42 0
-26.3651 36.9417 -36.1026 0.018 -0.442 0.897 126 27 42 0
-25.7020 37.3326 -36.7888 -0.742 -0.525 0.416 127 26 42 0
-27.2615 35.5642 -35.1169 -0.762 -0.641 -0.091 128 27 42 0
-27.0070 35.5603 -35.3697 -0.654 -0.752 -0.082 126 27 41 0
-26.5297 31.1279 -35.5417 -0.941 0.072 0.330 102 21 34 0
-26.6807 30.5211 -35.3501 -0.969 0.093 0.231 98 19 32 0
-19.4751 36.3551 -42.9155 -0.688 -0.616 -0.383 99 18 34 0
-19.4298 35.8750 -42.9278 -0.802 -0.397 -0.446 97 15 31 0
-10.5957 42.3810 -52.1589 -0.443 -0.835 0.326 103 24 36 0
-10.4216 42.2415 -52.3226 -0.445 -0.814 0.374 123 47 57 0
-10.2425 42.1058 -52.4915 -0.449 -0.798 0.402 125 49 59 0
-10.1872 41.8653 -52.5301 -0.736 -0.552 0.391 107 31 42 0
-10.1762 41.5881 -52.5220 -0.901 -0.187 0.391 95 23 34 0
-17.3297 35.0673 -44.9614 -0.606 -0.362 -0.708 90 22 33 0
-9.7366 31.5922 -52.2764 -0.276 -0.519 0.809 158 150 149 0
-9.4935 29.9663 -52.4072 -0.783 -0.281 0.555 174 164 162 0
-9.5702 29.6594 -52.3099 -0.793 -0.207 0.572 175 165 163 0
-11.7878 27.4014 -49.9500 -0.611 -0.716 -0.337 174 169 164 0
-13.6817 15.5583 -47.2571 -0.630 -0.692 -0.352 186 172 169 0
-5.4138 13.9083 -55.3680 0.403 -0.910 0.097 175 165 158 0
-0.2145 13.3701 -60.5026 -0.426 -0.665 -0.613 173 162 159 0
-8.5750 6.9184 -51.7463 -0.015 -0.012 1.000 173 160 151 0
-25.0751 53.9925 -38.8741 -0.887 0.428 -0.172 143 67 79 0
-30.2940 43.4537 -32.9303 0.250 -0.709 0.659 138 44 60 0
-29.1310 43.9612 -34.1259 -0.632 -0.539 0.557 137 40 57 0
-28.0329 41.6465 -35.0591 -0.684 0.038 0.728 135 35 51 0
-27.9334 41.4855 -35.1471 -0.491 0.378 0.785 132 33 50 0
-28.3411 40.7818 -34.6911 -0.977 -0.177 -0.119 133 33 51 0
-27.6242 41.2808 -35.4412 -0.956 -0.099 -0.277 134 33 51 0
-27.5612 41.0805 -35.4900 -0.987 0.041 -0.157 133 32 50 0
-27.3242 41.0645 -35.7253 -0.987 0.064 -0.146 130 30 48 0
-27.5682 40.5409 -35.4452 -0.982 0.180 -0.054 132 32 50 0
-29.0588 37.9418 -33.7763 -0.837 -0.211 0.505 129 28 46 0
-26.7873 38.1999 -36.0601 -0.960 0.077 -0.270 130 34 47 0
-28.5933 34.6460 -34.0098 -0.489 -0.870 0.068 129 28 42 0
-28.4014 34.5867 -34.1971 -0.446 -0.871 0.206 128 27 43 0
-28.2273 34.5093 -34.3653 -0.441 -0.875 0.201 126 27 41 0
-26.5094 34.9169 -36.1074 -0.245 -0.924 -0.294 116 24 36 0
-26.6361 34.0544 -35.9206 0.066 -0.806 0.588 113 25 37 0
-19.2760 36.9189 -43.4627 -0.691 -0.680 0.247 99 18 33 0
-19.3477 36.5936 -43.3683 -0.900 -0.375 -0.223 99 18 33 0
-10.6450 42.4767 -52.4609 -0.701 -0.635 0.323 106 28 40 0
-10.5515 42.2682 -52.5396 -0.695 -0.642 0.322 124 47 58 0
-10.3960 42.1125 -52.6838 -0.697 -0.659 0.284 114 38 49 0
-10.3205 41.8889 -52.7434 -0.726 -0.561 0.398 100 25 37 0
-10.2874 41.6300 -52.7583 -0.901 -0.187 0.391 94 22 33 0
-10.5790 41.1000 -52.4304 -0.963 -0.104 0.247 92 21 32 0
-9.9684 31.7953 -52.3877 -0.123 -0.584 0.802 156 150 151 0
-9.9266 31.5661 -52.4133 -0.091 -0.566 0.819 159 154 151 0
0.3249 18.0813 -61.6943 0.661 -0.659 0.358 175 165 162 0
0.6162 12.6667 -61.6056 -0.787 -0.401 -0.469 176 163 155 0
-8.8557 6.8593 -51.7511 -0.015 -0.012 1.000 172 159 150 0
-8.9444 6.2345 -51.6188 -0.445 -0.787 -0.428 174 160 150 0
-25.8691 51.9862 -38.2604 -0.530 0.552 0.643 141 61 72 0
-26.5469 49.0916 -37.3747 -0.589 -0.790 -0.167 141 48 64 0
-29.9472 44.0102 -33.6087 0.362 -0.391 0.846 137 43 60 0
-29.2814 43.9476 -34.2702 -0.614 -0.614 0.497 138 41 60 0
-28.3086 44.2204 -35.2629 -0.810 -0.507 0.296 139 42 58 0
-28.0662 42.0292 -35.3481 -0.635 0.072 0.769 133 35 50 0
-28.0181 41.8117 -35.3806 -0.641 0.065 0.765 133 35 50 0
-27.9558 41.6099 -35.4284 -0.498 0.274 0.823 133 33 51 0
-28.2205 41.0579 -35.1240 -0.624 0.320 0.713 133 32 50 0
-27.7241 40.5218 -35.5821 -0.979 -0.100 -0.178 133 32 50 0
-28.8293 39.0952 -34.3742 -0.438 -0.591 0.677 132 29 47 0
-28.7390 38.9302 -34.4526 -0.447 -0.587 0.675 132 30 47 0
-29.1592 37.9764 -33.9639 -0.832 -0.189 0.522 132 31 48 0
-29.1027 37.7791 -34.0063 -0.835 -0.192 0.516 131 30 47 0
-27.2739 37.8482 -35.8405 -0.584 0.143 0.799 135 38 53 0
-27.3195 36.7792 -35.7182 0.062 -0.388 0.920 133 32 46 0
-27.1141 36.7277 -35.9200 0.109 -0.504 0.857 131 30 44 0
-28.4519 34.6658 -34.4338 -0.351 -0.913 0.207 128 28 44 0
-27.0810 35.7488 -35.8828 -0.969 -0.233 -0.078 127 29 42 0
-26.5477 35.0083 -36.3632 -0.245 -0.924 -0.294 116 25 38 0
-19.0942 36.9438 -43.9576 -0.882 -0.395 -0.257 99 18 34 0
-10.5607 42.3980 -52.8850 -0.954 -0.260 0.148 97 22 36 0
-10.4819 42.1767 -52.9480 -0.725 -0.655 0.211 94 20 34 0
-10.3892 41.9674 -53.0257 -0.706 -0.661 0.254 92 20 33 0
-10.7531 41.3736 -52.6190 -0.525 0.224 0.821 92 20 34 0
-10.6804 41.1494 -52.6757 -0.960 -0.088 0.266 91 21 34 0
-7.3911 38.4209 -55.7700 -0.046 -0.997 0.064 91 51 59 0
-7.0227 38.4237 -56.1388 -0.082 -0.985 0.155 98 59 64 0
-5.5565 37.5660 -57.5438 -0.233 -0.939 0.254 132 118 118 0
-5.3337 37.4510 -57.7584 -0.366 -0.928 -0.066 135 121 121 0
-10.1838 31.7508 -52.4978 0.049 -0.586 0.809 158 152 152 0
-9.7199 31.8230 -52.9670 0.115 -0.600 0.792 160 155 153 0
-9.7415 31.5480 -52.9258 0.197 -0.660 0.725 162 157 154 0
-9.6875 30.5544 -52.9085 -0.460 -0.864 0.207 172 165 161 0
-9.5373 30.4026 -53.0478 -0.470 -0.880 0.068 174 167 162 0
-16.0972 23.5201 -45.9921 0.169 -0.656 0.735 179 172 167 0
-18.4333 14.7415 -43.0253 -0.939 -0.282 0.198 183 172 168 0
0.4516 12.8859 -61.7824 -0.834 -0.438 -0.336 175 162 154 0
1.0912 12.9321 -62.4254 -0.805 -0.502 -0.315 175 162 154 0
2.4855 13.0650 -63.8297 -0.896 -0.037 0.443 173 160 152 0
-8.5434 6.4453 -52.3225 -0.468 -0.773 -0.429 173 160 152 0
-26.6125 49.1863 -37.6286 -0.697 -0.697 -0.170 140 50 64 0
-26.0697 49.5260 -38.1981 -0.554 -0.780 -0.291 139 48 63 0
-29.2984 43.8110 -34.5392 -0.940 0.086 0.329 137 40 59 0
-28.3710 44.3079 -35.5059 -0.801 -0.525 0.286 138 43 57 0
-28.1435 41.8258 -35.5517 -0.644 0.059 0.763 133 34 52 0
-28.0202 41.6898 -35.6654 -0.437 -0.026 0.899 135 34 52 0
-27.4443 37.5565 -35.9393 -0.614 0.110 0.782 133 37 50 0
-27.7887 36.9557 -35.5496 -0.082 -0.266 0.960 134 37 50 0
-27.3237 36.6544 -35.9939 -0.012 -0.408 0.913 131 30 44 0
-28.2552 34.9865 -34.9370 -0.140 -0.974 -0.181 127 29 44 0
-26.3521 35.3228 -36.8707 -0.962 0.249 0.110 116 25 39 0
-26.8460 33.8616 -36.2678 0.386 -0.781 0.492 113 25 41 0
-27.3061 33.1866 -35.7567 0.382 -0.777 0.500 116 26 42 0
-21.3982 35.3004 -41.8384 -0.164 -0.943 0.291 98 20 34 0
-21.1551 35.2584 -42.0792 0.295 -0.883 0.365 97 19 34 0
-10.6273 42.4794 -53.1707 -0.954 -0.260 0.148 95 22 39 0
-10.6489 42.1721 -53.1264 -0.695 -0.665 0.274 93 20 37 0
-10.7823 41.7711 -52.9630 -0.809 -0.049 0.585 91 20 36 0
-10.9495 41.3434 -52.7639 -0.526 0.225 0.820 89 21 35 0
-9.7374 37.5550 -53.7013 -0.027 -0.882 -0.471 85 43 49 0
-6.9998 38.8498 -56.5427 -0.143 -0.897 0.418 97 58 63 0
-5.2720 37.6193 -58.1854 -0.307 -0.949 0.074 137 123 124 0
-5.0914 37.4717 -58.3558 -0.248 -0.965 0.079 140 129 129 0
-4.8546 37.3651 -58.5854 -0.208 -0.966 0.156 145 135 134 0
-3.8873 37.7944 -59.5873 0.057 -0.979 0.195 150 140 140 0
-10.5029 31.8909 -52.5171 0.098 -0.906 0.412 159 151 152 0
-10.5898 31.5692 -52.4062 0.249 -0.501 0.829 159 153 153 0
-10.1471 31.6276 -52.8546 0.191 -0.567 0.802 161 156 154 0
-10.0978 31.4038 -52.8877 0.199 -0.655 0.729 163 158 155 0
-10.7808 30.6613 -52.1479 -0.060 -0.660 0.749 167 162 159 0
-10.6615 30.4900 -52.2551 -0.074 -0.658 0.749 169 164 161 0
-10.4873 30.3572 -52.4200 -0.163 -0.511 0.844 171 164 162 0
-10.2632 30.2588 -52.6376 -0.183 -0.462 0.868 174 166 164 0
-9.7488 30.3618 -53.1611 -0.450 -0.889 0.083 176 168 165 0
-15.4326 13.7942 -46.2418 -0.811 -0.567 -0.144 181 172 165 0
-9.4682 6.7199 -51.7048 0.163 -0.890 0.427 171 160 152 0
-49.9098 64.9097 -15.6891 -0.391 0.274 0.879 230 225 222 0
-26.8705 51.1387 -37.8295 -0.438 0.546 0.714 143 65 76 0
-26.6664 49.2952 -37.8961 -0.716 -0.677 -0.171 140 52 65 0
-29.3035 44.2392 -34.8629 -0.536 -0.693 0.482 138 44 62 0
-28.3717 44.4655 -35.8172 -0.763 -0.580 0.287 138 44 58 0
-28.8622 41.4637 -35.0980 -0.535 0.278 0.798 133 34 52 0
-28.2273 36.3982 -35.3555 -0.865 -0.500 -0.030 131 34 46 0
-28.2760 36.0973 -35.2838 -0.924 -0.305 0.230 135 36 49 0
-28.3368 35.0364 -35.1429 -0.140 -0.974 -0.181 128 29 45 0
-27.3213 35.7771 -36.2201 -0.930 0.046 0.365 127 29 44 0
-27.1913 33.9089 -36.2103 -0.886 -0.425 -0.184 114 26 41 0
-26.8503 33.7364 -36.5403 -0.747 0.215 0.630 114 25 42 0
-13.9807 44.0081 -50.2596 -0.980 -0.061 -0.187 122 35 49 0
-7.6440 38.7590 -56.2391 -0.176 -0.936 0.305 96 57 64 0
-15.5391 31.3365 -47.7384 0.275 -0.756 0.594 119 101 104 0
-4.4438 37.7909 -59.3856 -0.012 -0.998 -0.057 149 139 140 0
-10.9272 31.4363 -52.3853 0.249 -0.501 0.829 161 155 155 0
-11.3022 30.6540 -51.9492 -0.080 -0.593 0.801 165 160 159 0
-10.6820 30.3271 -52.5485 -0.049 -0.664 0.746 172 164 164 0
-10.1700 30.1747 -53.0521 -0.337 -0.937 0.096 176 170 167 0
-18.2855 14.1555 -43.6828 -0.827 0.068 0.558 184 175 167 0
-13.1746 4.9020 -48.1279 -0.857 -0.459 0.236 169 158 152 0
-47.3022 104.1843 -21.6188 -0.765 -0.376 0.523 231 222 213 0
-50.1548 64.6512 -15.6974 -0.393 0.245 0.886 231 226 223 0
-34.1093 50.4262 -30.7891 -0.274 -0.708 -0.651 207 201 201 0
-23.4752 56.7069 -42.0005 -0.760 0.621 0.190 149 79 89 0
-26.8531 49.2483 -38.0186 -0.988 -0.132 -0.077 140 52 66 0
-28.0526 46.3993 -36.5891 -0.735 0.422 0.530 139 46 64 0
-28.8106 45.2433 -35.7355 -0.642 -0.529 0.555 140 47 64 0
-29.2441 44.4666 -35.2384 -0.473 -0.694 0.543 138 45 60 0
-29.1844 44.2573 -35.2825 -0.810 -0.408 0.420 137 43 59 0
-28.6034 44.6408 -35.8981 -0.749 -0.406 -0.524 137 43 58 0
-28.2550 44.1994 -36.2156 -0.979 0.108 0.174 136 40 54 0
-28.3121 43.8583 -36.1318 -0.977 0.106 0.183 137 41 56 0
-28.2856 43.6116 -36.1395 -0.980 0.101 0.172 134 38 55 0
-26.5187 44.4529 -37.9867 -0.918 -0.222 -0.328 132 35 52 0
-29.0606 41.3971 -35.1871 -0.523 0.278 0.806 133 34 52 0
-28.9467 37.5869 -35.0087 -0.955 -0.267 -0.133 128 30 45 0
-28.9049 37.3739 -35.0344 -0.950 -0.275 -0.146 127 30 46 0
-28.6201 37.1537 -35.3048 -0.893 -0.430 0.136 129 35 51 0
-28.5114 37.0090 -35.4034 -0.897 -0.420 0.139 129 36 51 0
-28.4094 36.8574 -35.4946 -0.846 -0.502 0.181 129 35 50 0
-28.4136 36.5992 -35.4704 -0.916 -0.376 0.142 129 34 46 0
-28.2080 36.2982 -35.6547 -0.934 -0.284 0.215 131 34 46 0
-28.0023 35.9971 -35.8390 -0.890 -0.306 0.337 130 32 45 0
-27.9357 35.8108 -35.8919 -0.891 -0.297 0.345 130 29 44 0
-28.0033 35.4932 -35.7992 -0.925 -0.379 0.024 129 29 45 0
-27.6216 35.6155 -36.1937 -0.767 -0.026 0.641 128 29 44 0
-27.5642 35.4202 -36.2365 -0.124 -0.963 -0.238 126 28 43 0
-25.9619 35.9548 -37.8941 0.343 -0.926 -0.159 116 25 40 0
-26.9848 33.2443 -36.6535 0.428 -0.761 0.488 112 24 38 0
-25.4384 32.6980 -38.1715 -0.453 -0.850 -0.270 102 21 35 0
-24.8821 32.9513 -38.7522 -0.109 -0.947 0.301 100 20 34 0
-21.0172 34.6039 -42.7784 -0.926 0.353 0.136 93 22 36 0
-8.2687 38.6799 -55.9531 -0.194 -0.979 0.058 90 52 59 0
-7.6987 38.8435 -56.5407 -0.140 -0.917 0.373 97 62 67 0
-16.6481 30.8505 -46.8971 0.224 -0.962 0.154 116 97 99 0
-15.4087 31.5479 -48.2011 0.203 -0.498 0.843 120 104 107 0
-4.8591 37.6064 -59.3100 -0.265 -0.947 -0.181 148 141 141 0
-11.0077 30.7159 -52.5768 -0.153 -0.893 0.423 169 163 163 0
-10.7591 30.6359 -52.8214 -0.142 -0.894 0.425 169 163 163 0
-10.6239 30.4751 -52.9455 -0.120 -0.911 0.394 173 166 166 0
-9.4773 31.0239 -54.1444 -0.138 -0.970 -0.201 175 170 167 0
-12.4541 5.6198 -49.1854 -0.851 -0.488 0.192 171 161 152 0
-13.2209 5.1217 -48.3735 -0.808 -0.542 0.234 169 159 150 0
-13.2439 4.9249 -48.3352 -0.857 -0.459 0.236 169 159 151 0
-50.2954 64.9807 -15.8561 -0.390 0.132 0.911 231 225 223 0
-50.4219 64.3415 -15.6778 -0.377 0.231 0.897 231 226 224 0
-27.5551 49.1809 -37.6178 -0.740 0.543 0.397 144 58 72 0
-27.1249 49.3961 -38.0699 -0.989 0.074 -0.129 143 55 69 0
-26.8509 49.4239 -38.3493 -0.988 -0.132 -0.077 141 53 67 0
-27.3624 48.5270 -37.7612 -0.879 0.470 0.079 140 52 66 0
-28.3256 44.5571 -36.4742 -0.942 0.136 -0.307 136 41 56 0
-28.3829 43.3837 -36.3238 -0.996 0.093 0.006 131 37 55 0
-28.1747 43.3394 -36.5310 -0.993 0.074 -0.089 131 37 55 0
-27.6664 41.1698 -36.8743 -0.978 -0.017 -0.206 137 37 53 0
-29.0344 37.6349 -35.2120 -0.974 -0.083 0.210 126 29 44 0
-28.7424 37.6785 -35.5109 -0.936 -0.258 -0.238 126 30 46 0
-28.8688 37.2926 -35.3526 -0.983 -0.161 0.094 129 34 50 0
-28.6874 37.2220 -35.5305 -0.893 -0.430 0.136 130 36 52 0
-28.5313 37.1251 -35.6808 -0.899 -0.298 0.321 130 37 53 0
-28.4700 36.9320 -35.7277 -0.897 -0.301 0.323 131 37 53 0
-28.4857 36.6616 -35.6905 -0.926 -0.345 0.156 129 36 48 0
-28.3019 36.0855 -35.8311 -0.946 -0.269 0.183 131 32 45 0
-28.1017 36.0315 -36.0293 -0.938 -0.228 0.260 130 30 44 0
-28.0585 35.8220 -36.0566 -0.938 -0.228 0.260 130 29 44 0
-27.7565 35.6149 -36.3458 -0.777 -0.026 0.629 128 29 44 0
-27.6326 35.4844 -36.4608 -0.124 -0.963 -0.238 126 28 43 0
-27.4768 33.1544 -36.4350 -0.467 0.389 0.794 112 24 39 0
-27.2796 33.0939 -36.6298 0.428 -0.761 0.488 110 23 38 0
-25.3852 32.8673 -38.5284 0.125 -0.988 0.092 104 23 38 0
-25.1990 32.7888 -38.7106 0.109 -0.988 0.105 102 24 38 0
-21.8194 33.7762 -42.2074 -0.960 -0.164 0.227 93 22 35 0
-8.0313 38.9940 -56.5673 -0.382 -0.924 -0.007 94 58 65 0
-7.6818 38.9844 -56.9201 -0.462 0.227 0.857 101 69 74 0
-17.1946 30.5416 -46.6315 0.200 -0.856 0.477 116 100 101 0
-15.7138 31.4269 -48.1993 0.203 -0.498 0.843 120 106 108 0
-13.2653 4.7796 -48.5782 -0.607 -0.775 -0.174 168 158 149 0
-42.8718 86.7853 -25.4188 -0.104 -0.222 0.969 232 225 221 0
-50.4750 65.2246 -15.9695 -0.333 -0.003 0.943 231 225 225 0
-50.4935 64.8249 -15.9185 -0.390 0.132 0.911 231 225 225 0
-50.5259 64.3960 -15.8511 -0.411 0.221 0.884 231 225 225 0
-27.1552 51.3327 -38.5101 -0.799 0.489 0.351 146 71 81 0
-26.6419 49.8451 -38.9111 -0.949 0.239 0.206 144 55 69 0
-29.0404 37.7675 -35.5055 -0.981 -0.020 0.195 128 32 46 0
-28.7305 37.8294 -35.8249 -0.551 -0.784 0.286 128 33 48 0
-28.5772 36.9596 -35.9104 -0.893 -0.435 0.112 148 55 71 0
-28.2037 35.8110 -36.1969 -0.931 -0.301 -0.205 133 34 47 0
-28.1770 35.5856 -36.2058 -0.936 -0.285 -0.208 132 34 49 0
-27.6374 33.1283 -36.5555 -0.483 0.384 0.787 112 24 40 0
-27.4087 33.0974 -36.7850 0.413 -0.617 0.670 111 24 39 0
-26.7147 33.0061 -37.4817 -0.310 -0.942 0.131 107 23 37 0
-26.5582 32.9049 -37.6324 -0.313 -0.938 0.150 109 22 38 0
-26.2558 32.6916 -37.9220 -0.307 -0.936 0.174 105 21 36 0
-25.9485 32.7257 -38.2365 -0.812 -0.533 0.236 104 23 37 0
-19.0199 33.7351 -45.3471 -0.560 -0.501 -0.660 86 29 40 0
-8.5989 39.2416 -56.3628 -0.860 -0.034 0.508 88 50 57 0
-8.5784 38.9743 -56.3621 -0.391 -0.920 -0.016 91 55 63 0
-8.1086 39.0615 -56.8458 -0.365 -0.931 -0.017 101 69 75 0
-7.7724 39.0415 -57.1853 -0.592 0.005 0.806 108 79 84 0
-23.2371 26.6871 -40.5013 0.321 -0.830 0.456 110 85 88 0
-21.9992 27.4186 -41.8161 0.366 -0.442 0.819 110 88 90 0
-7.5312 36.1421 -57.1965 -0.599 -0.721 0.349 150 141 142 0
-18.3399 14.1360 -44.4593 -0.750 -0.080 0.657 184 175 168 0
-13.0872 4.9010 -49.0450 -0.825 -0.564 -0.039 167 157 147 0
-50.7069 64.9913 -15.9910 -0.358 0.118 0.926 231 225 225 0
-50.7207 64.6023 -15.9448 -0.403 0.142 0.904 231 225 225 0
-19.6083 63.4635 -47.5054 -0.849 0.506 -0.153 161 117 124 0
-26.4249 51.4862 -39.5848 -0.720 0.561 0.408 147 65 79 0
-26.6382 50.0247 -39.2476 -0.955 0.234 0.181 146 56 71 0
-27.1978 49.0654 -38.5994 -0.879 0.477 0.004 145 57 71 0
-28.4331 44.7553 -36.9881 -0.647 0.030 0.762 138 44 60 0
-29.1815 37.7608 -35.6513 -0.991 -0.111 0.073 129 33 47 0
-28.8474 37.8482 -35.9984 -0.551 -0.784 0.286 127 33 48 0
-29.2620 37.1647 -35.5204 -0.310 -0.913 0.265 129 35 51 0
-28.4155 36.7484 -36.3474 -0.791 -0.611 -0.043 130 36 50 0
-28.1951 35.9524 -36.5062 -0.878 -0.474 -0.061 143 47 61 0
-28.2163 32.4666 -36.1978 -0.907 -0.086 -0.413 112 25 39 0
-26.6301 32.9619 -37.8524 -0.270 -0.951 0.151 109 22 38 0
-26.8105 32.5517 -37.6351 0.331 -0.858 0.393 107 22 39 0
-20.1761 33.1436 -44.4337 -0.106 -0.777 -0.620 88 30 42 0
-18.2743 34.4778 -46.4783 -0.202 -0.734 -0.649 87 31 42 0
-9.5528 39.4596 -55.7615 -0.972 0.232 0.034 88 42 53 0
-8.4255 39.5091 -56.9126 -0.914 0.065 0.400 89 56 61 0
-8.3172 39.3101 -57.0064 -0.594 0.019 0.804 97 65 70 0
-8.1099 39.1892 -57.2073 -0.614 -0.002 0.789 107 79 83 0
-7.9727 39.0127 -57.3324 -0.592 0.005 0.806 107 82 85 0
-17.4006 27.4237 -46.7870 -0.099 -0.566 0.819 167 161 160 0
-1.4750 20.1242 -62.3895 0.518 -0.656 0.549 183 170 164 0
-5.2623 15.6479 -58.1681 0.420 -0.892 0.166 174 165 160 0
-10.3360 7.4267 -52.3298 -0.745 0.221 0.629 170 159 155 0
-10.6249 6.5196 -51.9613 -0.169 -0.837 0.520 165 154 149 0
-11.1926 6.0948 -51.3487 -0.827 -0.263 0.496 165 155 147 0
-14.6893 4.1281 -47.6294 -0.593 -0.383 0.708 165 155 147 0
-21.8401 59.8514 -45.2880 -0.846 0.533 -0.024 152 92 102 0
-23.3506 57.6424 -43.5612 -0.867 0.486 -0.107 151 87 98 0
-26.3873 51.4075 -39.9390 -0.977 0.212 -0.012 147 65 80 0
-26.6621 50.7746 -39.6054 -0.992 0.090 -0.085 146 63 77 0
-26.3958 50.7907 -39.8785 -0.988 0.099 -0.118 148 61 75 0
-26.6432 50.1950 -39.5761 -0.990 0.139 -0.038 147 58 73 0
-26.9427 49.5408 -39.2155 -0.879 0.477 0.004 147 59 73 0
-29.0994 41.4187 -36.3327 -0.203 0.015 0.979 133 35 54 0
-27.8331 42.5284 -37.7179 -0.940 -0.313 -0.134 133 35 55 0
-27.4256 41.3320 -38.0332 -0.956 0.285 -0.062 131 33 51 0
-28.7243 38.1151 -36.4378 -0.612 -0.697 0.375 127 33 49 0
-29.4512 37.1079 -35.6116 -0.319 -0.904 0.283 128 34 50 0
-28.4669 36.8325 -36.5927 -0.791 -0.611 -0.043 127 33 49 0
-27.7736 33.4954 -37.0196 -0.986 0.119 -0.115 112 24 40 0
-28.1020 32.6970 -36.6176 -0.990 -0.099 -0.104 111 26 40 0
-26.7033 33.0179 -38.0716 -0.349 -0.877 0.331 109 24 40 0
-26.6892 32.7854 -38.0665 0.167 -0.951 0.260 107 23 39 0
-26.6409 32.3405 -38.0783 -0.274 -0.455 0.848 106 24 39 0
-25.4028 33.2188 -39.4153 0.325 -0.910 0.257 104 26 39 0
-25.1346 32.7186 -39.6469 0.106 -0.974 -0.200 103 27 40 0
-24.7005 32.8592 -40.1017 0.106 -0.974 -0.200 102 26 40 0
-10.0877 39.7252 -55.5879 -0.798 0.207 0.567 85 38 50 0
-8.2411 39.2148 -57.4291 -0.213 -0.004 0.977 107 80 84 0
-23.0137 26.6064 -41.2974 0.108 -0.732 0.673 121 106 110 0
-15.1017 28.7094 -49.5466 0.076 -0.492 0.867 171 165 163 0
-7.9666 14.8383 -55.6611 0.356 -0.933 0.062 177 165 164 0
-5.8630 15.4264 -57.8568 0.419 -0.893 0.161 174 164 159 0
-4.6635 15.7846 -59.1107 0.414 -0.896 0.162 174 164 158 0
8.0898 16.6396 -72.1947 0.594 -0.672 0.442 171 161 155 0
-10.2608 7.7128 -52.7217 -0.601 0.074 0.796 171 160 156 0
-10.8114 6.4975 -52.0578 -0.169 -0.837 0.520 167 155 152 0
-11.2412 6.1281 -51.5882 -0.845 -0.156 0.511 167 156 152 0
-24.3772 54.9599 -42.6238 -0.814 0.409 0.412 146 73 85 0
-24.5259 54.4618 -42.4289 -0.826 0.420 0.375 148 71 85 0
-26.5805 50.4466 -39.9822 -0.990 0.137 -0.040 147 59 75 0
-26.6844 50.0224 -39.8395 -0.879 0.477 0.004 146 60 73 0
-28.1387 46.5558 -38.0541 -0.919 0.350 -0.181 141 50 65 0
-29.2116 44.7498 -36.8014 -0.980 -0.126 -0.151 139 48 63 0
-29.3218 41.3263 -36.3950 -0.292 -0.086 0.953 132 37 55 0
-27.8214 42.6946 -38.0475 -0.240 -0.968 -0.074 134 37 56 0
-26.8002 41.8736 -39.0220 -0.922 0.243 0.302 131 34 51 0
-28.7359 36.9529 -36.6193 -0.439 -0.899 -0.002 128 34 51 0
-28.3362 34.5704 -36.8238 -0.990 0.136 -0.036 113 26 42 0
-28.5138 34.1500 -36.6061 -0.991 0.090 -0.098 112 25 41 0
-27.7788 33.1243 -37.2701 -0.869 -0.387 0.310 112 26 41 0
-27.7571 32.8996 -37.2731 -0.712 -0.699 -0.068 112 29 42 0
-27.2673 32.6210 -37.7503 -0.762 -0.590 0.267 110 26 42 0
-27.2742 32.3707 -37.7218 -0.720 -0.693 -0.042 107 23 39 0
-25.6665 32.8557 -39.4083 -0.301 -0.950 -0.087 102 25 39 0
-25.2315 32.7536 -39.8446 0.026 -0.992 -0.122 102 26 39 0
-24.8066 32.8864 -40.2908 0.106 -0.974 -0.200 101 25 38 0
-24.3684 33.0286 -40.7514 0.100 -0.975 -0.198 99 25 36 0
-24.0607 32.8038 -41.0469 -0.931 -0.349 0.109 97 25 37 0
-8.1764 40.8358 -57.9884 -0.842 0.271 0.466 89 47 58 0
-8.3377 40.1278 -57.7627 -0.850 0.256 0.461 99 63 70 0
-23.4746 27.0458 -41.1526 0.491 -0.445 0.749 110 90 92 0
-23.0067 26.9481 -41.6230 0.012 -0.702 0.712 119 103 106 0
-23.1073 26.6375 -41.4934 -0.211 -0.702 0.680 124 110 115 0
-15.5706 28.7217 -49.3836 0.218 -0.515 0.829 170 166 165 0
-16.3379 27.9191 -48.5297 -0.421 -0.896 -0.141 171 167 165 0
-14.0626 29.3174 -50.9777 -0.448 -0.620 0.644 170 169 165 0
-26.9207 10.1097 -36.1737 -0.961 -0.252 -0.112 185 176 169 0
-8.4661 14.6620 -55.4467 0.356 -0.933 0.062 177 165 164 0
-11.2309 7.1643 -51.9746 0.095 -0.812 0.576 169 158 156 0
-11.3763 6.9072 -51.8038 -0.118 -0.774 0.622 167 155 153 0
-26.4401 50.7922 -40.4784 -0.991 0.113 -0.074 148 61 77 0
-26.4322 50.4989 -40.4608 -0.875 0.484 0.018 146 60 74 0
-27.8393 47.0704 -38.7169 -0.919 0.356 -0.172 141 51 66 0
-27.0516 42.0306 -39.0838 -0.949 0.175 0.262 129 35 51 0
-26.8517 41.9695 -39.2836 -0.852 -0.276 -0.445 129 35 51 0
-25.8301 42.5008 -40.3783 -0.894 0.372 0.250 128 34 50 0
-25.7436 42.3155 -40.4509 -0.957 0.254 0.140 128 34 50 0
-25.6471 42.1407 -40.5346 -0.941 -0.161 -0.299 128 34 51 0
-25.8977 41.6042 -40.2304 -0.966 0.241 0.093 126 33 49 0
-29.1476 37.9575 -36.5765 -0.974 -0.149 -0.168 127 35 50 0
-29.3372 37.5026 -36.3421 -0.993 -0.117 -0.000 126 33 49 0
-29.3415 37.2410 -36.3148 -0.991 -0.011 0.132 128 34 50 0
-29.2968 37.0304 -36.3423 -0.984 -0.146 0.106 127 35 50 0
-27.8424 35.1804 -37.6726 -0.686 -0.724 0.062 115 28 44 0
-27.8126 34.9577 -37.6837 -0.675 -0.726 -0.136 112 27 42 0
-22.9643 38.5772 -42.9753 -0.545 0.360 0.757 111 24 41 0
-27.8351 33.4427 -37.5279 -0.968 0.058 0.243 111 25 41 0
-27.8579 33.1750 -37.4811 -0.869 -0.386 0.309 111 26 42 0
-27.8173 32.9676 -37.5046 -0.714 -0.698 -0.056 111 29 43 0
-27.5613 32.9616 -37.7667 -0.483 -0.806 -0.343 110 28 42 0
-27.4152 32.8523 -37.9071 -0.898 -0.430 0.095 108 26 40 0
-27.2360 32.7732 -38.0840 -0.889 -0.454 0.061 108 24 40 0
-25.6740 32.7246 -39.6825 0.001 -0.995 -0.095 102 25 41 0
-24.2208 32.7839 -41.1787 -0.951 -0.287 0.116 99 28 42 0
-23.2483 27.0967 -41.6787 0.184 -0.598 0.780 118 102 102 0
-23.3648 26.5409 -41.5105 -0.369 -0.521 0.769 126 113 117 0
-23.1708 26.4604 -41.7024 -0.873 -0.149 0.464 133 121 125 0
-26.8067 9.8750 -36.5195 -0.762 -0.620 -0.188 182 172 170 0
-4.8817 15.5952 -59.5172 0.428 -0.886 0.180 174 165 156 0
-11.4425 6.7383 -52.0098 -0.125 -0.817 0.563 168 154 153 0
1.2893 9.9768 -65.3572 -0.615 -0.726 -0.307 164 154 147 0
-17.0805 66.4346 -51.8306 -0.846 0.522 -0.112 171 126 131 0
-22.9409 58.0876 -45.0546 -0.846 0.527 -0.076 152 91 101 0
-23.9241 56.5436 -43.9049 -0.848 0.527 -0.045 153 87 99 0
-26.5511 51.1427 -40.7193 -0.954 0.133 0.269 149 69 82 0
-26.4546 50.9539 -40.8017 -0.990 0.135 -0.045 148 66 80 0
-26.3819 50.7371 -40.8572 -0.877 0.479 0.033 145 62 76 0
-26.5236 50.2660 -40.6693 -0.888 0.458 -0.026 144 62 75 0
-27.6527 48.0410 -39.3087 -0.923 0.373 -0.093 143 57 69 0
-28.0273 47.0201 -38.8320 -0.916 0.379 -0.129 140 52 65 0
-27.5208 43.0554 -38.9989 -0.432 0.630 0.646 132 37 55 0
-27.9144 42.3505 -38.5310 -0.856 0.493 0.156 132 37 55 0
-28.3132 41.6443 -38.0575 -0.830 0.499 0.250 131 37 55 0
-27.1746 42.0505 -39.2655 -0.892 -0.151 -0.426 129 37 52 0
-26.8647 42.1068 -39.5894 -0.854 -0.207 -0.477 128 36 51 0
-25.8317 42.6509 -40.7009 -0.992 0.024 -0.125 128 35 51 0
-25.6751 42.5388 -40.8520 -0.989 -0.016 -0.145 127 34 51 0
-25.5251 42.4192 -40.9957 -0.927 -0.184 -0.326 126 33 51 0
-25.6528 42.0092 -40.8276 -0.953 0.286 0.103 126 33 51 0
-25.1175 42.2908 -41.4036 -0.900 0.360 0.247 126 34 51 0
-28.0282 35.6361 -37.8141 -0.795 -0.539 0.277 119 32 48 0
-27.9769 35.4332 -37.8488 -0.773 -0.556 0.306 115 28 44 0
-27.8975 35.2580 -37.9148 -0.768 -0.555 0.318 112 27 42 0
-27.8033 35.0974 -37.9973 -0.079 -0.996 0.048 111 27 42 0
-26.2373 33.3251 -39.4504 -0.995 0.000 0.103 103 26 39 0
-17.7023 36.2470 -48.4938 -0.298 -0.638 -0.710 93 33 44 0
-23.5716 26.7152 -41.6028 0.038 -0.925 0.377 125 112 115 0
-23.4064 26.6126 -41.7637 -0.306 -0.643 0.702 131 119 123 0
-15.2375 28.4330 -50.3319 -0.064 -0.720 0.691 177 169 170 0
-14.5019 28.7142 -51.1140 -0.183 -0.834 0.521 177 170 170 0
-12.7354 29.7279 -53.0223 -0.985 -0.142 -0.094 178 170 170 0
-3.0361 18.6799 -62.0157 -0.980 -0.176 -0.094 177 168 164 0
-1.4913 18.9846 -63.6325 0.482 -0.566 0.669 175 164 159 0
-1.0097 18.7444 -64.1066 0.366 -0.673 0.643 178 164 160 0
-0.8010 18.6075 -64.3092 0.369 -0.682 0.631 178 166 160 0
0.6943 18.1330 -65.8054 0.175 -0.709 0.683 172 164 153 0
1.2347 10.2377 -65.6561 -0.881 -0.378 -0.284 162 152 145 0
-24.3411 61.5464 -44.2728 -0.125 -0.790 0.600 209 196 197 0
-21.8026 62.4362 -46.9733 -0.812 -0.498 0.306 193 171 173 0
-17.3987 65.8934 -51.8327 -0.843 0.527 -0.103 175 131 136 0
-22.8854 58.0249 -45.4540 -0.849 0.524 -0.063 151 90 101 0
-26.3123 51.6109 -41.3333 -0.983 0.091 0.161 149 70 84 0
-26.4692 51.1165 -41.1264 -0.988 0.152 -0.025 148 68 81 0
-27.3952 48.2203 -39.9069 -0.932 0.322 -0.166 140 54 66 0
-26.9976 42.3922 -39.7862 -0.896 -0.144 -0.419 132 40 56 0
-26.6417 42.4968 -40.1630 -0.854 -0.202 -0.480 130 38 54 0
-25.6076 42.7620 -41.2542 -0.923 -0.200 -0.330 128 35 52 0
-25.4207 42.6804 -41.4396 -0.927 -0.184 -0.326 128 35 53 0
-25.3608 42.4652 -41.4818 -0.937 -0.177 -0.300 128 37 54 0
-26.7894 40.4281 -39.8220 -0.920 0.363 0.146 127 36 53 0
-28.5721 35.9932 -37.5784 -0.939 -0.047 0.340 126 34 51 0
-28.0827 35.7154 -38.0580 -0.721 -0.517 0.461 119 31 48 0
-27.9700 35.5723 -38.1613 -0.424 -0.860 0.282 116 29 45 0
-27.9056 35.3819 -38.2104 -0.589 -0.766 0.260 112 28 43 0
-27.7477 35.2828 -38.3643 -0.313 -0.949 0.041 112 29 44 0
-26.2526 32.9394 -39.6935 -0.740 -0.109 0.664 107 30 45 0
-8.2811 41.4469 -59.0135 -0.672 0.158 0.724 100 60 72 0
-22.2540 27.6194 -43.3349 0.094 -0.292 0.952 135 123 127 0
-21.9062 27.4178 -43.6755 -0.935 0.226 0.273 145 134 136 0
-15.2481 29.0276 -50.6927 -0.044 -0.690 0.723 176 168 169 0
-14.7729 28.6251 -51.1463 -0.221 -0.759 0.613 179 170 171 0
-14.3820 28.6567 -51.5526 -0.244 -0.765 0.596 179 169 170 0
-14.1694 28.5594 -51.7631 -0.059 -0.424 0.904 181 171 171 0
-1.1397 20.7056 -64.4928 -0.970 -0.219 0.104 178 171 161 0
-1.0891 20.4862 -64.5250 -0.971 -0.188 0.146 178 171 161 0
-5.3361 7.0805 -58.9210 -0.605 -0.708 0.363 162 151 145 0
2.8876 9.5937 -67.6360 -0.933 -0.339 0.125 164 149 144 0
-54.4282 87.1957 -15.8720 -0.995 -0.075 0.070 233 224 217 0
-26.4697 57.9573 -42.0875 -0.859 -0.285 0.425 201 188 190 0
-26.4783 57.6179 -42.0470 -0.829 -0.377 0.413 199 185 186 0
-26.9682 56.6563 -41.4508 -0.895 -0.235 0.379 198 182 184 0
-16.9130 66.3585 -52.7575 -0.852 0.508 -0.128 166 123 129 0
-19.4736 62.8065 -49.7777 -0.852 0.508 -0.127 151 102 110 0
-21.3881 60.0822 -47.5434 -0.874 0.454 -0.174 149 93 103 0
-26.6487 51.0815 -41.2634 -0.687 -0.670 0.281 148 68 81 0
-26.2458 51.2592 -41.6969 -0.640 -0.608 0.470 147 66 79 0
-32.6537 41.4108 -34.1508 -0.664 -0.541 -0.516 138 50 67 0
-26.7429 42.8190 -40.3983 -0.907 -0.102 -0.409 133 40 58 0
-26.4004 42.9082 -40.7610 -0.845 -0.212 -0.492 132 39 57 0
-25.3042 42.9556 -41.8998 -0.878 -0.238 -0.415 128 37 54 0
-25.2719 42.7102 -41.9104 -0.949 -0.008 -0.317 127 38 54 0
-26.6980 40.6699 -40.2451 -0.896 0.400 0.191 127 36 53 0
-27.9304 39.1219 -38.8259 -0.910 -0.216 0.353 129 37 55 0
-27.9900 38.2692 -38.6851 -0.665 0.114 0.738 131 38 54 0
-28.5948 37.3905 -37.9776 -0.993 -0.111 -0.046 131 38 54 0
-28.5406 36.4151 -37.9431 -0.913 -0.113 0.393 125 32 50 0
-28.6093 36.0908 -37.8418 -0.862 0.072 0.502 125 34 51 0
-28.1352 35.5430 -38.2815 -0.404 -0.829 0.386 115 30 46 0
-28.1458 35.2792 -38.2460 -0.779 -0.131 0.613 113 29 45 0
-27.8869 35.2790 -38.5139 -0.312 -0.946 0.089 113 30 46 0
-24.4625 32.4379 -41.7936 -0.328 -0.702 -0.631 97 30 42 0
-8.1747 41.6704 -59.5064 -0.451 0.076 0.889 102 65 76 0
-9.0254 40.6826 -58.5343 0.195 -0.590 0.783 109 77 85 0
-14.5496 27.8974 -51.6298 -0.070 -0.499 0.864 179 173 172 0
-15.7043 16.9828 -49.4208 0.085 -0.962 -0.261 184 175 170 0
-8.7495 10.2928 -55.9962 -0.684 -0.244 -0.687 172 159 153 0
-16.5326 6.0903 -47.5516 0.028 -0.985 -0.171 172 157 152 0
-2.6840 9.8865 -62.2352 -0.797 -0.150 -0.585 164 153 149 0
-3.9667 9.1494 -60.8393 -0.842 -0.146 -0.520 164 153 149 0
-26.6691 58.2304 -42.2456 -0.890 -0.377 0.258 206 196 197 0
-26.5905 58.0038 -42.3057 -0.890 -0.377 0.258 204 192 194 0
-26.5759 57.6942 -42.2916 -0.815 -0.370 0.446 202 187 190 0
-27.0690 56.7262 -41.6882 -0.894 -0.217 0.393 200 184 185 0
-19.3965 62.7639 -50.2221 -0.878 0.436 -0.198 153 101 111 0
-23.5303 55.9880 -45.2906 -0.706 -0.375 0.600 153 80 97 0
-33.0313 40.5945 -33.9732 -0.729 0.102 0.677 135 48 64 0
-27.3501 44.2748 -40.2173 -0.429 0.625 0.653 133 42 59 0
-27.7950 42.6669 -39.6034 -0.905 0.017 -0.424 135 43 61 0
-25.1526 42.9882 -42.3759 -0.886 -0.229 -0.404 125 38 53 0
-25.1065 42.7566 -42.4018 -0.891 -0.225 -0.394 123 35 51 0
-24.9581 42.6322 -42.5441 -0.881 -0.251 -0.402 126 37 53 0
-28.5960 37.5285 -38.2855 -0.993 -0.111 -0.046 145 53 68 0
-28.6555 36.4357 -38.1203 -0.863 -0.190 0.469 124 34 50 0
-28.6281 36.2072 -38.1271 -0.762 -0.218 0.610 123 34 52 0
-28.6806 35.8995 -38.0434 -0.858 0.051 0.512 122 33 51 0
-28.7196 35.6065 -37.9752 -0.879 0.046 0.475 120 33 50 0
-28.6891 35.1307 -37.9618 -0.796 0.289 0.531 114 31 47 0
-28.2181 35.3408 -38.4705 -0.794 -0.160 0.587 113 31 46 0
-27.8981 35.4003 -38.8081 -0.043 -0.993 0.113 113 31 46 0
-24.0102 34.2217 -42.7313 -0.212 -0.636 0.742 102 30 45 0
-23.9103 34.0574 -42.8194 -0.234 -0.741 0.630 101 29 43 0
-23.8969 33.8157 -42.8103 -0.511 -0.766 0.390 101 30 43 0
-24.0517 33.4248 -42.6127 -0.830 -0.554 -0.061 99 30 41 0
-23.0860 33.5217 -43.6240 -0.466 -0.603 -0.647 100 35 47 0
-8.1127 41.8583 -59.9520 -0.255 0.151 0.955 109 73 84 0
-8.6852 41.0956 -59.2857 0.196 -0.292 0.936 110 79 87 0
-15.1673 28.0566 -51.3241 -0.100 -0.490 0.866 179 170 172 0
-14.6913 28.1488 -51.8268 -0.111 -0.751 0.650 178 172 172 0
-1.1403 20.8705 -65.2001 -0.971 -0.200 0.131 177 170 159 0
2.5647 21.5314 -69.1075 -0.816 -0.367 0.447 176 165 159 0
-2.9642 9.8318 -62.2620 -0.808 -0.108 -0.579 164 151 147 0
-3.9600 8.9968 -61.1494 -0.823 -0.097 -0.559 161 150 144 0
-23.1459 64.1305 -46.8216 -0.636 -0.012 0.772 214 203 204 0
-22.6385 64.4515 -47.3806 -0.658 -0.497 0.566 213 203 203 0
-22.5742 64.1827 -47.4215 -0.698 -0.135 0.704 211 201 201 0
-26.5464 57.9369 -42.6851 -0.888 -0.341 0.308 206 191 194 0
-26.5443 57.6106 -42.6558 -0.788 -0.268 0.555 204 188 189 0
-25.7338 58.3337 -43.5690 0.027 -0.560 0.828 202 183 185 0
-25.6300 58.1368 -43.6580 -0.058 -0.522 0.851 201 182 184 0
-25.6896 57.7300 -43.5568 -0.083 -0.615 0.784 196 179 180 0
-25.7648 57.3049 -43.4374 -0.911 -0.224 0.347 195 177 178 0
-25.7265 57.0265 -43.4504 -0.954 -0.227 0.197 192 170 173 0
-25.6320 56.8205 -43.5290 -0.926 -0.242 0.288 189 164 167 0
-25.4881 56.6770 -43.6649 -0.627 -0.687 0.367 185 156 161 0
-25.3460 56.5310 -43.7986 0.061 -0.739 0.671 181 150 157 0
-24.8456 56.5086 -44.3172 0.138 -0.662 0.737 175 135 143 0
-18.8654 63.2847 -51.1946 -0.879 0.392 -0.272 157 107 117 0
-20.8104 60.5270 -48.9043 -0.878 0.386 -0.282 154 101 113 0
-24.8879 54.5230 -44.0816 -0.852 0.513 -0.101 153 84 100 0
-28.1364 43.2819 -39.6162 -0.594 -0.390 0.704 131 43 61 0
-25.3359 43.7940 -42.5800 -0.703 -0.357 -0.615 128 38 53 0
-24.6822 44.2058 -43.3000 -0.626 -0.465 -0.627 127 39 53 0
-25.1621 43.4135 -42.7242 -0.891 -0.222 -0.396 126 40 53 0
-25.0076 43.2946 -42.8734 -0.886 -0.232 -0.401 125 39 52 0
-24.9167 43.1085 -42.9501 -0.980 0.086 -0.179 124 37 52 0
-24.8694 42.8771 -42.9770 -0.896 -0.230 -0.380 126 37 53 0
-28.4874 36.9999 -38.6447 -0.988 0.008 -0.152 126 36 50 0
-28.7629 36.4641 -38.3063 -0.863 -0.190 0.469 123 35 51 0
-28.7155 36.2553 -38.3354 -0.737 -0.237 0.632 122 35 52 0
-28.7773 35.9379 -38.2405 -0.868 0.067 0.491 121 35 52 0
-28.8147 35.6460 -38.1734 -0.881 0.038 0.472 120 36 52 0
-28.3261 35.3675 -38.6550 -0.760 -0.382 0.525 113 33 48 0
-26.7565 36.3917 -40.3873 -0.461 -0.880 0.117 113 33 50 0
-26.4248 36.4556 -40.7386 -0.387 -0.900 0.202 114 34 50 0
-24.9782 36.8071 -42.2780 -0.580 -0.653 0.486 114 33 48 0
-25.8015 34.4852 -41.1971 -0.899 0.221 -0.379 112 33 46 0
-23.9350 34.4161 -43.1329 0.462 -0.314 0.829 101 30 44 0
-23.8021 34.2807 -43.2582 0.462 -0.314 0.829 101 31 44 0
-23.9915 33.8561 -43.0201 0.254 -0.372 0.893 102 34 45 0
-24.1136 33.4938 -42.8581 -0.829 -0.556 -0.061 102 34 45 0
-10.7362 38.6977 -57.2819 -0.092 -0.735 0.672 119 101 108 0
-10.0363 38.9784 -58.0374 -0.070 -0.145 0.987 123 107 114 0
-10.8174 37.5067 -57.0825 -0.770 0.142 0.622 136 123 131 0
-21.2226 26.8398 -45.2246 0.463 -0.173 0.869 168 162 162 0
-15.2033 18.0861 -50.6440 -0.338 -0.935 0.108 181 172 167 0
3.6629 22.6923 -70.7224 -0.722 -0.151 0.675 176 165 158 0
-42.0983 45.9866 -25.6206 -0.011 -0.960 0.280 222 214 212 0
-22.5648 64.4168 -47.8182 -0.910 -0.402 0.096 212 202 202 0
-25.8593 58.0446 -43.7535 0.024 -0.557 0.830 203 184 186 0
-25.6978 57.9227 -43.9101 -0.055 -0.639 0.767 198 182 183 0
-25.8961 57.3382 -43.6457 -0.911 -0.234 0.340 196 180 181 0
-25.7999 57.1335 -43.7259 -0.952 -0.247 0.183 194 175 177 0
-25.6707 56.9711 -43.8448 -0.925 -0.254 0.282 190 170 172 0
-25.7471 56.5475 -43.7234 -0.559 -0.714 0.423 185 161 166 0
-25.5650 56.4527 -43.9042 0.061 -0.728 0.682 183 157 163 0
-25.2591 56.5130 -44.2293 0.058 -0.578 0.814 181 152 158 0
-16.5186 66.4188 -54.3250 -0.876 0.413 -0.247 169 123 134 0
-18.7039 63.3449 -51.7422 -0.876 0.412 -0.250 159 110 122 0
-28.3961 43.1516 -39.6420 -0.422 -0.081 0.903 132 45 63 0
-28.3663 42.9062 -39.6490 -0.256 -0.742 0.620 131 44 63 0
-26.8716 42.8653 -41.2049 -0.688 0.357 0.632 130 42 58 0
-26.8471 42.6129 -41.2057 -0.656 0.399 0.641 130 42 56 0
-26.9544 42.2202 -41.0551 -0.681 0.404 0.610 128 40 54 0
-26.7942 42.1142 -41.2118 -0.671 0.352 0.653 127 40 53 0
-25.5593 42.8665 -42.5745 -0.460 0.196 0.866 126 40 53 0
-25.6609 42.4797 -42.4305 -0.336 0.215 0.917 126 40 53 0
-28.1563 39.0537 -39.4894 -0.756 0.301 0.581 132 41 56 0
-27.6721 36.4025 -39.7342 -0.895 -0.446 -0.003 115 36 50 0
-25.1623 36.7658 -42.3891 -0.574 -0.670 0.471 112 34 48 0
-26.6780 32.7982 -40.4173 -0.881 0.196 0.430 107 33 50 0
-24.1812 34.0653 -43.1477 0.460 -0.312 0.832 110 41 53 0
-24.0692 33.9118 -43.2494 0.452 -0.314 0.835 107 40 50 0
-24.1925 33.5478 -43.0850 0.250 -0.370 0.895 104 38 48 0
-6.8195 42.8998 -62.1353 -0.574 0.166 0.802 109 88 94 0
-10.9318 37.5432 -57.3170 -0.163 0.078 0.984 140 127 136 0
-18.5569 28.2394 -48.4446 0.087 -0.849 0.521 174 168 171 0
-16.5761 28.9787 -50.5845 0.272 -0.642 0.717 176 171 172 0
-20.6951 25.4566 -45.9396 0.254 -0.592 0.765 177 173 172 0
-23.3480 18.5006 -42.4871 0.298 -0.895 0.333 184 174 173 0
-15.3117 18.1033 -50.8350 -0.338 -0.935 0.108 182 173 168 0
-2.1882 11.8216 -63.9136 -0.633 -0.352 -0.690 166 154 149 0
-41.4184 47.7539 -26.7833 -0.679 -0.687 -0.258 222 216 217 0
-41.9781 46.6341 -26.0855 -0.462 -0.875 -0.141 220 214 214 0
-28.4875 58.7425 -41.4168 -0.895 -0.338 0.292 217 205 205 0
-22.8004 64.3266 -47.9278 -0.744 -0.358 0.564 212 202 201 0
