ply
format ascii 1.0
element vertex 837
property float x
property float y
property float z
property float nx
property float ny
property float nz
property uchar diffuse_red
property uchar diffuse_green
property uchar diffuse_blue
property uchar class
end_header
26.8114 20.2199 -47.0475 -0.641 -0.767 -0.019 185 161 126 0
15.6045 10.2562 -40.3263 -0.686 0.092 0.722 170 146 110 0
15.5354 10.0276 -40.3083 -0.598 0.029 0.801 169 146 110 0
12.1000 5.6360 -38.4354 -0.630 -0.775 -0.044 152 129 92 0
12.2890 5.4913 -38.5926 -0.630 -0.775 -0.044 99 85 67 0
-29.2289 100.3086 4.4783 -0.980 -0.038 0.193 255 255 255 0
-29.5326 97.4600 4.3032 -0.922 0.163 0.351 228 209 182 0
-40.4449 62.5280 7.3783 -0.729 0.433 0.530 243 223 196 0
-4.4901 54.7601 -19.8224 0.174 0.262 0.949 132 88 77 0
-5.0988 53.9579 -19.4916 0.149 0.294 0.944 132 85 75 0
-3.8178 52.6154 -20.6087 0.225 0.220 0.949 132 81 69 0
-5.7277 50.4826 -19.5175 0.217 0.161 0.963 139 86 71 0
-7.7148 46.5349 -18.6222 0.365 -0.824 0.434 151 86 65 0
-6.8501 37.9658 -20.4409 -0.130 -0.059 0.990 177 120 88 0
-6.8395 37.2738 -20.5447 0.300 -0.336 0.893 180 130 95 0
-4.6671 38.3020 -21.9802 0.348 -0.204 0.915 171 118 86 0
-4.8484 37.9410 -21.8986 0.467 -0.523 0.713 166 116 82 0
-5.0443 37.5715 -21.8076 0.163 0.034 0.986 166 115 80 0
-11.7368 32.1456 -17.6992 0.212 -0.467 0.859 190 137 92 0
-0.3661 36.6239 -25.3380 -0.434 -0.768 0.471 178 136 90 0
5.0164 37.7977 -29.0853 0.229 -0.966 -0.118 165 125 82 0
7.5873 38.8677 -30.8045 -0.367 -0.809 0.459 161 122 81 0
7.6767 38.6687 -30.8971 -0.380 -0.805 0.456 161 123 84 0
8.3396 36.5482 -31.6733 -0.680 -0.655 0.328 182 159 134 0
8.5880 36.4426 -31.8684 -0.816 -0.460 0.351 202 180 157 0
12.2731 37.5450 -34.3925 0.530 -0.765 0.367 210 195 172 0
14.3310 38.1938 -35.7975 0.515 -0.784 0.347 209 197 175 0
0.5962 19.6325 -28.3976 -0.989 0.072 0.126 205 193 167 0
0.9954 19.6053 -28.6914 -0.980 0.076 0.185 205 193 167 0
22.7100 19.5303 -44.4777 -0.737 0.190 0.649 194 173 141 0
25.4092 20.2674 -46.3363 -0.664 0.002 0.748 193 173 139 0
25.0866 19.9119 -46.1513 -0.651 -0.547 0.526 192 171 137 0
7.8686 9.3431 -35.1105 0.020 -0.992 -0.124 173 149 111 0
18.3521 12.2076 -42.3289 -0.626 0.248 0.739 173 149 113 0
15.3549 10.0243 -40.4548 -0.518 0.034 0.855 168 145 108 0
-4.5865 3.5544 -26.8659 0.368 -0.903 0.220 164 142 105 0
2.7863 5.3524 -31.9725 0.345 -0.924 0.167 162 140 103 0
12.2613 5.5272 -38.8319 -0.630 -0.775 -0.044 97 85 66 0
12.4509 5.3821 -38.9898 -0.630 -0.775 -0.044 49 48 47 0
-36.8625 86.2431 7.8150 -0.617 -0.758 -0.211 255 255 255 0
-29.2759 100.5301 4.2540 -0.982 -0.044 0.184 255 255 255 0
-36.5027 72.3103 5.6342 -0.839 0.434 0.330 238 220 191 0
-2.8542 56.8927 -21.0088 0.299 0.152 0.942 129 87 75 0
-5.7738 52.4369 -19.4949 0.033 0.354 0.935 131 78 69 0
-5.1019 51.6721 -20.0898 0.235 0.203 0.951 135 79 68 0
-7.6700 46.6968 -18.9036 0.319 -0.672 0.668 153 84 64 0
-7.4399 46.6301 -19.0804 0.319 -0.672 0.668 155 86 65 0
-7.9726 42.4977 -19.2613 0.451 -0.214 0.867 134 75 55 0
-7.5782 42.3119 -19.5743 0.466 -0.217 0.857 134 73 53 0
-7.4781 37.1670 -20.3557 0.287 -0.337 0.897 156 105 72 0
-5.4113 37.6607 -21.7939 0.461 -0.491 0.740 157 107 70 0
-5.3671 37.4559 -21.8542 0.192 0.005 0.981 157 106 69 0
-5.4977 37.1325 -21.8036 0.068 0.182 0.981 155 102 64 0
-2.0514 35.8857 -24.4867 -0.994 -0.104 -0.038 160 114 72 0
-2.0095 35.6771 -24.5459 -0.999 0.016 0.028 158 113 72 0
-2.1627 35.3449 -24.4800 -1.000 -0.018 0.005 157 113 72 0
-1.8706 35.2957 -24.6996 -0.807 -0.488 -0.334 158 115 74 0
0.1657 35.3916 -26.1703 -0.020 -0.951 -0.309 158 116 78 0
2.7103 35.9982 -27.9411 0.306 -0.942 -0.136 152 112 77 0
4.0140 36.5484 -28.8153 0.302 -0.943 -0.138 151 111 78 0
4.5001 36.1088 -29.2301 -0.123 -0.735 0.667 148 112 79 0
4.9636 35.4095 -29.6641 0.490 -0.545 0.680 147 116 87 0
5.2492 35.3341 -29.8826 0.506 -0.451 0.735 146 115 89 0
8.1321 36.5269 -31.8191 -0.673 -0.651 0.352 150 123 98 0
8.2738 36.3597 -31.9454 -0.704 -0.636 0.316 161 135 111 0
10.7640 36.0274 -33.8058 0.269 -0.511 0.816 207 195 172 0
26.6263 20.7738 -47.4653 -0.766 -0.581 0.275 191 170 140 0
17.5272 12.2198 -42.0127 -0.633 0.222 0.742 172 148 112 0
18.4269 12.2850 -42.6593 -0.632 0.243 0.736 172 148 112 0
18.4272 12.0691 -42.6893 -0.627 0.248 0.739 172 148 112 0
18.1840 11.5641 -42.5816 -0.763 0.310 0.567 171 147 111 0
15.6504 10.5812 -40.8707 -0.518 0.118 0.847 170 146 110 0
5.7803 4.5866 -34.5038 0.152 -0.987 -0.054 158 134 100 0
12.0355 5.7061 -38.9079 -0.622 -0.782 -0.043 153 131 94 0
12.2279 5.5618 -39.0679 -0.622 -0.782 -0.043 99 86 67 0
-29.3354 100.7283 4.0348 -0.981 -0.043 0.187 254 254 254 0
-29.6840 98.1547 3.9383 -0.859 0.170 0.483 226 208 178 0
-35.2775 78.6175 5.3600 -0.935 0.197 0.296 231 214 184 0
-35.7873 77.4135 5.5682 -0.971 0.155 0.184 232 215 185 0
-8.6586 46.5228 -18.4767 0.387 -0.409 0.826 159 86 67 0
-8.4386 46.4509 -18.6473 0.385 -0.409 0.827 158 84 65 0
-8.9497 42.1085 -18.8664 0.384 -0.299 0.874 132 71 52 0
-8.7509 41.7788 -19.0567 0.386 -0.290 0.876 129 67 50 0
-8.6267 41.6327 -19.1674 0.427 -0.234 0.873 128 66 49 0
-7.8102 41.7677 -19.7458 0.390 -0.373 0.842 131 69 53 0
-7.6802 40.9019 -19.9590 0.298 -0.114 0.948 131 69 52 0
-7.1973 39.5844 -20.4918 -0.121 -0.679 0.724 139 78 59 0
-6.9380 39.5337 -20.6883 -0.157 -0.652 0.742 145 85 67 0
-7.8864 36.7562 -20.3742 0.034 -0.480 0.877 136 85 54 0
-7.7895 36.5929 -20.4673 0.034 -0.480 0.877 136 85 52 0
-5.2774 36.2175 -22.3546 -0.143 -0.964 -0.224 151 95 63 0
-5.0161 36.1590 -22.5536 -0.144 -0.964 -0.225 150 94 61 0
-5.3561 35.7012 -22.3676 -0.191 -0.972 -0.137 147 92 60 0
-4.0704 36.3185 -23.2230 0.012 -1.000 -0.005 147 92 60 0
-5.1369 35.3835 -22.5711 0.405 -0.905 0.133 147 93 60 0
-2.1446 35.9264 -24.6842 -0.536 -0.826 -0.175 146 96 61 0
-2.1414 35.6929 -24.7183 -0.998 -0.053 0.016 145 97 62 0
-1.9866 35.3214 -24.8822 -0.787 -0.489 -0.377 146 100 66 0
-1.9946 35.0819 -24.9090 0.092 -0.963 -0.253 144 100 66 0
2.7707 35.1694 -28.3801 0.499 -0.325 0.803 143 103 76 0
4.5187 34.7603 -29.7135 0.529 -0.461 0.713 143 109 86 0
7.9134 36.4990 -31.9574 -0.655 -0.671 0.347 142 111 85 0
8.0901 36.3523 -32.1066 -0.657 -0.657 0.369 144 114 89 0
26.6335 20.8448 -47.7768 -0.665 -0.549 0.507 191 172 143 0
25.8388 20.3160 -47.2680 -0.016 -0.664 0.748 190 170 142 0
17.2435 11.9707 -42.1248 -0.648 0.221 0.729 172 149 113 0
18.5390 12.1577 -43.0461 -0.594 0.253 0.764 171 147 111 0
18.4954 11.9282 -43.0456 -0.590 0.259 0.765 170 146 110 0
-7.9944 2.4706 -24.9750 0.395 -0.863 0.315 165 143 106 0
5.2089 4.4725 -34.3520 0.159 -0.986 -0.048 162 138 104 0
-29.3888 100.9396 3.8119 -0.982 -0.039 0.187 254 254 254 0
-33.5684 83.1726 4.4726 -0.663 0.027 0.748 232 213 183 0
-35.2991 78.8255 5.1534 -0.935 0.197 0.296 232 213 186 0
-35.4235 78.2918 5.1724 -0.934 0.204 0.292 233 214 185 0
-35.4916 77.8587 5.1637 -0.922 0.197 0.334 234 215 186 0
-35.5934 77.3686 5.1720 -0.922 0.197 0.334 233 214 184 0
-35.7307 76.8190 5.1984 -0.897 0.223 0.381 233 214 183 0
-35.8554 76.2938 5.2187 -0.900 0.253 0.356 237 218 186 0
-39.9019 64.0098 6.5236 -0.699 0.323 0.638 241 222 194 0
-7.8884 59.6158 -17.5404 0.263 -0.390 0.882 232 223 206 0
-6.2705 54.1750 -19.4625 0.234 0.220 0.947 123 79 70 0
-7.1542 50.2111 -19.3508 -0.795 0.484 0.365 131 68 59 0
-8.6833 46.1264 -18.7824 0.465 -0.457 0.758 157 81 61 0
-9.3882 42.6111 -18.7411 0.281 -0.199 0.939 131 69 54 0
-9.4098 42.3527 -18.7602 0.281 -0.195 0.940 133 71 57 0
-8.4946 41.3666 -19.5646 0.095 -0.285 0.954 130 64 53 0
-9.0827 40.6848 -19.2256 0.046 -0.585 0.810 129 63 53 0
-7.9206 36.6056 -20.6294 0.095 -0.496 0.863 129 78 50 0
-6.3746 36.5102 -21.7757 0.165 0.148 0.975 129 72 50 0
-6.7927 35.3059 -21.6321 0.318 -0.267 0.910 148 91 70 0
-3.7722 35.9133 -23.7643 0.487 -0.728 0.483 140 83 55 0
-2.0129 35.6395 -25.0911 -0.997 -0.082 -0.017 137 88 59 0
1.5250 35.4726 -27.7073 -0.592 -0.803 -0.072 131 87 63 0
2.5710 35.6290 -28.4531 -0.258 -0.950 -0.175 132 90 68 0
2.1975 34.4447 -28.3394 0.541 -0.470 0.697 136 95 73 0
2.9064 34.6279 -28.8344 0.494 -0.543 0.679 133 95 72 0
3.2301 34.5800 -29.0781 0.494 -0.540 0.681 135 97 75 0
15.2230 37.6909 -37.4495 0.580 -0.538 0.611 210 195 173 0
-4.2730 14.3625 -26.3124 0.176 -0.984 -0.015 202 186 162 0
16.7043 11.4301 -42.0879 -0.239 -0.111 0.965 171 147 111 0
17.4449 11.4442 -42.6288 -0.317 -0.110 0.942 170 146 110 0
-5.4082 2.9323 -27.0264 0.385 -0.877 0.287 165 141 109 0
12.8700 5.0337 -40.1421 -0.524 -0.842 0.131 254 254 254 0
-29.4728 101.0924 3.6027 -0.986 -0.084 0.147 254 254 254 0
-29.5703 100.5169 3.5972 -0.979 -0.002 0.205 135 135 135 0
-33.5984 84.0430 4.3509 -0.852 0.397 0.342 232 213 183 0
-35.1785 79.6034 4.9176 -0.924 0.211 0.318 233 213 188 0
-35.2922 79.0845 4.9317 -0.924 0.211 0.318 234 213 188 0
-35.6664 78.1117 5.0764 -0.927 0.247 0.282 235 214 187 0
-35.4868 78.1109 4.9442 -0.920 0.206 0.334 239 219 192 0
-35.9560 76.9795 5.1376 -0.725 -0.614 0.312 240 220 191 0
-35.9692 76.6458 5.1025 -0.718 -0.613 0.330 239 221 191 0
-3.5081 61.3446 -20.8181 -0.329 -0.587 0.740 227 216 194 0
0.4230 62.3074 -23.5796 0.136 -0.618 0.775 136 99 91 0
-7.5362 51.3353 -19.1979 0.601 -0.681 0.419 125 68 61 0
-6.9309 51.3263 -19.6441 0.197 -0.641 0.742 128 70 62 0
-9.1953 48.1060 -18.4108 0.103 -0.058 0.993 135 65 57 0
-9.2975 47.7658 -18.3813 0.155 -0.205 0.966 141 69 61 0
-10.1376 41.4268 -18.6132 0.231 -0.180 0.956 123 60 49 0
-10.3214 41.0474 -18.5289 0.235 -0.140 0.962 122 60 48 0
-9.3182 41.0976 -19.2599 0.005 -0.236 0.972 125 57 48 0
-8.3084 41.6218 -19.9321 0.468 -0.280 0.838 126 57 48 0
-8.6908 36.6335 -20.3197 0.174 -0.353 0.919 128 71 52 0
-8.1653 36.7701 -20.6877 0.047 -0.498 0.866 127 73 53 0
-8.2295 36.4950 -20.6774 0.059 -0.501 0.864 127 75 52 0
-8.1245 36.3377 -20.7757 0.059 -0.501 0.864 125 74 50 0
-8.0532 35.9278 -20.8831 0.432 -0.554 0.712 133 81 58 0
-7.8820 35.8160 -21.0240 0.371 -0.543 0.753 129 74 53 0
-7.5776 35.7944 -21.2507 0.258 -0.183 0.949 123 66 47 0
-4.4587 35.5654 -23.5748 0.500 -0.715 0.489 137 78 55 0
-3.8863 35.7059 -23.9769 0.505 -0.743 0.440 136 79 56 0
-3.7101 35.5868 -24.1224 0.502 -0.738 0.451 136 80 57 0
-2.8164 35.2266 -24.8279 -0.474 -0.289 0.832 133 83 57 0
-2.2080 35.3798 -25.2547 -0.177 -0.403 0.898 132 83 58 0
-5.3315 32.9401 -23.2850 -0.281 -0.223 0.933 128 81 58 0
-5.2411 32.7710 -23.3741 -0.142 -0.479 0.867 128 82 59 0
-5.2612 32.5329 -23.3912 -0.146 -0.482 0.864 130 84 61 0
-5.7401 32.0094 -23.1092 -0.593 -0.624 0.510 127 82 59 0
-1.3411 33.8150 -26.1019 0.554 -0.712 0.431 128 82 61 0
-0.1418 34.3143 -26.9168 0.565 -0.698 0.440 128 83 63 0
0.5972 34.2918 -27.4633 0.531 -0.448 0.719 127 84 66 0
-0.8275 33.1968 -26.5624 0.431 -0.892 0.137 129 87 68 0
2.0497 34.2150 -28.5416 0.480 -0.790 0.381 131 93 73 0
2.4224 34.1981 -28.8179 0.455 -0.629 0.631 130 92 73 0
4.1020 33.9868 -30.0813 0.517 -0.795 0.318 139 106 81 0
26.8899 18.4089 -48.9261 0.523 -0.044 0.851 185 168 138 0
28.1375 18.5911 -49.8190 0.539 -0.060 0.840 185 164 133 0
25.3914 16.2516 -48.1134 0.527 -0.066 0.847 176 152 118 0
-29.5247 101.3085 3.3775 -0.986 -0.084 0.147 254 254 254 0
-29.6182 100.7391 3.3708 -0.979 -0.002 0.205 135 135 135 0
-29.6793 99.4674 3.2469 -0.974 0.027 0.223 225 209 181 0
-29.7414 98.9662 3.2262 -0.827 0.131 0.547 228 210 180 0
-34.0688 83.1298 4.3144 -0.862 0.396 0.316 233 213 188 0
-35.0832 80.0216 4.6497 -0.923 0.208 0.324 238 217 193 0
-35.3237 79.2772 4.7282 -0.930 0.223 0.292 240 219 194 0
-36.2571 77.0074 5.1151 -0.537 -0.663 0.522 242 221 193 0
-36.1409 76.8988 5.0150 -0.464 -0.551 0.693 241 221 192 0
-36.0364 76.7696 4.9207 -0.687 -0.642 0.341 240 221 190 0
-8.2381 52.9871 -18.7406 0.124 0.329 0.936 122 78 72 0
-7.5509 51.1956 -19.4854 0.360 -0.932 0.044 123 64 56 0
-7.6670 50.8322 -19.4481 -0.124 -0.687 0.716 125 65 56 0
-8.7311 49.6600 -18.8190 0.423 -0.707 0.567 131 67 58 0
-8.3637 49.7138 -19.0828 0.386 -0.812 0.438 131 65 58 0
-10.2397 47.1047 -18.0457 -0.760 0.421 0.495 141 65 59 0
-9.0847 36.4615 -20.3113 0.174 -0.353 0.919 122 64 47 0
-8.7252 36.4835 -20.5735 0.168 -0.573 0.802 120 65 47 0
-8.7165 36.2600 -20.6096 0.051 -0.482 0.875 121 67 47 0
-8.6071 36.1068 -20.7107 0.061 -0.517 0.854 121 68 47 0
-8.5638 35.9078 -20.7690 0.278 -0.463 0.841 122 70 48 0
-8.3907 35.7983 -20.9112 0.251 -0.458 0.853 126 72 52 0
-8.2315 35.6789 -21.0445 0.269 -0.462 0.845 127 70 52 0
-8.0903 35.5468 -21.1662 0.247 -0.228 0.942 125 67 50 0
-8.0562 35.3416 -21.2185 0.192 -0.175 0.966 122 61 47 0
-7.8470 34.8000 -21.4448 0.335 -0.494 0.803 127 66 52 0
-7.6768 34.6868 -21.5854 0.335 -0.494 0.803 126 64 49 0
-7.4893 34.5847 -21.7372 0.358 -0.537 0.764 125 63 47 0
-4.1404 34.7107 -24.1905 0.534 -0.769 0.353 123 71 50 0
-5.5563 32.6678 -23.4175 -0.285 -0.221 0.933 122 75 55 0
-5.6947 32.3558 -23.3569 -0.378 -0.729 0.571 123 78 56 0
-5.8484 32.0354 -23.2861 -0.620 -0.607 0.497 123 78 56 0
-5.7569 31.8687 -23.3757 -0.620 -0.607 0.497 122 78 56 0
-5.6623 31.7040 -23.4674 -0.614 -0.606 0.506 122 77 56 0
-0.4728 33.7399 -27.0244 0.530 -0.443 0.723 122 80 62 0
-0.3254 33.5951 -27.1524 0.373 -0.927 0.046 123 82 64 0
1.6571 33.8401 -28.5820 0.515 -0.664 0.542 125 88 69 0
1.9029 33.2753 -28.8383 0.402 -0.912 0.079 128 89 71 0
3.0993 33.7379 -29.6593 0.491 -0.798 0.350 129 91 70 0
3.5083 33.7373 -29.9610 0.512 -0.787 0.343 133 97 73 0
9.0236 34.6891 -33.9023 -0.195 -0.980 0.044 209 193 168 0
0.5835 15.6978 -30.1999 0.030 -0.842 0.538 199 185 159 0
14.6849 17.8209 -40.3183 -0.032 -0.874 -0.485 190 170 148 0
12.7871 5.0979 -40.6086 -0.538 -0.831 0.142 254 255 254 0
13.6013 5.1117 -41.2072 -0.613 -0.790 -0.011 255 255 255 0
-29.5768 101.5253 3.1515 -0.986 -0.084 0.147 255 255 255 0
-29.6643 100.9660 3.1427 -0.978 -0.008 0.209 135 135 135 0
-29.7244 99.6922 3.0195 -0.974 0.020 0.227 226 210 182 0
-29.8935 98.9840 3.0514 -0.858 0.166 0.485 229 211 181 0
-33.9957 84.1888 4.1390 -0.984 0.099 0.149 233 213 186 0
-34.0807 83.7018 4.1378 -0.958 0.166 0.235 233 213 187 0
-35.2192 80.3544 4.5395 -0.867 0.360 0.345 240 220 195 0
-35.9201 78.1571 4.7688 -0.961 0.202 0.188 240 220 193 0
-36.3965 77.0058 4.9698 -0.537 -0.663 0.522 241 220 193 0
-36.2389 76.9697 4.8485 -0.722 -0.596 0.351 242 222 194 0
-7.1070 61.4250 -18.7479 0.053 0.040 0.998 233 226 210 0
-8.5940 59.4078 -17.9134 -0.076 0.044 0.996 233 225 209 0
-7.4619 54.3629 -19.4148 -0.241 0.543 0.805 116 71 65 0
-8.1007 51.1222 -19.3687 0.277 -0.961 -0.024 122 61 55 0
-7.7254 50.9185 -19.6731 -0.087 -0.629 0.772 125 61 54 0
-9.3194 49.2904 -18.7082 0.158 -0.927 0.341 129 62 55 0
-11.1563 47.4655 -17.5895 0.039 -0.554 0.832 130 61 56 0
-11.1038 47.2586 -17.6556 0.051 -0.553 0.832 132 60 56 0
-11.1269 40.4209 -18.5383 0.150 -0.242 0.959 120 51 44 0
-10.9815 40.0608 -18.6932 0.136 -0.228 0.964 124 52 45 0
-10.7763 39.9814 -18.8555 0.089 -0.201 0.976 125 52 45 0
-9.7751 36.9964 -19.9889 0.205 -0.332 0.921 123 58 47 0
-9.9498 36.4140 -19.9364 -0.007 -0.808 0.589 127 64 51 0
-9.7167 36.3502 -20.1172 0.014 -0.804 0.595 124 63 50 0
-9.3221 36.3989 -20.4027 0.189 -0.351 0.917 117 59 46 0
-9.2322 36.2329 -20.4910 0.084 -0.472 0.878 115 58 44 0
-9.1320 36.0741 -20.5861 0.084 -0.472 0.878 114 58 43 0
-8.9433 35.9766 -20.7385 0.307 -0.260 0.916 115 60 45 0
-8.9711 35.7290 -20.7505 0.390 -0.332 0.859 117 63 46 0
-8.6561 35.4898 -21.0150 0.248 -0.234 0.940 125 68 52 0
-8.5834 35.3117 -21.0922 0.212 -0.185 0.960 125 66 53 0
-8.5173 35.1292 -21.1651 0.192 -0.175 0.966 119 57 45 0
-7.9265 35.0744 -21.6094 -0.096 -0.343 0.934 119 57 46 0
-8.3129 34.3606 -21.4175 0.303 -0.421 0.855 120 57 46 0
-8.1069 34.2723 -21.5815 0.309 -0.430 0.848 119 57 44 0
-7.7784 34.2648 -21.8255 0.252 -0.087 0.964 119 56 43 0
-6.7314 34.7316 -22.5386 -0.073 0.194 0.978 119 57 42 0
-5.4070 34.2237 -23.5852 0.552 -0.709 0.439 121 65 48 0
-5.7069 32.6679 -23.5681 0.149 -0.054 0.987 119 71 55 0
-6.0543 32.0004 -23.3989 -0.117 -0.975 0.188 117 71 55 0
-5.8547 31.9013 -23.5597 -0.611 -0.618 0.495 118 72 56 0
-4.6201 32.2171 -24.4314 0.561 -0.770 0.304 121 74 59 0
-1.3959 33.5079 -26.6467 0.452 -0.864 0.219 118 74 59 0
-0.5883 33.7659 -27.2101 0.481 -0.808 0.342 117 74 59 0
-1.5193 32.7375 -26.6568 0.521 -0.742 0.422 114 73 54 0
-0.5237 33.1040 -27.3451 0.521 -0.776 0.357 116 76 56 0
0.1138 33.2520 -27.7972 0.527 -0.734 0.428 118 80 61 0
0.5746 33.2922 -28.1328 0.521 -0.730 0.442 119 81 62 0
1.2423 33.4531 -28.6055 0.455 -0.865 0.213 121 83 65 0
2.2804 33.8296 -29.3239 0.456 -0.863 0.218 122 84 66 0
2.1300 33.2665 -29.2867 0.515 -0.730 0.450 123 85 64 0
2.5001 33.2455 -29.5633 0.533 -0.719 0.446 124 87 64 0
3.3725 33.5145 -30.1733 0.533 -0.719 0.446 125 90 66 0
6.4500 34.3173 -32.3442 0.540 -0.665 0.516 138 112 89 0
8.3716 34.9154 -33.6871 0.238 -0.908 0.344 175 154 128 0
9.3985 34.7462 -34.4691 0.025 -1.000 -0.019 209 193 168 0
12.7801 35.8627 -36.8237 0.360 -0.874 0.327 209 194 171 0
0.0345 15.3372 -30.0961 0.134 -0.959 0.250 198 184 158 0
20.5717 15.9269 -45.2111 0.359 0.166 0.918 186 165 137 0
17.3413 13.9578 -43.0805 0.478 0.022 0.878 186 165 137 0
16.8586 12.2818 -42.9440 0.521 -0.014 0.853 177 154 121 0
-0.1611 3.3389 -31.5303 0.310 -0.932 0.187 160 135 104 0
1.8846 3.7264 -32.9927 0.310 -0.932 0.187 159 135 100 0
12.7244 5.1246 -40.8276 -0.552 -0.832 0.049 254 255 254 0
-29.6291 101.7428 2.9248 -0.986 -0.084 0.147 255 255 255 0
-29.7170 101.1811 2.9168 -0.980 -0.008 0.201 135 135 135 0
-29.7639 99.9290 2.7884 -0.975 0.022 0.221 227 211 183 0
-34.0711 83.9821 3.9054 -0.949 0.151 0.276 239 219 192 0
-7.9655 60.7487 -18.4937 0.045 -0.013 0.999 233 226 210 0
-8.3753 60.0630 -18.2790 0.067 -0.038 0.997 233 226 210 0
-8.1689 59.9788 -18.4432 -0.166 0.164 0.972 233 225 209 0
-8.4319 59.4398 -18.3183 0.128 -0.405 0.905 232 223 208 0
-5.3012 57.5730 -20.8846 -0.191 0.499 0.845 124 78 73 0
-10.0951 50.5677 -18.2408 -0.472 0.468 0.747 118 59 55 0
-7.8754 50.9263 -19.8411 -0.803 0.341 0.488 127 60 54 0
-12.1075 46.7827 -17.2411 -0.081 -0.586 0.806 133 61 58 0
-12.3228 46.3501 -17.1377 -0.399 -0.597 0.697 136 62 58 0
-11.2414 44.0484 -18.2402 -0.024 -0.105 0.994 148 68 58 0
-11.1507 40.0447 -18.8295 0.201 -0.345 0.917 125 50 45 0
-10.5500 37.2354 -19.6414 0.270 -0.336 0.902 116 47 40 0
-10.4806 37.0559 -19.7163 0.243 -0.357 0.902 121 52 44 0
-10.3876 36.8934 -19.8065 0.114 -0.451 0.885 125 57 49 0
-10.3001 36.7269 -19.8931 0.109 -0.456 0.883 128 61 52 0
-10.2249 36.5517 -19.9717 0.083 -0.492 0.867 129 63 51 0
-10.1812 36.3543 -20.0299 -0.010 -0.805 0.593 123 58 48 0
-10.0090 36.2478 -20.1715 -0.010 -0.805 0.593 115 52 42 0
-9.4546 35.4967 -20.6809 0.349 -0.401 0.847 113 57 44 0
-9.3174 35.3643 -20.7999 0.349 -0.401 0.847 115 58 45 0
-9.0962 35.2893 -20.9738 0.269 -0.244 0.932 117 59 47 0
-9.0545 35.0908 -21.0306 0.212 -0.185 0.960 119 59 48 0
-8.6473 34.9145 -21.3557 0.269 -0.270 0.925 113 51 41 0
-8.5200 34.7739 -21.4686 0.351 -0.371 0.860 116 53 44 0
-6.1533 32.4812 -23.5235 0.138 -0.051 0.989 114 65 53 0
-6.2752 32.1798 -23.4723 -0.056 -0.979 0.194 113 66 53 0
-6.0130 31.8962 -23.7039 -0.163 -0.977 0.135 112 66 51 0
0.1570 33.1385 -28.1200 0.457 -0.671 0.584 115 75 57 0
1.5536 33.7331 -29.0787 0.129 -0.954 -0.272 119 81 62 0
1.7179 33.5932 -29.2189 0.251 -0.962 -0.112 121 83 64 0
2.7543 33.9660 -29.9393 0.258 -0.960 -0.108 122 84 64 0
1.2474 32.8443 -28.9674 0.537 -0.679 0.500 120 82 61 0
1.4101 32.7044 -29.1064 0.514 -0.770 0.378 121 84 63 0
4.8833 33.7602 -31.5458 0.526 -0.639 0.561 124 94 75 0
7.1999 34.5951 -33.1559 0.334 -0.841 0.426 133 105 85 0
7.8134 34.6964 -33.5979 0.324 -0.888 0.325 138 113 91 0
9.2238 34.7450 -34.6381 0.025 -1.000 -0.019 206 190 164 0
10.3756 35.1368 -35.4416 0.368 -0.787 0.496 207 192 166 0
11.2587 21.9739 -37.8129 0.285 -0.957 -0.063 202 187 164 0
-0.2742 15.2727 -30.1292 0.131 -0.964 0.231 199 185 161 0
-1.7545 14.4772 -29.1345 0.364 -0.701 0.614 199 184 160 0
-2.2181 14.0969 -28.8401 0.393 -0.531 0.750 199 183 159 0
5.5683 14.1278 -34.6136 0.165 -0.575 0.801 189 171 146 0
-29.6815 101.9611 2.6973 -0.986 -0.084 0.147 255 255 255 0
-29.7658 101.4048 2.6882 -0.980 -0.008 0.201 136 136 135 0
-29.8172 100.1402 2.5632 -0.973 0.026 0.230 226 211 183 0
-29.6798 100.0201 2.4454 -0.983 -0.008 0.185 229 211 181 0
-35.5026 87.0328 5.1018 -0.934 0.187 0.305 229 212 184 0
-10.6319 50.7521 -18.0927 -0.050 0.250 0.967 116 61 58 0
-12.1129 47.1576 -17.4547 -0.183 -0.294 0.938 129 56 53 0
-12.5344 46.2977 -17.2520 -0.174 -0.585 0.792 140 63 58 0
-10.4390 47.8312 -18.6135 -0.271 -0.075 0.959 145 66 61 0
-11.9985 45.0198 -17.8159 -0.000 -0.084 0.996 154 64 61 0
-11.7138 45.0102 -18.0290 0.144 -0.605 0.783 151 61 59 0
-11.5205 44.9239 -18.1840 0.145 -0.567 0.811 149 60 56 0
-11.3850 44.7895 -18.3022 0.145 -0.567 0.811 148 59 54 0
-11.4584 44.4835 -18.2871 -0.021 -0.093 0.995 150 62 55 0
-11.5654 44.1511 -18.2504 -0.038 -0.090 0.995 148 63 56 0
-11.5693 43.9039 -18.2794 -0.036 -0.093 0.995 148 65 58 0
-11.6705 43.5783 -18.2462 -0.053 -0.348 0.936 145 65 58 0
-11.0344 36.7624 -19.5997 0.224 -0.525 0.821 122 53 46 0
-10.7923 36.7082 -19.7869 0.109 -0.491 0.865 126 57 50 0
-10.6755 36.5635 -19.8925 0.086 -0.487 0.869 130 64 55 0
-10.5541 36.4219 -20.0011 0.090 -0.495 0.864 130 65 55 0
-10.4172 36.2911 -20.1199 -0.010 -0.805 0.593 119 53 45 0
-10.2455 36.1847 -20.2614 -0.010 -0.805 0.593 112 47 39 0
-9.3063 36.1593 -20.9637 0.162 -0.308 0.938 111 53 42 0
-9.1685 36.0263 -21.0834 0.444 -0.503 0.741 113 55 44 0
-9.5219 34.8717 -20.9695 0.212 -0.185 0.960 114 53 45 0
-9.0036 34.5467 -21.3972 0.349 -0.364 0.863 115 51 42 0
-7.8241 32.6303 -22.5225 -0.826 -0.557 -0.091 109 51 40 0
-7.6677 32.5077 -22.6547 -0.815 -0.576 -0.068 109 52 42 0
-6.5933 32.2979 -23.4814 0.231 -0.086 0.969 105 54 45 0
-5.7854 31.9075 -24.1331 0.162 -0.937 -0.310 108 62 47 0
-6.0159 31.5405 -24.0089 -0.119 -0.990 0.081 111 64 52 0
0.9755 33.7221 -28.9304 -0.009 -0.940 -0.340 110 68 52 0
0.9893 33.4937 -28.9701 0.223 -0.966 -0.133 115 73 57 0
1.5472 33.5879 -29.3732 0.097 -0.961 -0.260 117 77 60 0
2.5276 33.9287 -30.0588 0.165 -0.964 -0.208 119 81 62 0
6.7814 34.4535 -33.1569 0.212 -0.955 0.207 129 100 84 0
7.3765 34.5455 -33.5879 0.228 -0.952 0.204 131 103 85 0
12.2404 28.0874 -38.0416 0.263 -0.812 0.521 206 196 171 0
-3.2022 13.5688 -28.4237 0.468 -0.584 0.663 200 182 161 0
8.9900 17.1560 -37.0342 -0.821 -0.310 -0.479 185 167 145 0
3.3056 11.3735 -33.5505 -0.962 -0.231 0.146 186 166 141 0
1.7336 3.7668 -33.3628 0.412 -0.820 0.397 159 135 103 0
-29.7341 102.1802 2.4690 -0.986 -0.084 0.147 255 255 255 0
-29.8160 101.6270 2.4594 -0.978 -0.008 0.209 136 136 135 0
-29.8592 100.3744 2.3315 -0.975 0.019 0.223 226 211 183 0
-29.7254 100.2468 2.2153 -0.988 -0.051 0.143 228 211 181 0
-36.0865 79.8867 4.3596 -0.445 0.005 0.895 237 219 195 0
-7.7406 59.5705 -19.3980 0.284 -0.712 0.643 227 221 202 0
-4.6350 61.0863 -21.5224 0.092 -0.578 0.811 222 201 185 0
-4.3908 61.0245 -21.7126 0.058 -0.623 0.780 182 157 143 0
-9.7037 53.0449 -18.7672 -0.120 0.443 0.889 114 65 60 0
-9.9214 52.3157 -18.6980 -0.228 0.525 0.820 114 63 59 0
-10.1952 51.8054 -18.5589 -0.352 0.525 0.775 115 63 59 0
-11.2678 50.3249 -17.9476 -0.224 0.366 0.903 115 59 56 0
-9.5707 50.2569 -19.2231 -0.606 0.475 0.638 120 54 48 0
-9.9140 49.6985 -19.0383 -0.626 0.460 0.630 122 55 49 0
-12.6539 47.0718 -17.3289 -0.083 -0.661 0.745 125 57 51 0
-12.7654 46.7260 -17.2900 -0.105 -0.591 0.800 129 56 51 0
-12.7081 46.5261 -17.3583 -0.094 -0.595 0.798 135 60 54 0
-12.7652 46.2288 -17.3537 -0.174 -0.585 0.792 141 62 57 0
-10.9020 47.5679 -18.5732 -0.127 -0.051 0.991 151 68 63 0
-10.8565 47.3535 -18.6346 -0.234 -0.058 0.970 158 73 68 0
-10.8153 47.1357 -18.6932 -0.236 0.322 0.917 157 70 65 0
-12.4862 45.4759 -17.6583 -0.024 0.016 1.000 153 64 61 0
-12.5661 44.4274 -17.7327 0.251 -0.208 0.945 149 58 56 0
-11.9587 43.9521 -18.2469 -0.226 -0.078 0.971 146 59 52 0
-11.8939 43.7615 -18.3197 -0.214 -0.071 0.974 144 60 53 0
-11.9180 43.4987 -18.3352 -0.070 -0.322 0.944 143 63 56 0
-11.9851 43.2020 -18.3231 0.000 -0.356 0.935 138 59 53 0
-12.0504 42.4261 -18.3736 -0.364 0.103 0.926 130 57 52 0
-11.9983 42.2277 -18.4379 -0.409 0.182 0.894 129 57 53 0
-11.4409 36.5745 -19.5770 0.220 -0.549 0.807 124 51 47 0
-11.0772 36.3806 -19.8733 0.245 -0.544 0.803 129 61 54 0
-10.8999 36.2797 -20.0185 0.237 -0.548 0.802 126 58 50 0
-10.7856 36.1335 -20.1226 0.249 -0.554 0.794 114 47 40 0
-10.6308 36.0158 -20.2532 0.249 -0.554 0.794 112 46 38 0
-9.6251 36.4985 -20.9421 0.238 -0.345 0.908 110 46 40 0
-9.6529 36.0203 -20.9825 0.156 -0.302 0.940 109 47 39 0
-9.7608 35.7166 -20.9409 0.446 -0.525 0.725 112 51 42 0
-9.6164 34.4562 -21.2099 0.338 -0.299 0.892 114 51 44 0
-8.9329 34.4684 -21.7185 0.474 -0.362 0.803 117 52 44 0
-7.8803 32.6898 -22.7317 -0.826 -0.558 -0.078 105 46 38 0
-7.1444 32.4910 -23.3065 0.274 -0.137 0.952 104 49 43 0
-6.4285 32.0479 -23.8975 -0.054 -0.980 0.191 105 52 44 0
-6.2342 31.9456 -24.0556 -0.137 -0.980 0.144 103 54 43 0
-5.7979 31.5448 -24.4326 -0.105 -0.992 0.072 107 60 50 0
1.4729 33.6396 -29.5920 0.097 -0.961 -0.260 111 71 55 0
2.3903 33.9439 -30.2379 0.116 -0.963 -0.243 113 74 58 0
1.8477 32.2048 -30.0553 0.487 -0.783 0.388 116 82 69 0
6.1793 34.2066 -33.0327 0.208 -0.972 0.111 123 91 80 0
6.8133 34.3222 -33.4912 0.197 -0.973 0.117 125 96 82 0
7.2223 34.3080 -33.7983 0.335 -0.890 0.308 128 101 83 0
7.7553 34.3621 -34.1892 0.334 -0.889 0.313 139 116 94 0
10.6427 34.2216 -36.3625 -0.047 -0.945 0.323 209 194 168 0
-17.2181 7.6858 -18.9593 -0.396 -0.582 -0.711 200 182 162 0
7.4661 6.7340 -37.5069 0.531 -0.062 0.845 164 143 114 0
-29.8734 102.6239 2.3331 -0.977 -0.004 0.211 255 255 255 0
-29.7869 102.4000 2.2400 -0.986 -0.084 0.147 255 255 255 0
-29.8669 101.8489 2.2301 -0.978 -0.008 0.209 136 136 135 0
-34.0057 85.2370 3.2248 -0.986 0.150 0.068 239 222 194 0
-8.0052 60.0457 -19.4327 0.137 -0.394 0.909 228 223 204 0
-4.7044 60.8895 -21.7971 0.058 -0.623 0.780 154 124 114 0
-7.3769 56.4062 -20.3641 -0.098 0.331 0.939 121 80 74 0
-7.8209 55.7214 -20.1184 -0.243 0.304 0.921 120 76 70 0
-7.9269 55.3488 -20.0862 -0.258 0.299 0.919 114 69 64 0
-7.9679 55.0368 -20.0950 -0.133 0.346 0.929 115 67 61 0
-9.7822 53.1173 -18.9798 -0.315 0.475 0.822 113 63 58 0
-10.0593 52.5994 -18.8379 -0.431 0.574 0.696 111 60 56 0
-10.2269 51.9177 -18.7988 -0.318 0.515 0.796 114 56 54 0
-11.2173 50.5075 -18.2358 -0.287 0.508 0.812 115 55 54 0
-13.0140 47.6422 -17.2536 -0.717 -0.639 0.280 118 52 48 0
-13.1103 47.3070 -17.2239 -0.682 -0.557 0.474 121 52 47 0
-12.9393 47.2053 -17.3648 -0.098 -0.641 0.762 123 52 46 0
-12.8199 47.0586 -17.4728 -0.098 -0.641 0.762 128 56 50 0
-12.8399 46.7913 -17.4916 -0.110 -0.585 0.803 133 59 52 0
-12.8465 46.5363 -17.5190 -0.133 -0.558 0.819 140 64 56 0
-12.9518 46.1973 -17.4831 -0.372 -0.424 0.825 144 65 57 0
-13.0072 45.9023 -17.4790 -0.219 -0.286 0.933 154 70 63 0
-13.0343 45.6321 -17.4929 -0.219 -0.281 0.934 158 70 65 0
-12.9109 45.4902 -17.6033 -0.233 -0.291 0.928 158 67 64 0
-12.8647 45.2829 -17.6641 -0.024 0.016 1.000 158 65 62 0
-12.1970 43.6361 -18.3727 -0.233 -0.083 0.969 146 62 55 0
-12.1949 43.3950 -18.4048 -0.043 -0.083 0.996 147 65 58 0
-12.3028 43.0653 -18.3657 0.392 -0.507 0.768 139 59 53 0
-12.1904 42.9147 -18.4690 -0.111 -0.347 0.931 132 54 48 0
-12.0254 42.8063 -18.6062 0.391 -0.473 0.789 135 59 54 0
-12.2484 42.3864 -18.4924 -0.360 0.074 0.930 136 61 56 0
-12.3748 42.0456 -18.4410 -0.403 0.194 0.894 133 60 54 0
-13.1638 40.9425 -17.9899 0.018 -0.064 0.998 126 49 45 0
-13.2212 40.4268 -18.0123 -0.170 -0.045 0.984 118 41 38 0
-10.1778 36.2124 -20.8247 0.210 -0.333 0.919 108 42 39 0
-8.8783 34.6056 -22.0012 0.146 -0.037 0.989 118 50 48 0
-9.0029 34.2949 -21.9472 0.351 -0.338 0.873 114 46 44 0
-8.6670 34.0686 -22.2274 0.436 -0.445 0.782 122 57 53 0
-7.2629 31.6169 -23.5892 0.369 -0.874 0.317 103 48 45 0
-4.8380 32.0059 -25.3555 0.294 -0.946 0.139 103 57 47 0
-3.9501 32.3252 -25.9798 0.413 -0.838 0.357 103 59 49 0
-3.3591 32.4587 -26.4054 0.415 -0.838 0.354 106 63 54 0
-2.5325 32.7332 -26.9895 0.416 -0.826 0.380 109 66 56 0
2.2755 33.9725 -30.4323 0.145 -0.965 -0.218 108 70 54 0
1.9634 32.1290 -30.4321 0.506 -0.768 0.393 112 78 69 0
6.7937 34.4075 -33.7600 0.166 -0.974 0.152 114 84 73 0
7.2141 34.3997 -34.0758 0.241 -0.884 0.401 120 92 76 0
7.6293 34.3873 -34.3882 0.243 -0.888 0.390 123 97 79 0
8.1831 34.4513 -34.7947 0.190 -0.923 0.334 140 118 96 0
11.9696 35.2974 -37.5225 0.406 -0.875 0.265 208 194 165 0
26.2036 18.8046 -50.2685 -0.387 -0.883 -0.265 185 163 139 0
3.8844 5.1831 -35.2833 0.519 -0.043 0.854 169 144 116 0
-29.9278 102.8424 2.1040 -0.981 -0.012 0.195 255 255 255 0
-29.8399 102.6206 2.0101 -0.986 -0.084 0.147 255 255 255 0
-29.9163 102.0749 1.9991 -0.974 0.005 0.227 136 136 135 0
-11.2597 59.2747 -17.3790 -0.118 -0.817 0.565 232 228 209 0
-7.9033 56.0720 -20.3013 -0.098 0.331 0.939 128 82 79 0
-8.2050 55.5180 -20.1441 -0.260 0.292 0.921 119 74 69 0
-8.3213 55.1364 -20.1046 -0.245 0.291 0.925 114 66 62 0
-13.2259 47.8401 -17.3366 -0.836 -0.385 -0.391 119 50 48 0
-13.3163 47.5092 -17.3102 -0.830 -0.399 -0.389 119 48 46 0
-13.3312 47.2454 -17.3321 -0.715 -0.488 0.500 122 48 46 0
-13.3166 47.0079 -17.3728 -0.634 -0.578 0.514 127 51 46 0
-13.2023 46.8575 -17.4776 -0.554 -0.312 0.772 134 58 51 0
-13.1570 46.6472 -17.5380 -0.544 -0.318 0.776 143 65 58 0
-13.1835 46.3754 -17.5521 -0.525 -0.289 0.801 152 73 64 0
-13.2659 46.0564 -17.5302 -0.498 -0.290 0.817 156 73 63 0
-13.2843 45.0544 -17.6421 -0.021 0.015 1.000 158 62 58 0
-12.8003 42.7820 -18.2905 0.416 -0.546 0.727 137 53 48 0
-12.7063 42.6177 -18.3818 0.397 -0.556 0.730 141 59 54 0
-12.4925 42.3096 -18.5810 -0.360 0.074 0.930 143 65 61 0
-13.6823 40.1783 -17.9548 -0.351 -0.368 0.861 120 42 41 0
-12.5386 36.8968 -19.2252 -0.616 -0.250 0.747 122 39 39 0
-11.2524 35.1039 -20.4159 0.005 -0.172 0.985 107 40 39 0
-10.3792 35.4902 -21.0232 0.194 -0.062 0.979 111 46 43 0
-10.0895 35.2380 -21.2724 0.286 -0.308 0.907 104 38 35 0
-9.1407 34.9825 -22.0169 0.168 -0.053 0.984 114 49 46 0
-9.2026 34.7129 -22.0043 0.231 -0.116 0.966 122 57 52 0
-9.4284 34.3330 -21.8824 0.145 -0.066 0.987 119 51 48 0
-9.5461 34.0279 -21.8323 0.351 -0.338 0.873 114 46 45 0
-9.4535 33.8653 -21.9221 0.436 -0.441 0.784 118 50 47 0
-9.2520 33.7758 -22.0847 0.436 -0.441 0.784 120 54 49 0
-9.0877 33.6608 -22.2225 0.446 -0.450 0.774 121 56 50 0
-8.0460 32.5508 -23.1440 -0.202 -0.812 0.547 105 45 42 0
-8.1208 31.8339 -23.1778 0.303 -0.819 0.488 98 40 40 0
-5.1618 31.9000 -25.3915 0.294 -0.946 0.139 99 52 45 0
-4.1475 32.2982 -26.1032 0.363 -0.856 0.368 101 54 46 0
-3.6795 32.3571 -26.4473 0.355 -0.862 0.362 103 56 48 0
-3.1733 32.4373 -26.8174 0.358 -0.865 0.351 107 60 52 0
0.8716 33.4743 -29.7249 0.304 -0.952 -0.021 107 66 53 0
7.9245 34.8994 -34.8426 -0.635 0.085 0.768 112 83 70 0
7.6911 34.5188 -34.7150 -0.146 -0.779 0.610 116 88 72 0
7.8124 34.3394 -34.8286 0.172 -0.919 0.354 124 99 80 0
8.2720 34.3493 -35.1725 0.190 -0.924 0.331 131 110 87 0
10.9778 34.3446 -37.2051 0.292 -0.765 0.574 208 192 168 0
26.6939 18.7973 -50.9570 -0.347 -0.890 -0.296 185 163 141 0
-29.8849 102.8581 1.7753 -0.974 0.019 0.224 255 255 255 0
-29.9689 102.2958 1.7687 -0.974 0.005 0.227 136 136 135 0
-36.8419 87.3088 5.0846 -0.671 -0.683 -0.288 229 213 182 0
-13.9011 57.0659 -15.9499 -0.974 0.218 0.060 232 229 211 0
-10.7782 59.9172 -17.9481 -0.950 -0.312 -0.008 230 227 210 0
-11.0221 59.3905 -17.8297 -0.692 -0.585 -0.423 231 228 210 0
-5.2801 60.6665 -21.9962 0.043 -0.612 0.790 143 105 98 0
-5.2609 60.3937 -22.0446 0.045 -0.420 0.906 133 92 86 0
-5.2547 60.1093 -22.0846 0.034 -0.301 0.953 127 85 79 0
-8.4136 55.7512 -20.2463 -0.084 0.325 0.942 123 75 72 0
-8.3938 55.4936 -20.2933 -0.241 0.293 0.925 115 67 63 0
-8.5931 55.0356 -20.2001 -0.241 0.293 0.925 113 61 59 0
-13.2320 48.7280 -17.4891 -0.979 0.203 0.005 115 52 47 0
-13.2637 47.9397 -17.5632 -0.825 -0.384 -0.414 118 48 46 0
-13.3997 47.5680 -17.5069 -0.828 -0.405 -0.387 122 50 48 0
-13.5011 47.2281 -17.4727 -0.981 0.120 0.151 124 50 46 0
-13.5021 46.9771 -17.5032 -0.937 0.049 0.347 128 51 46 0
-13.2492 42.5373 -18.2449 0.407 -0.547 0.731 143 56 52 0
-13.2312 42.3122 -18.2864 0.326 -0.413 0.850 145 60 57 0
-12.9246 42.0811 -18.5460 0.192 -0.306 0.933 136 55 52 0
-13.8324 40.1745 -18.0990 -0.350 -0.369 0.861 121 42 43 0
-12.6864 37.3514 -19.3127 -0.820 -0.236 0.522 122 39 39 0
-12.7087 37.1062 -19.3264 -0.851 -0.122 0.511 123 38 39 0
-12.6050 36.9547 -19.4233 -0.723 -0.081 0.686 123 38 38 0
-12.6058 36.7263 -19.4511 -0.723 -0.081 0.686 123 38 38 0
-12.4811 36.5903 -19.5619 -0.495 -0.065 0.866 123 38 37 0
-12.4897 36.3568 -19.5844 -0.495 -0.065 0.866 124 39 38 0
-10.9548 35.1895 -20.8855 0.106 -0.041 0.993 114 45 44 0
-10.7200 34.9016 -21.0981 0.268 -0.253 0.930 108 39 37 0
-9.7398 34.4474 -21.8927 0.230 -0.116 0.966 117 50 46 0
-9.9060 34.1087 -21.8096 0.137 -0.059 0.989 115 47 46 0
-10.1527 33.7169 -21.6724 0.412 -0.419 0.809 113 45 44 0
-10.0314 33.5750 -21.7815 0.411 -0.416 0.811 115 47 45 0
-9.8601 33.4665 -21.9240 0.411 -0.416 0.811 118 52 48 0
-9.6562 33.3793 -22.0883 0.406 -0.422 0.811 118 53 48 0
-8.2441 32.2952 -23.2866 -0.592 -0.702 0.396 101 42 40 0
-8.0403 32.2030 -23.4515 -0.502 -0.437 0.747 100 42 41 0
-8.3956 31.7527 -23.2398 0.222 -0.920 0.324 98 41 40 0
-8.1613 31.6803 -23.4253 -0.590 -0.761 0.269 97 41 40 0
-5.4433 31.8198 -25.4552 0.311 -0.931 0.189 97 50 44 0
-4.5355 32.1538 -26.0974 0.380 -0.789 0.483 98 51 45 0
-0.9437 33.1894 -28.6743 0.452 -0.884 0.121 105 61 49 0
0.8591 33.5629 -29.9858 0.538 -0.761 0.363 104 62 50 0
7.7337 34.8885 -34.9992 -0.635 0.085 0.768 108 79 67 0
7.6689 34.6031 -34.9859 -0.832 -0.137 0.538 110 81 67 0
7.4591 34.2368 -34.8733 0.134 -0.930 0.342 120 93 77 0
7.9021 34.2383 -35.2068 0.173 -0.924 0.342 124 101 80 0
9.8509 34.3250 -36.6638 0.310 -0.826 0.471 210 193 167 0
10.2403 34.2884 -36.9617 0.310 -0.712 0.630 209 191 167 0
10.8565 34.1225 -37.4464 0.312 -0.715 0.625 209 192 167 0
11.4875 23.8154 -39.2016 -0.140 -0.959 0.245 204 188 165 0
-30.0059 102.9458 1.5784 -0.971 -0.014 0.239 255 255 255 0
-30.0216 102.5175 1.5376 -0.974 0.005 0.227 136 136 136 0
-36.5967 87.0281 4.6009 -0.891 0.405 0.205 231 216 189 0
-36.2070 86.3955 4.2288 -0.308 0.320 0.896 236 219 193 0
-36.8764 84.0971 4.4519 -0.936 0.274 0.219 239 219 194 0
-37.1530 82.9034 4.5141 -0.960 0.191 0.204 241 219 195 0
-32.5937 70.8654 -0.4099 0.255 -0.240 0.937 239 227 207 0
-13.1948 57.9332 -16.6549 -0.965 0.218 0.146 231 228 213 0
-11.0409 59.5326 -18.0855 -0.688 -0.588 -0.425 231 227 211 0
-5.6453 60.4811 -22.0452 -0.006 -0.404 0.915 136 95 89 0
-5.6077 60.2261 -22.1049 0.045 -0.420 0.906 131 88 82 0
-10.4647 52.3942 -19.3982 -0.535 0.176 0.826 113 51 51 0
-13.3251 48.7801 -17.6816 -0.979 0.203 -0.003 115 50 46 0
-13.4160 48.1914 -17.6853 -0.694 -0.600 -0.398 116 47 43 0
-12.9331 47.1017 -18.1840 -0.169 -0.395 0.903 166 82 71 0
-12.6543 46.8407 -18.4268 0.177 -0.261 0.949 166 76 63 0
-13.3019 44.0666 -18.2785 0.057 -0.113 0.992 152 54 48 0
-13.2862 41.9087 -18.5556 0.212 -0.279 0.937 135 49 49 0
-12.7763 37.1636 -19.5241 -0.846 -0.121 0.519 121 36 36 0
-12.7311 36.9687 -19.5822 -0.784 -0.025 0.620 122 38 38 0
-12.7683 36.7133 -19.5855 -0.763 0.011 0.647 125 41 41 0
-10.9553 33.4944 -21.3508 0.330 -0.611 0.719 115 46 46 0
-10.8837 33.0982 -21.4536 -0.164 0.037 0.986 109 41 40 0
-10.8580 32.8938 -21.4981 -0.182 0.042 0.982 112 44 42 0
-10.9109 32.6371 -21.4898 -0.178 0.038 0.983 116 48 45 0
-8.5089 33.1156 -23.2455 -0.599 0.224 0.769 109 45 42 0
-8.6127 32.8231 -23.2031 -0.342 -0.853 -0.394 105 42 40 0
-8.3090 32.1256 -23.5183 -0.617 -0.686 0.386 100 42 41 0
-8.2856 31.9178 -23.5615 -0.496 -0.819 -0.288 98 41 39 0
-8.2714 31.7045 -23.5985 -0.590 -0.761 0.269 96 41 38 0
-5.6841 31.0900 -25.6286 0.207 0.064 0.976 98 52 46 0
-3.1943 31.9248 -27.4069 0.518 -0.752 0.407 104 60 50 0
-0.8354 32.6478 -29.1002 0.510 -0.829 0.231 101 58 49 0
0.4749 33.1932 -30.0230 0.510 -0.828 0.233 101 58 49 0
7.4102 34.3057 -35.1257 -0.314 -0.927 0.206 113 84 71 0
7.7801 34.2661 -35.4100 -0.147 -0.957 0.252 116 91 74 0
7.8561 34.0608 -35.4927 0.135 -0.848 0.512 122 100 79 0
10.3715 34.4566 -37.3443 0.418 -0.793 0.443 207 189 165 0
10.4411 33.9919 -37.4541 0.191 -0.926 0.327 209 191 167 0
-3.8890 10.0193 -29.5748 -0.620 -0.785 -0.012 188 170 146 0
-3.4848 9.9813 -29.8848 0.188 -0.780 0.596 187 167 147 0
-30.0705 103.1462 1.3521 -0.977 -0.007 0.214 255 255 255 0
-30.0842 102.7207 1.3107 -0.977 -0.006 0.213 135 136 135 0
-36.6034 88.3485 4.5019 -0.525 -0.756 -0.390 233 214 185 0
-36.6191 87.2682 4.3823 -0.888 0.396 0.235 234 218 192 0
-37.3780 85.4503 4.7362 -0.868 0.414 0.274 236 219 193 0
-38.1540 83.6098 5.1003 -0.871 0.413 0.267 237 220 194 0
-36.8754 84.7114 4.2654 -0.964 0.142 0.224 236 219 193 0
-37.0071 84.1216 4.2935 -0.963 0.134 0.236 238 220 194 0
-10.9296 59.8056 -18.4249 -0.883 -0.246 -0.399 231 226 210 0
-6.0971 60.7940 -21.9664 -0.230 -0.357 0.905 144 113 102 0
-5.9974 60.5979 -22.0658 -0.243 -0.321 0.915 136 97 90 0
-5.8670 60.1407 -22.2203 -0.065 -0.374 0.925 129 84 79 0
-8.3678 56.9308 -20.7159 0.100 0.192 0.976 121 73 69 0
-8.9466 56.1110 -20.3770 0.024 0.245 0.969 118 69 65 0
-9.7692 54.5227 -19.9470 0.050 0.244 0.969 113 56 54 0
-9.8641 54.1632 -19.9188 0.008 0.290 0.957 114 54 53 0
-11.9614 51.1792 -18.6927 -0.502 -0.448 0.740 113 49 49 0
-13.4476 48.2974 -17.9172 -0.819 -0.469 -0.331 120 47 43 0
-13.2393 47.2180 -18.2063 -0.177 -0.391 0.903 162 74 67 0
-13.2427 46.9639 -18.2347 -0.239 -0.430 0.871 172 82 71 0
-13.3059 46.6586 -18.2239 -0.215 0.153 0.965 171 78 67 0
-12.8366 37.2266 -19.7271 -0.739 -0.053 0.672 120 36 36 0
-12.8825 36.9639 -19.7243 -0.763 0.011 0.647 124 40 40 0
-12.8997 36.7232 -19.7406 -0.763 0.011 0.647 133 52 51 0
-12.9245 36.4774 -19.7516 -0.673 0.211 0.709 147 66 64 0
-13.1457 35.8628 -19.6588 -0.487 -0.092 0.869 119 38 37 0
-13.1052 35.6669 -19.7133 -0.618 -0.250 0.746 119 38 39 0
-13.1116 35.4374 -19.7364 -0.468 -0.122 0.875 125 45 46 0
-13.1274 34.9777 -19.7804 -0.326 -0.168 0.930 123 47 48 0
-13.1159 34.7626 -19.8152 -0.326 -0.168 0.930 120 43 45 0
-13.0207 34.6075 -19.9063 -0.431 -0.169 0.886 115 37 41 0
-12.0443 35.0776 -20.5889 0.036 -0.101 0.994 113 35 40 0
-12.0884 34.8215 -20.5867 0.094 -0.164 0.982 110 34 38 0
-11.7511 34.8347 -20.8406 0.259 -0.473 0.842 110 35 39 0
-11.6208 34.7014 -20.9556 0.259 -0.473 0.842 110 36 38 0
-11.5077 34.5558 -21.0590 0.282 -0.482 0.830 110 35 38 0
-8.9241 32.9402 -23.2133 -0.678 0.271 0.683 105 40 39 0
-8.8677 32.7531 -23.2788 -0.400 -0.828 -0.394 106 40 41 0
-8.4851 32.1076 -23.6472 -0.704 -0.529 -0.474 100 40 40 0
-8.3829 31.9504 -23.7438 -0.590 -0.798 -0.123 97 38 37 0
-0.0079 32.7661 -29.9905 0.342 -0.935 -0.092 100 57 49 0
9.3713 34.0024 -36.9471 0.225 -0.901 0.371 207 188 165 0
-30.1396 103.3389 1.1273 -0.975 -0.009 0.221 255 255 255 0
-30.1366 102.9453 1.0776 -0.977 -0.006 0.213 135 136 135 0
-9.8188 55.4469 -20.0836 0.290 -0.147 0.946 115 66 61 0
-10.2455 54.2301 -19.9058 0.083 0.206 0.975 113 54 52 0
-10.4007 53.8156 -19.8377 0.076 0.209 0.975 114 53 52 0
-11.3625 52.1297 -19.3098 -0.121 -0.826 0.550 112 49 49 0
-11.0880 52.1142 -19.5203 0.013 -0.360 0.933 112 46 48 0
-12.2605 50.2655 -18.8518 -0.642 -0.063 0.764 117 45 46 0
-12.6543 49.6528 -18.6263 -0.889 -0.117 0.442 119 45 45 0
-13.3957 48.2239 -18.2348 0.181 -0.473 0.862 127 46 45 0
-13.7970 47.3641 -18.0334 -0.996 -0.059 0.062 146 57 53 0
-13.5406 47.3378 -18.2314 -0.197 -0.364 0.911 155 63 58 0
-13.5449 47.0827 -18.2589 -0.239 -0.430 0.871 167 73 67 0
-13.4760 46.8919 -18.3342 -0.239 -0.430 0.871 173 77 68 0
-13.6186 46.5178 -18.2709 -0.172 0.136 0.976 166 69 58 0
-14.3656 43.1841 -18.1046 0.253 -0.240 0.937 163 64 60 0
-14.4298 42.8900 -18.0912 0.041 -0.033 0.999 161 64 61 0
-12.9847 37.2245 -19.8717 -0.741 -0.043 0.670 124 39 40 0
-13.0161 36.9723 -19.8782 -0.758 0.020 0.652 128 43 44 0
-13.0351 36.7301 -19.8929 -0.758 0.020 0.652 138 54 54 0
-13.3388 35.8269 -19.7709 -0.487 -0.092 0.869 121 37 38 0
-13.2638 35.6562 -19.8484 -0.618 -0.250 0.746 118 34 38 0
-12.6132 34.5525 -20.4758 -0.029 -0.406 0.913 114 35 40 0
-9.1882 33.0880 -23.2552 -0.863 0.158 0.481 102 33 36 0
-8.9952 32.9908 -23.4136 -0.686 0.252 0.682 103 35 36 0
-8.7234 32.9449 -23.6257 -0.583 -0.658 -0.476 106 36 39 0
-8.8488 32.6383 -23.5673 -0.250 -0.944 -0.214 106 38 40 0
-8.2471 32.5813 -24.0314 -0.716 -0.657 -0.237 103 39 40 0
-7.9324 32.5600 -24.2731 -0.719 -0.655 -0.234 99 37 37 0
-6.4937 32.1250 -25.4190 0.234 -0.936 -0.264 91 35 34 0
-6.9833 30.4775 -25.2452 0.206 0.095 0.974 92 42 40 0
-3.5150 31.4609 -27.7628 0.430 -0.899 0.083 98 53 47 0
-1.2103 32.3800 -29.4037 0.363 -0.929 -0.077 95 52 46 0
7.1386 34.3457 -35.5123 -0.153 -0.811 0.565 103 74 65 0
7.8973 34.0279 -36.1271 -0.274 -0.217 0.937 117 91 78 0
14.1102 30.8266 -41.2345 -0.429 0.154 0.890 207 195 171 0
-3.9888 10.0873 -29.9764 -0.586 -0.810 -0.027 188 170 146 0
-30.2135 103.5228 0.9042 -0.973 -0.001 0.231 255 255 255 0
-30.1892 103.1708 0.8438 -0.977 -0.006 0.213 135 136 135 0
-36.3830 89.0082 3.8777 -0.891 -0.452 0.047 236 217 189 0
-3.7507 63.0718 -24.0879 -0.224 -0.606 0.763 131 89 84 0
-10.1576 54.4595 -20.2303 -0.041 0.358 0.933 111 54 51 0
-11.5975 52.0580 -19.4188 -0.192 -0.818 0.543 112 46 47 0
-12.4013 50.2776 -19.0183 -0.651 -0.087 0.754 119 46 47 0
-12.7207 49.7309 -18.8399 -0.904 -0.143 0.404 121 45 45 0
-13.5059 48.7701 -18.3559 -0.194 0.073 0.978 122 44 43 0
-13.6423 48.1394 -18.3271 -0.075 -0.177 0.981 130 44 43 0
-13.7491 47.7915 -18.2871 -0.277 0.109 0.955 137 47 46 0
-13.8693 47.4329 -18.2382 -0.296 0.131 0.946 148 54 51 0
-13.8874 46.9146 -18.2862 -0.192 -0.384 0.903 161 62 58 0
-13.7088 46.8201 -18.4335 -0.239 -0.430 0.871 166 65 59 0
-13.9982 46.3183 -18.2728 -0.156 0.113 0.981 162 61 52 0
-14.7244 39.2293 -18.5639 -0.092 -0.578 0.811 126 39 41 0
-14.4087 39.2452 -18.8027 -0.405 -0.595 0.694 126 38 41 0
-14.2317 38.2268 -19.0589 -0.520 -0.796 0.311 127 39 41 0
-13.9145 38.2401 -19.2992 -0.322 -0.459 0.828 128 41 41 0
-13.8334 38.0717 -19.3810 -0.360 -0.447 0.819 127 40 41 0
-13.4096 37.2444 -19.8027 -0.156 -0.157 0.975 126 37 40 0
-13.1677 36.7391 -20.0472 -0.758 0.020 0.652 135 46 49 0
-13.2215 36.4717 -20.0381 -0.695 0.174 0.698 133 45 47 0
-13.5513 35.7766 -19.8695 -0.474 -0.079 0.877 120 34 37 0
-13.1491 35.8447 -20.1680 -0.352 -0.464 0.813 119 32 38 0
-13.4636 34.7188 -20.0625 -0.534 -0.234 0.813 115 35 37 0
-13.4398 34.5129 -20.1051 -0.271 -0.263 0.926 116 36 39 0
-9.7266 33.5022 -23.0561 -0.369 -0.825 -0.428 106 33 37 0
-7.7435 31.6549 -24.7878 0.118 -0.901 -0.418 91 32 31 0
-6.9485 31.0364 -25.4676 0.309 -0.033 0.950 89 35 35 0
-6.9320 30.8236 -25.5055 0.017 0.116 0.993 87 35 35 0
-7.2229 30.4220 -25.3316 0.012 0.133 0.991 87 36 35 0
-4.5521 30.9293 -27.3071 0.472 -0.857 0.205 98 51 47 0
-3.4892 31.3411 -28.0682 0.504 -0.834 0.225 94 49 45 0
-1.8832 32.0726 -29.2053 0.514 -0.832 0.208 95 50 47 0
-2.6534 30.6965 -28.7822 0.394 -0.919 -0.014 88 51 46 0
6.6769 35.1745 -35.3609 0.376 -0.022 0.926 89 59 51 0
5.7556 34.3957 -34.7514 0.524 -0.328 0.786 91 61 54 0
4.5744 33.4734 -33.9609 0.529 -0.701 0.478 94 63 57 0
5.0861 32.7925 -34.4321 0.458 -0.789 0.410 106 77 69 0
7.6039 33.9600 -36.2123 -0.299 -0.207 0.932 112 85 75 0
7.8669 33.8588 -36.4248 0.210 -0.945 0.249 117 92 81 0
10.4023 34.0062 -38.3399 0.117 -0.993 -0.012 208 192 167 0
-2.5516 8.9875 -31.4465 0.127 0.015 0.992 189 169 144 0
0.9091 6.4223 -34.3902 0.532 -0.140 0.835 185 164 140 0
-30.2797 103.7230 0.6764 -0.981 -0.032 0.191 255 255 255 0
-30.2419 103.3970 0.6091 -0.977 -0.006 0.213 135 136 135 0
-3.4071 63.8706 -24.5680 0.053 -0.638 0.768 133 94 87 0
-10.2126 54.8303 -20.4305 0.062 0.297 0.953 112 56 51 0
-10.7063 54.0982 -20.1394 0.054 0.301 0.952 112 55 52 0
-11.6731 52.3981 -19.6006 0.037 0.305 0.952 114 50 50 0
-11.8139 52.0032 -19.5396 -0.302 -0.623 0.722 112 45 46 0
-13.7034 49.4981 -18.3902 -0.346 0.057 0.936 116 44 45 0
-13.8565 49.1029 -18.3198 -0.105 -0.345 0.933 118 43 45 0
-13.8900 48.5619 -18.3579 -0.283 0.104 0.954 123 41 43 0
-14.2386 47.2396 -18.2473 -0.284 0.090 0.955 153 54 54 0
-14.1197 46.8425 -18.3850 -0.127 -0.418 0.899 157 54 53 0
-14.2370 46.4898 -18.3369 -0.122 0.122 0.985 159 55 51 0
-14.5951 39.2124 -18.9211 -0.386 -0.608 0.694 126 39 42 0
-13.9232 37.8834 -19.5915 -0.511 -0.822 0.252 129 40 40 0
-13.9343 37.6453 -19.6111 -0.581 -0.382 0.719 129 39 41 0
-13.8944 37.4463 -19.6651 -0.521 -0.404 0.751 129 39 42 0
-13.6844 37.3757 -19.8339 -0.165 -0.479 0.862 128 38 42 0
-13.6826 37.1481 -19.8621 -0.188 -0.144 0.972 128 37 41 0
-13.3476 35.8051 -20.2767 -0.352 -0.464 0.813 119 32 40 0
-13.7610 35.2786 -20.0226 -0.578 -0.017 0.816 118 33 40 0
-13.5943 35.1753 -20.1622 -0.429 -0.081 0.900 120 33 41 0
-12.6408 34.9623 -20.9164 0.449 -0.379 0.809 119 35 41 0
-11.4863 32.8613 -22.0468 -0.725 -0.631 0.275 109 35 39 0
-11.1810 32.8457 -22.2820 -0.651 -0.583 0.486 108 34 38 0
-9.6998 33.6193 -23.3233 -0.365 -0.824 -0.435 105 29 35 0
-9.1365 33.3186 -23.7894 -0.232 -0.657 0.718 104 28 33 0
-10.5230 31.9551 -22.8901 0.261 -0.267 0.928 105 29 33 0
-10.8420 31.5251 -22.6969 0.296 -0.325 0.898 104 30 33 0
-9.5626 31.6972 -23.6548 0.391 -0.470 0.791 99 29 33 0
-7.0924 30.8171 -25.6472 -0.067 0.196 0.978 87 33 33 0
-4.4447 30.8599 -27.6665 0.511 -0.820 0.256 95 48 45 0
-3.1139 31.4303 -28.6167 0.508 -0.832 0.224 93 48 44 0
4.4523 33.2561 -34.1863 0.524 -0.713 0.466 92 62 54 0
4.7718 33.1951 -34.4378 0.389 -0.857 0.337 98 68 60 0
3.8856 32.4508 -33.8480 0.429 -0.846 0.315 102 72 64 0
7.9757 33.7669 -36.8200 0.175 -0.965 0.196 119 94 82 0
10.1736 33.9773 -38.4756 0.178 -0.982 0.056 207 192 169 0
-2.8035 9.1352 -31.4826 0.115 0.031 0.993 188 168 143 0
-2.8398 8.9378 -31.4781 0.112 0.030 0.993 190 170 145 0
1.6094 4.2885 -35.4280 0.062 -0.976 -0.210 175 153 132 0
-30.3362 104.3483 0.4897 -0.981 -0.032 0.191 255 255 255 0
-30.3329 103.9506 0.4408 -0.981 -0.032 0.191 255 255 255 0
-30.2949 103.6240 0.3735 -0.977 -0.006 0.213 135 136 135 0
-7.4418 59.2825 -22.3231 0.016 0.063 0.998 124 72 70 0
-11.3400 53.9269 -19.9584 0.198 0.149 0.969 114 56 52 0
-11.5721 53.4404 -19.8371 0.130 0.158 0.979 118 58 55 0
-12.1573 52.0966 -19.5451 -0.319 -0.917 0.239 113 46 47 0
-11.6272 52.3179 -19.9258 -0.198 -0.716 0.670 113 43 45 0
-12.5618 50.9346 -19.3704 -0.743 -0.013 0.670 116 42 43 0
-14.4893 46.6495 -18.3921 -0.017 -0.259 0.966 159 51 52 0
-14.5674 46.3315 -18.3693 -0.118 0.143 0.983 157 49 49 0
-14.8007 39.1643 -19.0263 -0.400 -0.592 0.700 127 36 41 0
-14.3266 38.1456 -19.5087 -0.553 -0.772 0.314 150 64 65 0
-14.2018 38.0111 -19.6201 -0.553 -0.772 0.314 135 49 49 0
-14.0755 37.8776 -19.7326 -0.527 -0.787 0.321 129 42 43 0
-13.9519 37.7417 -19.8431 -0.553 -0.772 0.314 132 42 44 0
-14.0150 37.4643 -19.8272 -0.561 -0.774 0.295 129 39 41 0
-13.9072 37.3167 -19.9270 -0.172 -0.475 0.863 129 39 41 0
-13.9126 37.0839 -19.9500 -0.197 -0.163 0.967 130 40 42 0
-13.7362 36.9878 -20.0965 -0.212 -0.168 0.963 126 35 39 0
-14.1311 36.2384 -19.8811 0.247 -0.656 0.713 122 31 40 0
-13.8484 35.9953 -20.1262 -0.509 -0.062 0.858 122 31 41 0
-13.9362 35.7050 -20.0928 -0.478 0.028 0.878 119 30 39 0
-14.0129 35.4238 -20.0668 -0.506 0.012 0.863 117 31 40 0
-14.2832 34.7794 -19.9346 -0.564 0.047 0.824 119 34 42 0
-13.7662 34.9306 -20.3135 -0.675 -0.582 0.454 120 33 41 0
-13.2721 34.6145 -20.7292 0.449 -0.379 0.809 122 35 43 0
-11.5218 32.9356 -22.2673 -0.689 -0.666 0.287 107 31 35 0
-11.4345 32.7726 -22.3532 -0.615 -0.610 0.500 107 30 35 0
-10.1879 32.7181 -23.3155 0.290 -0.022 0.957 106 28 34 0
-10.3803 32.3675 -23.2088 0.319 -0.121 0.940 105 28 34 0
-10.6154 31.9903 -23.0726 0.346 -0.334 0.877 107 28 34 0
-10.4323 31.6686 -23.2505 0.378 -0.449 0.810 104 29 34 0
-10.0264 31.4916 -23.5825 0.384 -0.469 0.796 99 26 32 0
-9.7418 31.4548 -23.8049 0.390 -0.492 0.778 98 26 33 0
-8.5441 28.9177 -25.0193 -0.213 -0.908 0.361 87 39 37 0
-2.5599 31.6249 -29.2926 0.514 -0.823 0.241 90 45 42 0
-5.5907 29.5929 -27.2054 0.367 -0.928 -0.062 87 44 40 0
3.6493 32.1709 -33.9905 0.418 -0.845 0.333 97 68 62 0
7.5241 33.6114 -36.7938 0.174 -0.981 0.089 114 87 78 0
9.8953 33.9211 -38.5761 0.178 -0.982 0.056 205 191 167 0
12.7069 34.9433 -40.6129 0.355 -0.931 0.086 208 193 169 0
2.8776 15.1880 -35.3794 -0.332 -0.931 -0.151 190 172 152 0
