ply
format ascii 1.0
element vertex 820
property float x
property float y
property float z
property float nx
property float ny
property float nz
property uchar diffuse_red
property uchar diffuse_green
property uchar diffuse_blue
property uchar class
end_header
-7.3122 37.3118 -55.1894 -0.612 -0.766 0.197 122 97 99 0
-6.5290 37.5648 -56.0057 -0.810 -0.548 -0.210 134 111 114 0
-6.3728 37.4021 -56.1706 -0.809 -0.547 -0.215 137 118 118 0
-6.1478 37.2841 -56.4070 -0.803 -0.573 -0.164 141 125 123 0
-21.4619 7.2888 -40.6856 0.158 -0.067 0.985 167 158 149 0
-21.4227 7.1285 -40.7281 0.148 -0.051 0.988 166 157 148 0
6.5742 11.0490 -69.9583 -0.893 -0.432 -0.123 164 151 142 0
6.6693 10.8496 -70.0596 -0.884 -0.450 -0.125 161 149 140 0
6.8465 10.2191 -70.2509 -0.960 -0.240 -0.143 51 50 51 0
-25.5777 62.3598 -36.1936 -0.652 -0.545 -0.528 194 194 196 0
-19.0109 64.4169 -43.0621 -0.419 -0.892 0.167 149 94 105 0
-23.2550 57.8544 -38.6650 -0.891 0.447 0.078 145 67 82 0
-23.7861 55.8187 -38.1246 -0.900 0.366 -0.238 138 56 70 0
-24.5910 54.3803 -37.2922 -0.900 0.366 -0.238 135 54 67 0
-24.9452 53.7189 -36.9262 -0.900 0.360 -0.244 135 54 67 0
-24.7253 53.6722 -37.1571 -0.891 0.382 -0.246 135 52 67 0
-27.2078 49.4150 -34.5885 -0.749 0.569 0.340 133 44 60 0
-28.0156 48.3113 -33.7504 -0.845 0.480 0.238 136 46 63 0
-28.2582 47.5372 -33.5023 -0.051 -0.350 0.935 146 53 70 0
-29.2805 44.2041 -32.4572 -0.083 -0.982 -0.168 135 34 52 0
-28.8478 44.1309 -32.9114 -0.296 -0.878 0.376 134 33 49 0
-29.4040 42.3472 -32.3426 -0.545 -0.779 0.311 136 33 50 0
-29.1675 42.3298 -32.5907 0.036 -0.889 0.457 137 34 51 0
-27.3570 37.7202 -34.5259 -0.430 -0.862 -0.269 116 22 38 0
-27.1268 37.6830 -34.7676 -0.414 -0.862 -0.294 117 22 38 0
-26.5489 36.0590 -35.3865 -0.179 -0.475 0.862 118 22 39 0
-27.1408 34.8751 -34.7754 -0.702 -0.712 -0.004 115 23 38 0
-27.2005 33.2346 -34.7260 -0.012 -0.948 0.318 105 18 35 0
-25.7503 33.2482 -36.2464 -0.264 -0.888 -0.377 96 19 29 0
-20.0291 35.5256 -42.2265 -0.981 0.047 -0.186 89 17 34 0
-20.1378 34.9634 -42.1170 -0.981 0.102 -0.165 88 17 31 0
-4.6857 42.7743 -58.2551 -0.224 -0.968 -0.117 83 36 42 0
-4.2446 42.8029 -58.7174 -0.167 -0.981 -0.094 83 37 43 0
-12.2420 35.6693 -50.3898 -0.589 -0.595 -0.547 83 44 49 0
-11.4961 35.9232 -51.1698 -0.170 -0.838 -0.518 86 49 53 0
-10.4531 36.3740 -52.2597 -0.162 -0.844 -0.511 89 54 59 0
-7.3228 37.6923 -55.5310 -0.240 -0.846 -0.477 115 88 89 0
-26.0127 22.5666 -36.0570 0.165 -0.533 0.830 165 152 151 0
-0.0174 20.3496 -63.3297 -0.855 0.301 0.422 172 161 155 0
-2.5351 9.3302 -60.7785 0.050 -0.975 0.217 163 150 141 0
-1.1505 9.3493 -62.2300 -0.403 -0.902 -0.156 166 153 144 0
-0.8264 9.0256 -62.5723 -0.827 -0.559 -0.061 164 152 143 0
6.9623 11.2328 -70.7207 -0.982 0.179 -0.064 162 151 141 0
-21.1506 64.0762 -41.1780 0.166 -0.877 0.451 178 165 167 0
-19.5623 64.9515 -42.8425 -0.673 -0.445 0.591 175 149 153 0
-19.4523 64.7586 -42.9594 -0.675 -0.605 0.422 166 135 140 0
-19.2777 64.6389 -43.1438 -0.374 -0.872 0.316 154 114 121 0
-19.1528 64.4625 -43.2763 -0.376 -0.901 0.217 148 100 108 0
-19.0657 64.2434 -43.3693 -0.299 -0.952 0.062 147 92 102 0
-23.1347 58.1759 -39.1298 -0.891 0.447 0.078 145 69 85 0
-24.0289 56.0266 -38.2034 -0.901 0.397 -0.174 142 60 74 0
-26.2441 52.5043 -35.8967 -0.784 0.602 0.154 135 55 68 0
-27.3041 49.7475 -34.7999 -0.888 0.441 -0.131 133 44 62 0
-29.0493 45.8544 -32.9900 -0.723 0.613 0.317 134 41 55 0
-29.0845 44.2985 -32.9630 -0.076 -0.983 -0.165 135 35 53 0
-28.9853 44.1455 -33.0683 -0.360 -0.876 0.322 133 34 51 0
-28.8508 44.0270 -33.2104 -0.435 -0.615 0.658 132 34 49 0
-28.9016 38.6157 -33.1920 -0.213 -0.976 -0.050 123 25 43 0
-28.4527 38.7822 -33.6629 -0.351 -0.162 0.922 122 25 44 0
-27.4189 38.7492 -34.7502 -0.507 -0.768 -0.392 118 24 40 0
-27.1165 38.0602 -35.0726 -0.923 0.350 0.159 116 22 38 0
-27.2792 37.2096 -34.9070 -0.963 0.268 0.025 120 27 41 0
-27.1044 36.6541 -35.0944 -0.313 -0.430 0.847 119 23 40 0
-25.8030 37.2816 -36.4588 -0.337 -0.329 0.882 119 22 38 0
-26.3373 36.5965 -35.9014 -0.017 -0.180 0.984 119 23 37 0
-27.0307 35.5510 -35.1790 -0.907 -0.207 0.368 118 24 38 0
-26.8941 35.4326 -35.3234 -0.998 -0.027 0.062 119 26 40 0
-27.1244 35.0116 -35.0839 -0.977 -0.201 -0.076 115 23 38 0
-27.1442 34.7654 -35.0647 -0.991 -0.115 -0.065 112 19 34 0
-23.4524 35.8761 -38.9396 -0.635 0.169 0.754 101 18 33 0
-19.6499 36.1768 -42.9360 -0.764 0.234 0.601 88 18 34 0
-20.1393 35.0828 -42.4284 -0.951 -0.154 -0.269 91 20 34 0
-22.0269 33.4387 -40.4543 -0.925 -0.158 0.347 92 22 35 0
-7.8933 38.2296 -55.2851 -0.108 -0.231 0.967 89 57 60 0
-6.3233 38.2158 -56.9361 -0.648 -0.677 0.349 133 113 112 0
-3.7383 38.0191 -59.6555 0.213 -0.973 -0.093 155 144 140 0
-2.7686 38.3694 -60.6729 0.235 -0.968 -0.088 158 147 143 0
-2.9783 9.2469 -60.6403 0.026 -0.976 0.216 164 151 142 0
1.6583 10.0832 -65.5103 -0.349 -0.914 -0.207 164 153 143 0
6.7205 11.2212 -70.8260 -0.892 -0.402 -0.205 162 151 142 0
6.8251 11.0236 -70.9372 -0.893 -0.402 -0.201 160 150 140 0
-43.9829 106.5577 -17.2499 -0.511 -0.748 -0.424 231 221 214 0
-32.6855 53.6185 -29.4219 -0.956 0.020 -0.294 194 193 191 0
-21.9604 63.9708 -40.6821 0.291 -0.650 0.702 182 172 173 0
-21.3540 64.0476 -41.3213 0.211 -0.763 0.611 178 167 168 0
-20.3937 64.8415 -42.3301 -0.423 -0.118 0.898 178 164 166 0
-20.0536 64.5973 -42.6900 -0.299 -0.945 0.135 176 154 157 0
-19.8565 64.5052 -42.8983 -0.299 -0.945 0.135 173 146 150 0
-19.5587 64.5267 -43.2123 -0.259 -0.962 0.089 162 127 133 0
-19.4062 64.3820 -43.3738 -0.282 -0.958 0.053 150 107 115 0
-19.2175 64.2778 -43.5733 -0.299 -0.952 0.062 147 98 106 0
-19.2935 63.8754 -43.4951 -0.843 -0.537 -0.031 150 93 103 0
-19.8542 62.9319 -42.9084 -0.858 0.504 0.098 149 85 97 0
-23.6499 56.9152 -38.9347 -0.927 0.370 -0.053 142 66 79 0
-24.4686 55.4433 -38.0786 -0.803 0.587 0.102 142 62 75 0
-24.9541 54.6312 -37.5705 -0.783 0.602 0.156 140 59 73 0
-25.9927 52.6704 -36.4847 -0.789 0.580 0.205 138 54 70 0
-26.2994 52.0660 -36.1642 -0.843 0.517 0.148 137 52 68 0
-26.8665 51.1886 -35.5705 -0.949 0.293 -0.114 137 50 68 0
-29.2571 44.2782 -33.0830 0.040 -0.993 0.111 134 35 52 0
-29.1383 44.1446 -33.2088 -0.328 -0.886 0.328 134 36 52 0
-29.0187 44.0117 -33.3357 -0.435 -0.615 0.658 135 37 52 0
-28.0719 44.4375 -34.3321 0.268 -0.551 0.791 134 35 50 0
-29.5733 39.8035 -32.7713 -0.748 0.344 0.568 130 28 46 0
-31.2757 37.7560 -30.9859 -0.567 -0.380 0.731 129 27 44 0
-28.6461 38.5053 -33.7554 -0.357 -0.161 0.920 122 25 44 0
-27.0873 38.2177 -35.4007 -0.836 0.431 0.338 116 21 37 0
-27.4416 36.9643 -35.0332 -0.866 -0.001 0.500 125 33 46 0
-27.6002 36.5941 -34.8677 -0.876 -0.119 0.468 123 30 45 0
-27.2930 36.6218 -35.1916 -0.364 -0.470 0.804 122 26 42 0
-21.5095 37.3011 -41.2875 -0.304 -0.170 0.937 102 22 35 0
-19.3695 36.5133 -43.5482 -0.801 0.301 0.518 89 19 32 0
-19.6627 36.0469 -43.2412 -0.728 0.272 0.629 87 19 31 0
-22.3128 33.5764 -40.4585 -0.086 -0.840 -0.536 90 21 33 0
-22.5437 33.1707 -40.2169 -0.870 -0.250 0.425 90 22 33 0
-8.1666 38.4356 -55.3533 -0.167 -0.128 0.978 88 54 59 0
-7.7427 38.4575 -55.8003 -0.125 -0.191 0.973 94 64 67 0
-7.2972 38.4920 -56.2699 -0.030 -0.350 0.936 106 80 81 0
-7.1250 38.3405 -56.4523 -0.285 -0.825 -0.488 115 93 92 0
-6.6459 38.3941 -56.9573 -0.428 -0.810 0.401 127 107 106 0
-6.1076 38.4848 -57.5246 -0.563 -0.752 0.342 135 117 115 0
-5.5030 37.5393 -58.1668 0.114 -0.985 -0.130 147 139 133 0
-8.5707 31.2260 -54.9623 0.174 -0.974 0.148 178 171 168 0
-0.3972 21.3060 -63.6303 -0.382 -0.081 0.921 174 165 156 0
-0.5023 21.0202 -63.5209 -0.387 -0.075 0.919 173 163 154 0
-0.9370 20.5912 -63.0645 -0.387 -0.023 0.922 174 164 154 0
10.8617 17.7273 -75.5214 -0.863 -0.171 0.476 169 157 148 0
6.7447 11.2925 -71.2110 -0.883 -0.383 -0.270 164 152 142 0
6.8642 11.0991 -71.3379 -0.893 -0.372 -0.254 162 150 141 0
-20.6548 64.7486 -42.4165 -0.417 -0.040 0.908 180 166 169 0
-20.1031 64.4307 -43.0010 -0.284 -0.957 0.050 178 153 158 0
-19.8116 64.4459 -43.3093 -0.272 -0.961 0.058 178 146 151 0
-19.5587 64.4156 -43.5768 -0.282 -0.958 0.053 160 121 128 0
-19.4542 64.2163 -43.6880 -0.285 -0.954 0.097 152 106 114 0
-19.3283 64.0411 -43.8217 -0.201 -0.969 0.143 151 98 108 0
-23.2027 58.1837 -39.7431 -0.841 0.524 0.133 143 72 86 0
-23.4289 57.3441 -39.5066 -0.768 0.595 0.239 141 67 79 0
-23.7896 56.6563 -39.1274 -0.703 0.641 0.309 142 64 77 0
-24.6842 55.1042 -38.1862 -0.668 0.653 0.356 142 61 75 0
-27.9980 48.0261 -34.7046 -0.990 0.123 -0.072 136 44 57 0
-29.4866 44.2009 -33.1426 0.182 -0.958 0.221 132 34 50 0
-29.4370 43.7487 -33.1966 -0.202 -0.899 0.388 132 35 49 0
-28.5301 42.8858 -34.1587 -0.524 -0.763 -0.378 133 34 49 0
-31.4506 37.7277 -31.0865 -0.864 -0.356 0.356 129 27 44 0
-29.0875 38.7167 -33.5828 -0.172 -0.912 0.371 123 26 45 0
-27.1411 38.3033 -35.6428 -0.836 0.431 0.338 121 25 41 0
-27.5001 37.2789 -35.2665 -0.859 0.046 0.511 122 30 43 0
-27.5720 36.9814 -35.1913 -0.870 0.030 0.492 125 33 46 0
-27.7043 36.6333 -35.0525 -0.876 -0.119 0.468 125 33 46 0
-27.2988 36.7451 -35.4811 -0.523 -0.840 0.144 122 29 43 0
-26.6403 37.0692 -36.1765 0.033 -0.347 0.937 120 27 40 0
-26.3765 36.5829 -36.4571 -0.997 -0.079 -0.020 120 28 41 0
-26.4466 36.2889 -36.3840 -0.922 -0.217 -0.320 118 29 41 0
-26.6776 35.8622 -36.1410 -0.997 0.002 -0.071 115 27 39 0
-27.2346 33.7916 -35.5587 0.127 -0.875 0.468 105 20 35 0
-21.7312 37.2529 -41.3682 -0.304 -0.170 0.937 108 28 42 0
-20.1896 36.2580 -43.0020 -0.733 0.564 0.381 91 20 32 0
-22.5003 33.7878 -40.5661 -0.748 -0.632 -0.203 89 21 31 0
-22.3277 33.4491 -40.7498 -0.893 -0.333 -0.303 90 23 32 0
-8.1371 38.5822 -55.7421 -0.169 -0.111 0.979 90 58 63 0
-9.1718 31.4692 -54.6710 -0.133 -0.971 0.197 178 171 163 0
-8.9122 31.3777 -54.9459 -0.133 -0.971 0.197 179 172 165 0
-8.7944 31.1999 -55.0711 0.146 -0.981 0.124 179 172 164 0
2.7919 25.3176 -67.3450 0.180 -0.968 -0.173 179 168 164 0
-21.5216 6.4370 -41.6910 -0.900 0.210 0.381 164 155 146 0
-1.9002 9.2899 -62.4349 0.117 -0.993 -0.016 163 150 141 0
6.8465 11.3883 -71.6792 -0.883 -0.383 -0.270 163 150 141 0
6.9391 11.1859 -71.7778 -0.883 -0.385 -0.270 162 148 139 0
-44.2039 106.8741 -17.7271 -0.514 -0.745 -0.425 229 222 214 0
-15.4941 72.3124 -48.2403 -0.962 0.267 0.054 186 180 180 0
-14.9963 72.5516 -48.7679 -0.960 0.242 -0.138 182 176 175 0
-20.9065 64.6660 -42.5118 -0.403 -0.051 0.914 180 168 170 0
-19.4996 64.0535 -44.0053 -0.201 -0.962 0.187 154 103 112 0
-19.4880 63.4334 -44.0186 -0.833 0.538 0.128 149 87 95 0
-20.1479 62.3815 -43.3204 -0.779 0.600 0.181 149 80 91 0
-23.1831 58.3958 -40.1075 -0.834 0.542 0.105 144 75 86 0
-23.5050 57.4483 -39.7676 -0.770 0.593 0.235 144 68 80 0
-23.7819 56.8507 -39.4748 -0.701 0.642 0.310 142 66 78 0
-29.5822 43.7551 -33.3442 -0.203 -0.911 0.359 131 35 49 0
-28.7243 43.0951 -34.2554 -0.518 -0.783 -0.344 132 36 48 0
-28.5092 43.0530 -34.4836 -0.518 -0.783 -0.344 134 37 52 0
-28.1370 43.1609 -34.8782 -0.804 -0.507 0.313 134 34 52 0
-29.1857 38.7628 -33.7733 -0.018 -0.579 0.815 123 27 47 0
-29.2795 38.4404 -33.6743 -0.184 -0.540 0.821 123 26 45 0
-29.1314 38.3371 -33.8315 -0.194 -0.530 0.825 123 26 45 0
-29.5895 37.6896 -33.3467 -0.577 -0.636 -0.512 124 28 47 0
-27.4541 38.4013 -35.6107 -0.711 -0.456 -0.535 117 23 39 0
-27.1950 38.3891 -35.8855 -0.836 0.431 0.338 121 27 43 0
-27.6723 37.2604 -35.3812 -0.870 0.013 0.494 127 33 49 0
-27.7498 36.9578 -35.2994 -0.860 -0.026 0.510 128 34 50 0
-27.8086 36.6725 -35.2376 -0.876 -0.119 0.468 131 35 51 0
-26.6767 35.9890 -36.4395 -0.996 -0.052 -0.068 116 28 40 0
-26.7604 35.4525 -36.3515 -0.983 -0.056 0.172 108 21 34 0
-22.5907 34.0733 -40.7769 0.183 -0.604 0.775 88 23 33 0
-23.0170 33.5163 -40.3257 -0.644 -0.405 0.648 89 23 33 0
-17.6779 34.3386 -45.9879 -0.955 0.098 -0.279 81 35 43 0
-6.1720 37.8852 -58.1871 0.168 -0.884 0.437 145 135 132 0
-7.4209 35.7439 -56.8659 0.140 -0.972 0.189 160 151 146 0
-9.6715 31.2742 -54.4862 0.014 -0.861 0.509 176 171 165 0
-9.4993 31.1309 -54.6690 0.022 -0.954 0.300 176 172 166 0
-9.2763 31.0178 -54.9058 0.052 -0.960 0.275 177 173 164 0
2.2761 25.4221 -67.1698 0.358 -0.929 0.089 180 169 165 0
3.4471 25.7195 -68.4114 0.227 -0.967 -0.120 178 167 163 0
-21.6222 6.4541 -41.8510 -0.909 0.239 0.341 165 154 146 0
-3.5727 9.0238 -60.9932 0.114 -0.993 -0.040 165 152 143 0
-1.4630 9.2760 -63.2306 0.172 -0.983 0.071 163 150 141 0
6.9316 11.4792 -72.1318 -0.893 -0.372 -0.254 164 150 141 0
7.0434 11.2822 -72.2506 -0.905 -0.343 -0.252 163 149 140 0
7.1316 11.0780 -72.3446 -0.976 0.204 -0.081 162 148 139 0
-44.3105 107.0437 -17.9711 -0.444 -0.780 -0.441 229 222 214 0
-15.7500 73.2791 -48.3592 -0.166 -0.594 0.787 196 190 191 0
-15.6989 72.9925 -48.4136 -0.302 -0.488 0.819 194 188 188 0
-14.8547 72.6005 -49.3118 -0.955 0.289 -0.074 183 177 176 0
-23.2052 57.9673 -40.4292 -0.662 0.658 0.358 149 74 86 0
-23.7356 57.0884 -39.8651 -0.655 0.660 0.369 147 71 83 0
-28.2301 48.9060 -35.0843 -0.846 0.436 0.308 140 48 65 0
-29.2699 47.0326 -33.9782 -0.889 -0.025 -0.457 138 45 60 0
-30.0862 43.9047 -33.1101 0.330 -0.924 0.195 134 36 54 0
-28.0407 44.4138 -35.2862 -0.655 -0.734 -0.181 134 36 49 0
-28.5643 43.6497 -34.7292 -0.897 -0.359 0.258 132 35 47 0
-28.6046 43.3592 -34.6863 -0.542 -0.840 -0.024 136 40 53 0
-28.3668 43.3385 -34.9394 -0.764 -0.544 0.347 153 56 71 0
-28.2560 43.1943 -35.0572 -0.808 -0.462 0.365 162 65 81 0
-28.0695 43.1225 -35.2557 -0.542 -0.839 -0.044 143 45 61 0
-27.9010 43.0327 -35.4349 -0.626 -0.780 -0.025 132 32 49 0
-29.6071 37.8065 -33.6203 -0.561 -0.681 -0.471 123 26 44 0
-27.2716 38.6957 -36.1049 -0.711 -0.456 -0.535 120 25 41 0
-27.2050 38.5139 -36.1758 -0.903 0.385 0.188 122 28 44 0
-26.9096 35.6873 -36.4904 -0.978 -0.194 -0.077 112 24 38 0
-26.7761 35.5646 -36.6324 -0.982 -0.173 -0.082 110 23 38 0
-25.4909 36.1542 -37.9997 -0.777 -0.629 0.020 110 26 40 0
-24.3280 33.7975 -39.2370 -0.797 -0.496 -0.344 94 22 34 0
-23.2236 33.7119 -40.4120 -0.055 -0.915 -0.399 90 24 33 0
-22.5630 33.9784 -41.1148 -0.055 -0.915 -0.399 91 26 34 0
-21.8153 34.3068 -41.9102 -0.117 -0.823 -0.556 91 26 34 0
-19.6559 33.7583 -44.2076 0.461 -0.887 -0.028 85 34 41 0
-11.6805 37.6983 -52.6921 -0.940 -0.065 -0.336 84 43 51 0
-8.5933 38.7907 -55.9764 -0.946 0.111 -0.305 92 57 65 0
-8.5036 38.0518 -56.0719 -0.962 0.255 -0.095 128 106 104 0
-9.5995 36.5214 -54.9061 -0.487 -0.238 0.840 138 123 119 0
-6.5381 38.0364 -58.1629 -0.243 -0.921 0.306 145 132 132 0
-6.6703 37.6804 -58.0223 0.236 -0.870 0.432 147 137 134 0
-8.1820 35.3716 -56.4142 0.195 -0.914 0.356 162 152 149 0
-13.1395 29.9833 -51.1406 0.305 -0.730 0.612 175 167 159 0
-9.9271 31.2273 -54.5581 0.014 -0.861 0.509 177 170 164 0
-9.8075 31.0524 -54.6854 0.052 -0.960 0.275 177 171 165 0
-14.3494 24.6113 -49.8540 -0.919 0.087 0.384 183 174 169 0
-14.0511 24.3264 -50.1714 -0.880 -0.436 -0.190 181 174 166 0
-6.7325 24.7607 -57.9574 0.210 -0.747 0.631 182 173 164 0
2.1358 25.4496 -67.3921 0.410 -0.887 0.212 179 168 164 0
3.0466 25.6254 -68.3611 0.176 -0.972 -0.154 177 166 162 0
9.8515 27.4723 -75.6005 0.416 -0.543 0.730 177 166 161 0
-21.3364 6.7893 -42.4224 -0.843 0.293 0.452 167 159 148 0
-13.2550 8.4253 -51.0198 -0.905 0.241 0.352 168 155 149 0
-3.6059 9.0726 -61.2853 0.105 -0.994 -0.029 165 153 141 0
7.1002 11.3641 -72.6750 -0.908 -0.368 -0.201 162 148 139 0
7.1849 11.1582 -72.7651 -0.976 0.204 -0.077 162 148 138 0
10.1996 10.6654 -75.9724 -0.993 0.106 0.054 255 255 255 0
-44.5778 107.2579 -18.0446 -0.443 -0.782 -0.439 231 222 213 0
-22.5437 59.1895 -41.4824 -0.804 0.588 0.093 150 81 91 0
-25.0863 54.3539 -38.7622 -0.907 0.387 -0.168 140 62 74 0
-27.3388 50.2796 -36.3527 -0.820 0.524 0.230 140 49 67 0
-29.4503 43.4341 -34.0895 -0.897 0.160 0.412 136 35 51 0
-28.5602 43.8035 -35.0397 -0.786 0.020 0.618 134 36 51 0
-28.5987 43.5140 -34.9982 -0.701 -0.641 0.313 138 41 55 0
-28.4965 43.3616 -35.1071 -0.773 -0.508 0.379 149 54 68 0
-28.3609 43.2413 -35.2515 -0.780 -0.412 0.472 152 57 71 0
-28.1417 43.2010 -35.4854 -0.518 -0.854 -0.045 138 42 56 0
-27.8995 43.1817 -35.7438 -0.529 -0.847 -0.043 129 34 48 0
-27.6632 43.1556 -35.9958 -0.604 -0.792 -0.089 127 30 47 0
-28.8606 41.7669 -34.7161 0.052 -0.959 0.280 126 28 46 0
-28.6291 41.4927 -34.9627 -0.881 0.427 0.203 127 28 46 0
-29.6856 37.6338 -33.8297 -0.858 -0.384 -0.342 123 26 43 0
-24.1966 34.0192 -39.6810 -0.301 -0.935 0.189 95 23 35 0
-24.2294 33.7606 -39.6455 -0.745 -0.560 -0.362 97 24 36 0
-22.2607 34.3274 -41.7470 -0.075 -0.880 -0.470 99 32 41 0
-21.3043 34.8131 -42.7682 -0.125 -0.818 -0.561 91 26 34 0
-20.1900 34.9275 -43.9573 -0.691 -0.347 -0.634 88 26 35 0
-15.8871 35.8598 -48.5498 -0.876 -0.033 -0.481 81 37 43 0
-11.3824 38.0341 -53.3596 -0.881 -0.174 -0.439 86 45 53 0
-9.1720 39.3209 -55.7200 -0.841 0.314 0.440 85 46 55 0
-5.9899 38.5272 -59.1141 -0.517 -0.771 0.371 146 134 133 0
-9.0425 35.1918 -55.8520 0.326 -0.754 0.571 159 150 145 0
9.2884 27.3119 -75.3990 0.416 -0.543 0.730 179 165 162 0
-12.7465 8.2762 -51.8594 -0.762 0.263 0.592 169 156 150 0
7.3699 11.5127 -73.3283 -1.000 0.020 0.008 163 148 138 0
10.1864 10.7246 -76.3322 -0.993 0.106 0.054 255 255 255 0
-19.6038 63.6006 -44.9927 -0.818 0.565 0.111 153 95 107 0
-20.1818 62.6360 -44.3711 -0.819 0.563 0.109 153 92 103 0
-21.3637 61.0031 -43.1013 -0.829 0.558 0.034 151 90 99 0
-24.4767 55.4833 -39.7528 -0.903 0.409 -0.129 143 65 77 0
-28.4027 47.4662 -35.5267 -0.917 0.140 -0.373 138 45 63 0
-28.2831 47.3264 -35.6542 -0.908 0.278 -0.313 137 43 61 0
-28.8834 45.6754 -35.0067 -0.669 -0.507 0.544 135 38 55 0
-28.1506 45.6376 -35.7908 -0.516 -0.833 0.199 132 35 52 0
-29.2398 44.2969 -34.6211 -0.053 -0.990 -0.128 133 34 52 0
-28.6479 43.8682 -35.2531 -0.722 0.066 0.689 133 34 52 0
-28.5566 43.7046 -35.3503 -0.630 0.071 0.773 136 38 53 0
-28.5338 43.4745 -35.3740 -0.627 0.075 0.775 133 37 52 0
-28.4264 43.3267 -35.4885 -0.740 0.033 0.672 132 38 52 0
-28.1744 43.3179 -35.7581 -0.528 -0.848 -0.039 130 36 50 0
-27.9906 43.2425 -35.9546 -0.525 -0.850 -0.049 126 31 46 0
-27.5807 43.3824 -36.3936 -0.457 -0.872 -0.178 126 29 46 0
-29.0532 41.7282 -34.8127 0.052 -0.959 0.280 126 29 47 0
-28.6820 41.3399 -35.2088 -0.874 -0.168 0.457 128 29 47 0
-29.7772 37.6844 -34.0255 -0.856 -0.417 -0.304 123 26 43 0
-28.8223 37.8298 -35.0477 -0.867 -0.456 -0.201 121 24 41 0
-27.0777 35.7993 -36.9083 -0.832 -0.417 -0.365 113 25 40 0
-23.8690 34.6298 -40.3383 0.124 -0.990 -0.068 95 22 37 0
-24.3378 34.0300 -39.8349 -0.276 -0.943 0.188 94 22 36 0
-24.1554 33.9377 -40.0298 -0.276 -0.943 0.188 96 23 35 0
-23.1817 33.9827 -41.0718 -0.068 -0.916 -0.395 108 42 49 0
-22.0710 34.5923 -42.2623 -0.068 -0.882 -0.466 95 29 37 0
-20.6171 34.9709 -43.8193 -0.773 -0.344 -0.533 88 27 36 0
-20.1092 35.1094 -44.3633 -0.766 -0.385 -0.514 87 26 35 0
-19.2738 34.0317 -45.2539 0.482 -0.875 -0.039 87 36 48 0
-12.0092 38.2417 -53.0409 -0.157 -0.981 -0.111 85 44 51 0
-8.6632 39.8078 -56.6263 -0.664 0.213 0.716 88 50 58 0
-8.6808 39.5252 -56.6067 -0.661 0.189 0.726 92 58 65 0
-8.1831 37.4551 -57.1329 -0.391 -0.223 0.893 145 132 132 0
-5.8545 38.7443 -59.6286 -0.589 -0.762 0.268 146 134 134 0
-5.4295 38.7547 -60.0835 -0.587 -0.769 0.253 149 139 136 0
-14.0496 30.1095 -50.8322 0.088 -0.798 0.596 173 164 159 0
-13.2913 29.8626 -51.6429 0.349 -0.870 0.348 177 167 163 0
-14.3917 24.5495 -50.4488 0.277 -0.852 0.445 185 175 169 0
-13.9390 24.5762 -50.9334 -0.875 -0.458 -0.155 185 175 170 0
-1.1022 9.7880 -64.6242 0.196 -0.980 -0.047 164 148 140 0
7.4450 11.6010 -73.7763 -1.000 0.023 0.016 163 150 138 0
10.1271 10.7703 -76.6438 -0.993 0.106 0.047 255 255 255 0
-45.1348 107.6279 -18.1672 -0.446 -0.781 -0.437 68 65 64 0
-44.6297 106.6463 -18.7047 -0.356 -0.884 -0.301 232 221 215 0
-36.3185 58.5173 -27.3976 -0.047 -0.999 -0.022 220 222 211 0
-27.3981 59.6837 -36.9769 -0.649 -0.697 -0.305 199 193 193 0
-25.9975 61.0568 -38.4865 -0.559 -0.713 -0.423 197 191 191 0
-25.4582 61.3945 -39.0669 -0.805 -0.503 0.315 195 189 189 0
-25.2973 61.2804 -39.2390 -0.802 -0.495 0.334 192 186 186 0
-19.7480 63.6438 -45.2059 -0.356 -0.514 0.780 155 101 110 0
-19.8966 63.1595 -45.0441 -0.589 0.032 0.807 155 96 108 0
-21.0322 61.5730 -43.8179 -0.832 0.554 0.024 148 90 101 0
-23.7269 56.7779 -40.9032 -0.917 0.337 -0.212 144 68 80 0
-27.4729 48.8554 -36.8454 -0.919 0.393 0.030 144 51 69 0
-27.9207 48.1255 -36.3614 -0.943 0.333 -0.020 141 48 66 0
-28.4080 45.5360 -35.8262 -0.477 -0.862 0.175 135 38 55 0
-29.4356 44.2544 -34.7173 -0.446 -0.843 0.299 134 35 53 0
-29.7652 43.4232 -34.3596 -0.875 -0.053 0.482 135 35 53 0
-28.6722 43.9953 -35.5354 -0.610 0.071 0.789 134 35 54 0
-28.6256 43.7876 -35.5845 -0.721 0.051 0.691 136 36 54 0
-28.5279 43.6299 -35.6885 -0.807 0.034 0.590 131 33 49 0
-28.5335 43.3721 -35.6814 -0.807 0.034 0.590 130 36 52 0
-28.2415 43.4022 -35.9949 -0.617 -0.782 -0.092 129 35 51 0
-28.0571 43.3272 -36.1924 -0.528 -0.848 -0.056 129 32 49 0
-26.7997 44.2793 -37.5464 -0.630 -0.510 -0.586 129 32 49 0
-28.6700 38.3372 -35.5111 -0.954 -0.290 -0.077 123 26 43 0
-28.6196 38.1436 -35.5642 -0.951 -0.295 -0.094 120 23 40 0
-27.7036 36.8088 -36.5411 -0.982 -0.095 0.166 124 30 44 0
-22.4486 38.3058 -42.1880 -0.619 -0.775 0.126 106 26 39 0
-21.2204 39.0571 -43.5097 -0.827 -0.557 0.070 105 25 38 0
-23.1949 35.7579 -41.3750 -0.317 -0.760 -0.568 100 23 39 0
-24.4790 34.0408 -39.9888 -0.276 -0.943 0.188 93 21 37 0
-24.2968 33.9485 -40.1839 -0.276 -0.943 0.188 94 22 36 0
-22.7812 34.4095 -41.8127 -0.068 -0.882 -0.466 93 30 35 0
-21.9066 34.8391 -42.7534 -0.068 -0.882 -0.466 89 26 34 0
-20.1997 35.4069 -44.5880 0.041 -0.977 -0.208 89 27 38 0
-19.6737 35.5577 -45.1532 0.039 -0.978 -0.205 88 26 37 0
-17.5677 36.3832 -47.4173 0.255 -0.960 -0.116 92 33 44 0
-11.2022 38.9451 -54.2611 -0.107 -0.991 0.081 87 46 54 0
-8.9527 40.2773 -56.6816 -0.495 -0.818 0.292 92 50 58 0
-9.2000 39.8311 -56.4141 -0.856 -0.507 0.101 92 50 60 0
-9.1575 39.5910 -56.4587 -0.310 -0.765 0.564 90 53 61 0
-9.0898 39.3689 -56.5302 -0.678 -0.406 0.613 96 63 70 0
-9.0319 39.1402 -56.5913 -0.675 -0.543 0.500 111 80 86 0
-8.7172 39.0900 -56.9288 -0.781 -0.496 0.379 119 90 97 0
-8.6333 37.8086 -57.0128 -0.924 -0.375 -0.070 139 126 120 0
-12.6932 29.8567 -52.6181 0.371 -0.911 0.179 179 169 167 0
-14.5062 24.5795 -50.6473 0.271 -0.829 0.489 186 175 170 0
-13.5730 8.6809 -51.5739 -0.903 0.241 0.356 166 153 147 0
-13.7534 8.4235 -51.3791 -0.910 0.273 0.311 166 155 149 0
-13.6367 8.2724 -51.5037 -0.901 0.243 0.358 166 155 149 0
-2.7347 9.7488 -63.2111 -0.939 0.155 0.308 166 149 142 0
7.4365 11.8981 -74.1373 -0.998 0.020 0.061 161 149 138 0
-44.3275 108.3311 -19.4005 -0.335 -0.920 -0.206 230 221 214 0
-33.3704 80.4856 -31.0181 0.265 -0.256 0.930 233 229 223 0
-33.4449 80.0058 -30.9350 0.175 -0.195 0.965 232 229 221 0
-27.4686 59.7996 -37.2398 -0.694 -0.673 -0.253 200 194 194 0
-27.4245 59.5538 -37.2857 -0.726 -0.648 -0.230 199 193 193 0
-25.5800 61.4537 -39.2831 -0.805 -0.503 0.315 197 191 191 0
-19.8659 63.3990 -45.4459 -0.753 -0.210 0.623 155 100 112 0
-21.5974 60.5231 -43.5640 -0.897 0.441 -0.040 146 80 92 0
-23.2705 58.0617 -41.7475 -0.917 0.340 -0.207 145 73 86 0
-23.8169 56.2790 -41.1480 -0.907 0.386 -0.168 148 69 83 0
-26.7403 50.6010 -37.9655 -0.959 0.279 -0.056 140 50 67 0
-26.8826 50.1783 -37.8096 -0.952 0.304 -0.023 137 48 64 0
-29.1352 45.7338 -35.3568 -0.805 -0.499 0.321 135 38 55 0
-28.9149 45.6988 -35.5937 -0.630 -0.679 0.378 136 40 57 0
-28.9591 45.3965 -35.5443 -0.647 -0.757 0.092 135 39 56 0
-27.8781 44.9277 -36.7049 -0.782 0.349 0.517 134 35 54 0
-28.1761 43.6149 -36.3757 -0.821 -0.558 0.120 130 34 51 0
-28.0843 43.4502 -36.4736 -0.722 -0.677 0.147 129 32 49 0
-26.5806 44.6409 -38.0997 -0.639 -0.506 -0.579 130 33 52 0
-28.7507 42.0587 -35.7475 -0.890 0.418 0.183 129 32 50 0
-30.0035 37.9833 -34.3731 -0.801 0.139 0.582 123 27 41 0
-29.9746 37.7734 -34.4030 -0.813 0.068 0.579 122 27 41 0
-28.6622 38.4791 -35.8200 -0.953 -0.293 -0.075 122 28 43 0
-28.6299 38.2687 -35.8535 -0.951 -0.295 -0.094 122 28 43 0
-28.0943 38.2661 -36.4300 -0.856 -0.165 0.490 127 35 50 0
-28.0623 38.0549 -36.4631 -0.744 -0.666 0.044 128 37 50 0
-27.9363 37.9266 -36.5979 -0.742 -0.669 0.052 140 50 62 0
-27.8006 37.8064 -36.7432 -0.805 -0.417 0.422 147 58 68 0
-27.7602 37.3648 -36.7839 -0.792 -0.157 0.590 122 31 41 0
-27.7535 36.8959 -36.7881 -0.982 -0.092 0.166 127 35 47 0
-22.5512 38.3538 -42.3970 -0.619 -0.775 0.126 105 24 39 0
-21.2920 39.1322 -43.7573 -0.827 -0.557 0.070 106 25 39 0
-22.5100 36.6679 -42.4307 -0.183 -0.791 -0.583 100 25 40 0
-24.7338 33.9629 -40.0199 -0.292 -0.898 0.329 95 25 40 0
-23.4820 34.2290 -41.3690 -0.068 -0.882 -0.466 91 26 35 0
-22.6209 34.6538 -42.2985 -0.068 -0.882 -0.466 90 27 37 0
-21.7407 35.0880 -43.2487 -0.068 -0.882 -0.466 90 27 37 0
-19.7890 35.5945 -45.3527 0.038 -0.980 -0.197 90 28 40 0
-19.0634 35.8922 -46.1356 0.344 -0.916 0.208 92 30 41 0
-18.5627 36.0184 -46.6754 0.304 -0.948 0.092 92 33 44 0
-9.6922 40.9692 -56.2547 0.301 -0.908 0.291 87 39 48 0
-11.5075 38.8565 -54.2874 -0.125 -0.915 -0.385 90 49 56 0
-8.9942 40.3802 -57.0023 -0.500 -0.825 0.262 93 51 60 0
-9.0502 39.7974 -56.9383 -0.769 -0.477 0.425 94 58 66 0
-9.2090 39.4153 -56.7649 -0.706 -0.524 0.476 105 72 79 0
-9.1899 39.1593 -56.7839 -0.675 -0.543 0.500 120 89 95 0
-8.9185 39.0794 -57.0755 -0.772 -0.510 0.380 125 96 101 0
-8.3223 37.8785 -57.7097 -0.757 0.131 0.640 145 133 128 0
-8.7191 37.3441 -57.2792 -0.439 -0.187 0.879 148 136 134 0
-8.6631 37.1164 -57.3380 -0.427 -0.171 0.888 150 138 138 0
-23.2636 26.8874 -41.5576 -0.037 -0.784 0.620 155 145 141 0
-15.5196 29.8720 -49.9120 -0.788 -0.568 0.237 173 163 162 0
-13.5939 29.6486 -51.9834 0.327 -0.924 0.196 180 169 168 0
-21.0776 13.9590 -43.8287 0.335 -0.941 0.049 177 166 159 0
7.4435 11.9661 -74.5156 -0.999 0.046 0.020 160 149 139 0
7.3782 11.4758 -74.4422 -0.979 0.201 -0.015 157 148 134 0
7.3547 11.0008 -74.4139 -1.000 0.011 -0.027 50 50 50 0
-52.9246 83.1024 -10.2836 -0.483 -0.849 0.215 235 224 220 0
-52.8145 83.0076 -10.4017 -0.472 -0.864 0.174 235 224 220 0
-27.6761 59.7511 -37.3544 -0.948 -0.294 -0.121 203 197 197 0
-21.9930 59.9736 -43.4913 -0.880 0.473 -0.038 146 80 92 0
-23.1418 58.3958 -42.2385 -0.858 0.512 0.048 145 76 87 0
-24.8210 53.0768 -40.3836 -0.957 0.284 -0.057 143 52 70 0
-26.8689 50.6363 -38.1533 -0.926 0.333 0.177 140 51 68 0
-27.4786 48.9121 -37.4814 -0.920 0.388 0.047 138 45 63 0
-27.6199 47.9635 -37.3214 -0.919 0.347 0.185 138 43 60 0
-27.4118 47.9101 -37.5456 -0.862 0.352 0.366 139 42 58 0
-27.6002 47.4524 -37.3386 -0.873 0.345 0.344 138 41 58 0
-27.5757 47.2128 -37.3632 -0.888 0.346 0.304 138 41 58 0
-27.7261 46.7970 -37.1975 -0.887 0.348 0.305 135 38 56 0
-28.9542 43.7676 -35.8477 -0.879 -0.385 -0.282 132 35 52 0
-28.6600 43.8022 -36.1655 -0.966 -0.078 -0.248 132 33 51 0
-29.0446 43.1741 -35.7453 -0.919 -0.346 -0.191 131 34 51 0
-29.1232 42.8466 -35.6579 -0.756 -0.477 -0.449 131 34 51 0
-29.1043 41.1257 -35.6646 -0.775 0.039 0.630 127 32 49 0
-28.6421 38.6326 -36.1437 -0.925 -0.319 -0.208 119 27 41 0
-28.6470 38.3882 -36.1365 -0.950 -0.292 -0.108 120 28 42 0
-28.2179 38.2910 -36.5990 -0.835 -0.134 0.534 122 30 45 0
-28.2912 37.9865 -36.5174 -0.364 -0.926 0.098 124 34 47 0
-27.9079 37.8455 -36.9301 -0.633 -0.773 0.051 133 46 55 0
-27.8703 37.6393 -36.9690 -0.753 -0.224 0.619 123 36 45 0
-27.8872 37.3862 -36.9488 -0.792 -0.157 0.590 120 31 40 0
-23.3891 36.0959 -41.7943 -0.640 0.403 0.654 100 26 42 0
-22.3361 35.2352 -42.9242 -0.083 -0.837 -0.540 92 27 40 0
-21.6619 35.5132 -43.6542 -0.093 -0.847 -0.523 93 29 43 0
-20.1795 35.6690 -45.2557 0.346 -0.915 0.209 91 29 42 0
-19.7860 35.7205 -45.6809 0.346 -0.915 0.209 93 31 42 0
-19.3839 35.7765 -46.1155 0.344 -0.916 0.208 95 35 45 0
-18.9319 35.8675 -46.6041 0.292 -0.954 0.067 101 44 53 0
-13.4737 38.0976 -52.5141 -0.047 -0.931 -0.362 92 47 55 0
-11.0344 39.3251 -55.1572 -0.127 -0.910 -0.394 92 53 59 0
-8.4115 40.9287 -58.0014 -0.968 -0.020 0.249 95 55 63 0
-8.4778 40.6070 -57.9273 -0.951 -0.102 0.291 99 62 69 0
-8.6825 40.1886 -57.7030 -0.935 -0.265 0.235 105 72 78 0
-9.4303 39.3902 -56.8894 -0.837 -0.533 0.125 120 89 95 0
-18.3035 28.2029 -47.2216 -0.954 -0.299 -0.039 174 164 164 0
-25.3108 11.3228 -39.5228 0.032 -0.992 -0.119 177 166 163 0
7.5249 12.0579 -74.9757 -0.985 0.169 -0.027 160 149 139 0
7.4807 11.8081 -74.9260 -0.985 0.169 -0.027 159 149 138 0
7.3988 11.5472 -74.8355 -0.979 0.201 -0.015 157 148 134 0
-27.7551 59.5580 -37.6062 -0.993 0.035 0.116 203 196 196 0
-26.6946 59.3259 -38.7522 -0.935 0.213 0.285 194 185 186 0
-20.2921 64.9290 -45.7377 -0.916 -0.389 -0.095 180 165 165 0
-20.3837 64.5021 -45.6345 -0.830 -0.553 0.078 182 162 163 0
-18.3605 64.8651 -47.8285 -0.704 -0.706 0.078 149 98 107 0
-18.4273 64.4666 -47.7523 -0.645 -0.710 -0.282 147 89 99 0
-23.9268 57.7173 -41.7335 -0.902 0.426 -0.064 146 80 90 0
-22.5905 58.8977 -43.1916 -0.880 0.475 -0.004 143 75 85 0
-22.3545 58.8554 -43.4467 -0.926 0.371 -0.074 143 73 84 0
-22.9778 57.5700 -42.7595 -0.872 0.487 0.047 147 72 87 0
-25.1630 53.4591 -40.3543 -0.917 0.275 -0.288 143 55 72 0
-24.7681 53.3101 -40.7804 -0.959 0.277 -0.063 142 53 71 0
-27.5440 47.9379 -37.7236 -0.910 0.331 0.248 136 41 58 0
-28.1687 47.0347 -37.0386 -0.957 0.280 0.070 139 43 60 0
-28.1523 46.7882 -37.0540 -0.955 0.283 0.087 140 43 60 0
-28.1799 46.4979 -37.0214 -0.914 0.362 0.183 136 39 58 0
-27.1653 47.2585 -38.1271 -0.994 0.036 0.103 137 41 59 0
-27.3797 46.7784 -37.8904 -0.988 0.072 0.140 134 40 58 0
-28.7032 38.4733 -36.3780 -0.956 -0.281 -0.089 120 28 43 0
-28.3352 38.3215 -36.7750 -0.835 -0.134 0.534 117 26 41 0
-27.9946 37.9028 -37.1397 -0.633 -0.773 0.051 122 34 46 0
-27.9695 37.6854 -37.1648 -0.811 -0.404 0.424 120 32 44 0
-28.0142 37.4076 -37.1137 -0.792 -0.157 0.590 119 31 41 0
-21.4099 39.3041 -44.2822 -0.554 -0.333 0.763 103 24 40 0
-24.4081 36.3679 -41.0081 -0.589 0.476 0.653 103 27 39 0
-23.5396 36.1024 -41.9458 -0.640 0.403 0.654 99 27 42 0
-23.9681 34.5686 -41.4672 -0.098 -0.845 -0.525 93 26 38 0
-22.4136 35.2991 -43.1573 0.034 -0.882 -0.470 95 30 42 0
-20.9538 35.4501 -44.7392 0.292 -0.945 0.150 91 29 42 0
-20.0704 35.6303 -45.6973 0.295 -0.943 0.153 93 32 43 0
-10.2618 41.0973 -56.3692 -0.100 -0.992 -0.071 92 43 54 0
-9.6143 41.2958 -57.0722 -0.393 -0.843 -0.367 92 45 56 0
-8.9931 41.4717 -57.7465 -0.548 -0.790 -0.274 93 49 59 0
-9.6612 40.7145 -57.0159 -0.209 -0.978 -0.018 94 53 61 0
-8.5882 40.9368 -58.1798 -0.959 -0.084 0.269 99 62 69 0
-8.5683 40.6762 -58.1988 -0.951 -0.102 0.291 108 74 80 0
-8.7371 40.2825 -58.0123 -0.743 -0.405 0.532 119 89 94 0
-9.6104 39.3938 -57.0582 -0.858 -0.502 0.105 122 94 99 0
-9.7060 39.0572 -56.9515 -0.725 -0.685 0.067 125 98 103 0
-5.8737 40.3500 -61.1130 0.290 -0.853 0.434 141 124 125 0
-9.2276 36.7213 -57.4471 0.319 -0.597 0.736 158 146 146 0
-23.1003 27.2008 -42.3362 -0.131 -0.870 -0.476 159 149 148 0
-14.2227 30.4333 -51.9788 -0.535 -0.844 -0.028 176 166 167 0
-25.9944 12.3367 -39.0606 0.305 -0.945 0.114 179 169 160 0
0.5331 22.5008 -67.8787 0.060 -0.965 -0.256 177 166 163 0
7.5641 12.1366 -75.3919 -0.985 0.170 -0.026 160 148 139 0
7.4934 11.8779 -75.3129 -0.998 0.024 -0.065 158 147 136 0
7.4682 11.6342 -75.2832 -0.984 0.174 -0.044 157 146 134 0
-44.7914 107.5631 -19.9847 -0.556 -0.831 -0.019 233 222 218 0
-35.7417 51.4633 -29.1831 -0.899 0.163 -0.406 209 203 203 0
-22.0833 63.0703 -44.1441 -0.035 -0.977 0.210 183 169 169 0
-20.6283 64.1106 -45.7355 -0.573 -0.704 0.420 181 161 162 0
-20.3500 64.1093 -46.0378 -0.658 -0.740 0.142 181 156 157 0
-18.5151 65.2261 -48.0427 -0.401 -0.915 0.037 161 119 126 0
-18.4727 64.9487 -48.0856 -0.704 -0.706 0.078 150 102 111 0
-18.4781 64.6185 -48.0761 -0.645 -0.738 -0.198 149 94 103 0
-21.6144 60.1741 -44.6207 -0.866 0.495 -0.072 144 77 88 0
-21.9747 59.4689 -44.2216 -0.876 0.480 0.042 144 74 86 0
-26.5645 50.7484 -39.1401 -0.445 0.299 0.844 140 51 66 0
-26.5020 50.5383 -39.2057 -0.455 0.287 0.843 139 50 66 0
-26.1676 50.6117 -39.5695 -0.716 -0.016 0.698 140 49 66 0
-36.5293 36.3750 -28.1589 -0.890 -0.399 -0.221 132 37 55 0
-29.2245 41.5473 -36.1487 -0.868 -0.350 0.353 128 31 48 0
-28.4750 38.3321 -36.9265 -0.853 -0.119 0.508 118 28 45 0
-28.5298 38.0434 -36.8638 -0.364 -0.926 0.098 119 28 45 0
-28.2711 38.0328 -37.1446 -0.502 -0.864 -0.019 120 29 44 0
-28.1390 37.9095 -37.2866 -0.487 -0.873 0.013 118 30 44 0
-28.0819 37.7200 -37.3465 -0.811 -0.404 0.424 119 31 44 0
-27.2289 36.3106 -38.2570 -0.927 -0.122 -0.355 111 28 43 0
-22.7510 35.1615 -43.1064 0.167 -0.896 -0.412 96 31 42 0
-15.5278 39.9724 -51.0036 -0.273 -0.715 -0.643 92 30 43 0
-19.6085 36.1036 -46.5293 -0.413 -0.726 -0.550 92 34 44 0
-19.3321 36.0644 -46.8289 -0.172 -0.848 -0.501 92 36 46 0
-17.8659 36.9150 -48.4305 -0.480 -0.604 -0.636 89 37 46 0
-10.2154 41.2668 -56.7865 -0.220 -0.959 -0.181 93 47 57 0
-9.3938 41.5925 -57.6823 -0.386 -0.841 -0.379 93 48 59 0
-9.0403 41.5736 -58.0660 -0.510 -0.826 -0.242 94 52 61 0
-9.4625 40.9925 -57.6010 -0.488 -0.854 -0.179 97 58 67 0
-9.1466 40.9458 -57.9436 -0.505 -0.785 -0.358 100 64 70 0
-9.2774 40.3045 -57.7943 -0.871 -0.476 -0.119 113 83 88 0
-6.0269 40.3771 -61.3247 0.317 -0.561 0.765 142 125 126 0
-5.0786 39.9106 -62.3491 0.211 -0.920 0.331 156 143 145 0
-10.9431 35.6927 -55.9339 0.019 -0.400 0.916 159 148 149 0
-23.0292 27.3515 -42.7169 -0.031 -0.899 -0.437 161 150 151 0
-24.0191 25.8216 -41.6249 -0.996 -0.089 -0.026 168 159 159 0
-15.2689 30.1174 -51.1744 -0.861 -0.438 -0.259 176 166 167 0
-14.1914 30.5624 -52.3494 -0.526 -0.850 -0.030 177 167 168 0
-16.3661 28.2435 -49.9620 0.422 -0.852 0.311 178 170 168 0
-20.8762 11.5851 -44.8781 0.264 -0.957 -0.118 171 161 152 0
7.5321 12.1930 -75.7320 -0.997 0.019 -0.070 161 148 139 0
7.5215 11.9527 -75.7178 -0.998 0.024 -0.065 159 146 137 0
7.5000 11.7096 -75.6917 -0.984 0.174 -0.044 159 146 136 0
7.4558 11.4601 -75.6410 -0.997 0.042 -0.070 103 95 89 0
-45.4449 108.6333 -19.6517 -0.433 -0.793 -0.429 227 218 215 0
-45.6891 47.3630 -18.5996 -0.990 -0.049 -0.135 220 219 215 0
-29.1860 56.4824 -36.6889 -0.953 -0.254 0.163 196 186 187 0
-22.2349 62.7870 -44.3397 -0.271 -0.950 -0.152 183 168 169 0
-19.9729 64.7509 -46.8282 -0.395 -0.913 -0.100 180 159 160 0
-19.3382 65.1529 -47.5245 -0.248 -0.967 -0.064 180 152 154 0
-18.7003 65.2278 -48.2202 -0.494 -0.855 -0.156 172 135 139 0
-18.5535 64.7433 -48.3739 -0.531 -0.847 0.023 152 100 108 0
-21.6308 60.0455 -44.9624 -0.808 0.582 0.095 145 77 88 0
-26.0517 53.4311 -40.0630 -0.881 0.474 0.002 141 61 78 0
-26.0013 51.7927 -40.0969 -0.760 0.553 0.343 143 55 71 0
-26.5371 50.9491 -39.5026 -0.829 0.498 0.255 140 53 67 0
-26.5488 50.6603 -39.4862 -0.891 0.133 0.433 138 51 67 0
-26.3799 50.5610 -39.6688 -0.897 0.031 0.440 140 49 65 0
-28.3422 46.9160 -37.4850 -0.874 0.042 -0.483 139 47 62 0
-29.0555 42.8561 -36.6561 -0.868 -0.252 0.428 126 34 49 0
-28.9670 42.4387 -36.7471 -0.873 -0.191 0.449 128 33 49 0
-28.9566 42.1982 -36.7554 -0.841 -0.327 0.430 128 31 48 0
-28.8370 42.0622 -36.8838 -0.878 -0.385 0.284 129 32 49 0
-28.3492 42.2759 -37.4179 -0.833 0.404 0.378 131 33 50 0
-26.5001 41.9873 -39.4279 -0.974 -0.041 -0.225 124 30 48 0
-28.4984 38.6881 -37.2094 -0.997 -0.067 0.045 119 31 47 0
-28.2122 38.7025 -37.5212 -0.884 -0.249 -0.396 120 32 48 0
-27.3181 38.2825 -38.4895 -0.941 -0.079 -0.329 119 31 45 0
-27.2693 38.0830 -38.5401 -0.995 0.096 -0.030 119 31 45 0
-24.8933 38.1717 -41.1288 -0.771 0.284 0.570 106 27 41 0
-26.4676 36.6049 -39.3942 -0.931 -0.359 -0.059 104 26 40 0
-24.2736 36.7339 -41.7852 0.257 -0.966 -0.008 102 28 41 0
-23.0312 36.2762 -43.1323 -0.955 -0.083 -0.285 97 29 42 0
-20.3358 36.1708 -46.0663 -0.627 -0.769 -0.125 91 32 44 0
-20.1078 36.0977 -46.3137 -0.375 -0.746 -0.550 91 33 45 0
-19.3566 36.4198 -47.1358 -0.361 -0.739 -0.569 92 34 46 0
-9.1525 41.9057 -58.3188 -0.419 -0.837 -0.351 94 52 63 0
-8.7637 41.9115 -58.7422 -0.722 -0.686 -0.091 95 56 66 0
-8.8529 41.5692 -58.6407 -0.654 -0.622 -0.431 99 64 71 0
-8.7981 41.3321 -58.6973 -0.578 -0.601 -0.552 104 71 78 0
-9.4780 39.7500 -57.9366 -0.675 -0.486 -0.555 120 100 104 0
-5.5873 39.6977 -62.1730 0.278 -0.798 0.534 157 146 147 0
-23.9649 18.2781 -41.8846 -0.377 -0.695 -0.612 181 173 164 0
-16.9254 12.9702 -49.4826 0.356 -0.934 -0.008 171 161 153 0
-14.5473 5.7748 -51.9801 -0.965 -0.167 -0.204 163 149 139 0
7.5624 12.2694 -76.1413 -0.997 0.019 -0.070 161 147 138 0
7.5571 12.0303 -76.1325 -0.997 0.019 -0.070 159 146 137 0
7.5319 11.7854 -76.1019 -0.984 0.174 -0.044 159 145 135 0
7.4760 11.5316 -76.0378 -0.991 0.051 -0.121 103 94 90 0
-20.4001 64.4719 -46.7325 -0.572 -0.814 -0.096 182 163 164 0
-19.7011 64.9501 -47.5029 -0.297 -0.910 -0.290 182 157 158 0
-20.4343 62.5170 -46.6669 -0.894 0.378 -0.240 155 104 111 0
-21.2549 60.6604 -45.7437 -0.811 0.578 0.090 145 81 91 0
-25.1010 54.0655 -41.4476 -0.913 0.234 -0.335 141 60 75 0
-25.3595 53.5012 -41.1571 -0.912 0.235 -0.336 143 60 76 0
-25.3424 52.9495 -41.1677 -0.943 0.332 -0.003 145 58 75 0
-28.9242 45.6989 -37.1509 -0.940 0.327 0.093 136 43 61 0
-29.1656 42.8986 -36.8466 -0.835 -0.229 0.500 127 35 50 0
-28.9950 42.0581 -37.0208 -0.517 -0.428 0.741 127 34 50 0
-28.9762 41.8262 -37.0380 -0.519 -0.401 0.755 128 34 51 0
-27.1132 43.3437 -39.0947 -0.842 0.332 0.426 127 34 51 0
-26.1827 42.6805 -40.1015 -0.957 0.260 -0.127 123 29 47 0
-26.4835 42.1479 -39.7652 -0.936 -0.009 -0.353 124 31 49 0
-28.0708 36.5637 -37.9507 -0.975 -0.153 0.164 113 30 46 0
-26.4731 36.7301 -39.6982 -0.935 -0.349 -0.054 104 27 43 0
-26.3695 36.5773 -39.8091 -0.844 -0.516 -0.149 103 27 42 0
-24.7200 36.4984 -41.6096 0.266 -0.964 -0.018 104 30 43 0
-23.9670 36.6261 -42.4338 0.262 -0.957 0.125 102 32 42 0
-23.6850 36.6108 -42.7416 -0.546 -0.836 0.044 101 33 43 0
-23.4639 36.5452 -42.9821 -0.511 -0.859 0.041 101 32 43 0
-20.2772 36.3419 -46.4597 -0.299 -0.709 -0.639 93 35 49 0
-19.9089 36.3752 -46.8625 -0.479 -0.617 -0.625 94 38 48 0
-17.8394 37.1898 -49.1346 -0.114 -0.839 -0.531 91 41 50 0
-15.8175 38.4509 -51.3611 -0.233 -0.757 -0.610 92 42 52 0
-9.4642 41.8151 -58.3490 -0.405 -0.858 -0.316 97 56 67 0
-8.6607 41.8456 -59.2270 -0.710 -0.543 -0.449 103 72 78 0
-8.6306 41.5893 -59.2562 -0.772 -0.455 -0.444 111 81 87 0
-25.4091 16.2108 -40.5634 -0.494 0.039 0.869 181 172 165 0
-8.1498 21.5744 -59.4917 0.408 -0.863 0.298 178 170 162 0
7.6210 12.3551 -76.5833 -0.999 0.024 -0.034 161 147 137 0
7.6150 12.1152 -76.5733 -0.999 0.024 -0.034 159 145 136 0
7.5341 11.6153 -76.4776 -0.991 0.051 -0.121 105 94 91 0
-45.7488 47.3933 -19.0646 -0.988 -0.088 -0.125 218 217 214 0
-26.8763 61.4361 -39.9637 -0.904 0.340 0.259 210 201 202 0
-21.5658 63.3410 -45.8115 0.296 -0.816 0.497 186 166 169 0
-25.8532 52.3007 -40.9373 -0.663 0.523 0.535 142 57 72 0
-26.1055 51.7518 -40.6520 -0.662 0.525 0.534 142 58 73 0
-26.6107 50.9394 -40.0856 -0.750 0.564 0.347 141 57 72 0
-26.2303 50.7835 -40.4997 -0.946 0.293 -0.140 139 51 67 0
-29.8067 42.9265 -36.4556 -0.561 -0.812 -0.163 127 38 52 0
-29.5908 42.8861 -36.6915 -0.689 -0.705 -0.165 126 37 51 0
-29.1944 42.2649 -37.1157 -0.781 -0.457 0.426 124 36 52 0
-29.0791 41.8745 -37.2356 -0.567 -0.292 0.770 125 35 52 0
-26.2709 42.4904 -40.3217 -0.903 -0.042 -0.427 122 29 47 0
-25.3636 42.0435 -41.3084 -0.973 0.226 0.053 120 32 48 0
-27.8483 38.8147 -38.5346 -0.738 -0.673 -0.037 123 34 50 0
-26.8415 38.7271 -39.6360 -0.318 0.247 0.915 118 33 46 0
-27.9848 36.7684 -38.3521 -0.950 -0.207 0.233 114 33 46 0
-27.1029 35.8539 -39.3034 -0.924 0.359 0.134 103 30 43 0
-22.8877 36.6462 -43.9335 -0.912 -0.320 -0.255 100 32 45 0
-22.5447 36.6740 -44.3096 -0.958 -0.124 -0.259 100 32 45 0
-22.9870 36.0788 -43.8156 -0.661 -0.740 -0.122 98 31 43 0
-16.7918 38.1078 -50.6345 -0.178 -0.805 -0.566 92 43 50 0
-14.8672 39.2952 -52.7618 -0.217 -0.774 -0.595 93 43 52 0
-9.6933 42.0622 -58.4739 -0.336 -0.766 -0.548 100 58 70 0
-9.4644 41.9528 -58.7229 -0.405 -0.858 -0.316 103 63 74 0
-9.1025 41.9398 -59.1191 -0.565 -0.707 -0.425 105 71 80 0
-8.3952 41.6178 -59.8887 -0.853 -0.505 -0.128 115 87 92 0
-6.5400 42.6711 -61.9378 -0.951 -0.281 -0.127 116 93 97 0
-8.3694 38.8831 -59.8728 -0.191 -0.069 0.979 150 140 141 0
-8.9032 37.9761 -59.2735 -0.226 -0.005 0.974 157 147 147 0
-27.1975 15.7145 -38.8754 -0.668 -0.579 0.468 181 173 164 0
-27.0610 15.5991 -39.0230 -0.677 -0.592 0.436 181 172 165 0
7.6369 11.7132 -76.9684 -0.994 0.104 -0.046 101 92 88 0
7.6692 11.4862 -77.0002 -0.995 0.071 -0.065 51 50 51 0
-39.1397 48.2391 -26.6063 -0.768 -0.343 0.541 212 206 206 0
-39.0975 48.0356 -26.6490 -0.687 -0.443 0.576 212 206 206 0
-19.6610 68.3993 -48.3636 -0.420 -0.883 0.210 205 195 196 0
-18.7788 68.1007 -49.3275 -0.296 -0.918 -0.264 200 185 185 0
-19.0476 67.4520 -49.0207 0.018 -0.982 0.189 196 184 184 0
-25.4047 53.5266 -41.7895 -0.692 0.513 0.509 143 64 76 0
-26.6459 51.0755 -40.3824 -0.750 0.564 0.347 142 58 73 0
-26.0360 51.1597 -41.0540 -0.947 0.296 -0.122 139 52 68 0
-29.5471 43.0792 -37.0531 -0.605 -0.723 -0.333 126 38 52 0
-29.2162 42.1408 -37.4000 -0.794 -0.448 0.411 124 36 52 0
-26.9607 43.5317 -39.9027 -0.706 0.616 0.349 126 38 54 0
-26.1066 42.7897 -40.8278 -0.879 -0.198 -0.435 122 31 48 0
-26.0876 42.5509 -40.8444 -0.850 -0.232 -0.472 123 31 49 0
-25.3541 42.4539 -41.6485 -0.885 -0.181 -0.430 121 33 49 0
-25.4160 42.1412 -41.5749 -0.980 0.199 -0.015 121 33 49 0
-27.2997 39.9355 -39.4664 -0.368 -0.532 0.762 124 36 52 0
-26.9142 39.7856 -39.8871 -0.520 -0.002 0.854 124 36 51 0
-26.9932 38.7304 -39.7817 -0.304 0.239 0.922 119 36 48 0
-22.4575 36.8722 -44.7316 -0.940 -0.198 -0.279 99 31 44 0
-21.5026 36.8859 -45.7809 -0.256 0.049 0.965 101 37 49 0
-21.0465 36.4985 -46.2750 -0.207 -0.762 -0.613 102 41 54 0
-14.7371 39.7909 -53.2650 -0.304 -0.734 -0.607 96 46 54 0
-8.8546 42.5398 -59.7764 -0.374 -0.773 -0.512 108 72 82 0
-8.6695 42.3952 -59.9772 -0.560 -0.728 -0.396 111 79 88 0
-5.4766 43.5755 -63.5058 -0.205 -0.799 -0.565 120 98 103 0
-3.6633 44.5862 -65.5159 -0.172 -0.816 -0.552 124 107 110 0
-11.2822 37.5303 -57.0205 -0.218 -0.884 -0.413 149 137 139 0
-10.3411 37.6518 -58.0565 -0.319 -0.849 -0.422 153 143 144 0
-9.6006 37.8946 -58.8743 -0.708 0.022 0.706 157 146 148 0
-9.5734 37.6454 -58.8998 -0.706 -0.033 0.708 161 151 152 0
-27.1773 15.8014 -39.1723 -0.036 -0.846 0.533 184 173 169 0
-27.1465 15.6292 -39.2031 -0.712 -0.589 0.383 182 172 166 0
-18.9255 6.8439 -48.0787 -0.629 -0.033 0.777 159 148 142 0
7.6930 11.7969 -77.4097 -0.993 0.104 -0.050 100 92 88 0
7.7015 11.5619 -77.4149 -0.995 0.071 -0.065 51 50 51 0
-39.2303 48.0459 -26.7922 -0.722 -0.423 0.547 212 206 206 0
-25.2898 62.8446 -42.4392 -0.990 0.044 -0.131 211 201 202 0
-24.7877 63.1352 -42.9980 -0.987 0.006 -0.160 210 200 201 0
-19.7814 68.4801 -48.6177 -0.398 -0.896 0.198 208 196 198 0
-19.7202 68.2177 -48.6801 -0.282 -0.932 0.229 207 195 197 0
-19.9077 67.6612 -48.4627 -0.588 -0.736 0.336 206 193 193 0
-19.0312 68.3623 -49.4420 0.359 -0.880 0.310 204 189 190 0
-18.7905 68.3095 -49.7062 0.394 -0.821 0.413 203 188 189 0
-22.8048 61.6986 -45.1549 0.164 -0.888 0.430 187 166 169 0
-21.2162 62.8851 -46.9283 0.040 -0.990 -0.135 182 154 160 0
-20.3759 63.5215 -47.8664 -0.050 -0.986 -0.160 176 146 152 0
-18.2255 64.9766 -50.2641 -0.898 0.342 -0.277 161 118 125 0
-26.0664 51.3014 -41.3594 -0.960 0.263 -0.096 141 54 70 0
-27.0424 48.3622 -40.2270 -0.920 0.350 -0.177 133 45 60 0
-28.3734 46.4723 -38.7238 -0.976 0.027 0.218 131 43 59 0
-28.7395 44.2809 -38.2780 0.393 -0.862 0.320 126 40 53 0
-28.3020 44.1952 -38.7583 0.339 -0.669 0.661 126 38 52 0
-27.8552 44.1144 -39.2491 0.270 -0.885 0.378 127 39 54 0
-26.5998 44.2858 -40.6356 -0.774 0.582 0.251 126 38 54 0
-26.9722 43.6715 -40.2133 -0.769 0.584 0.260 127 39 55 0
-25.8983 43.1312 -41.3861 -0.846 -0.190 -0.499 121 32 48 0
-25.9745 42.8028 -41.2957 -0.756 -0.298 -0.583 121 31 48 0
-25.4846 42.9970 -41.8393 -0.764 -0.336 -0.551 121 32 50 0
-26.5252 37.3206 -40.5826 -0.803 -0.584 0.122 108 33 48 0
-26.6532 36.9702 -40.4347 -0.862 -0.465 0.203 105 33 47 0
-26.6452 36.7360 -40.4390 -0.759 -0.592 0.272 104 33 46 0
-26.3493 35.7851 -40.7466 0.329 -0.944 0.009 106 35 50 0
-21.1384 38.0544 -46.5321 -0.773 -0.376 -0.511 97 30 43 0
-21.1382 37.5523 -46.5226 0.085 -0.989 -0.121 101 36 48 0
-11.4041 42.1729 -57.3374 -0.479 -0.612 -0.629 100 51 62 0
-10.5077 42.5698 -58.3328 -0.461 -0.642 -0.613 100 54 64 0
-8.0518 43.2717 -61.0523 -0.340 -0.754 -0.562 109 76 85 0
-7.4934 43.3980 -61.6700 -0.430 -0.696 -0.575 111 81 89 0
-6.9061 43.5424 -62.3200 -0.418 -0.708 -0.569 111 85 92 0
-10.6304 37.8457 -58.1059 -0.298 -0.868 -0.397 153 142 143 0
-12.8914 31.7005 -55.4955 0.467 -0.577 0.670 177 167 167 0
-13.4405 30.3664 -54.8646 0.185 -0.252 0.950 179 171 169 0
-13.7230 29.9459 -54.5451 0.187 -0.335 0.924 179 171 169 0
-27.2970 15.6246 -39.3112 -0.708 -0.575 0.411 183 173 167 0
7.7481 11.8806 -77.8516 -0.995 0.076 -0.066 100 92 88 0
7.7499 11.6428 -77.8490 -0.996 0.067 -0.066 51 50 51 0
-24.1056 62.5856 -44.1012 -0.451 -0.509 0.734 206 191 194 0
-20.5648 61.6054 -47.9933 -0.859 0.492 -0.141 152 98 107 0
-26.6592 49.1943 -40.9973 -0.909 0.400 -0.113 134 47 63 0
-29.1021 46.1547 -38.2338 -0.616 0.157 0.772 132 45 61 0
-28.4294 43.9664 -38.9312 0.323 -0.687 0.651 126 39 53 0
-28.2087 43.1539 -39.1579 -0.341 -0.415 0.844 126 38 54 0
-28.4706 42.6480 -38.8579 -0.554 -0.356 0.753 127 40 56 0
-28.8061 42.0745 -38.4750 -0.825 -0.488 0.285 127 39 55 0
-26.1982 43.5185 -41.3872 -0.666 -0.431 -0.609 125 35 52 0
-25.9156 43.5236 -41.6996 -0.666 -0.431 -0.609 124 36 52 0
-25.9309 43.2501 -41.6769 -0.757 -0.296 -0.583 122 34 51 0
-25.6091 43.2898 -42.0334 -0.758 -0.294 -0.582 122 32 50 0
-25.4130 43.2117 -42.2484 -0.785 -0.304 -0.540 123 34 52 0
-27.6136 39.9330 -39.7476 -0.852 -0.464 -0.243 123 35 51 0
-27.7626 39.5513 -39.5750 -0.139 -0.091 0.986 125 37 53 0
-26.6663 39.5406 -40.7861 -0.766 -0.380 -0.519 127 40 56 0
-26.0529 39.3355 -41.4597 -0.947 -0.113 -0.302 116 36 49 0
-25.7957 39.3113 -41.7434 -0.637 -0.595 -0.490 114 34 48 0
-25.5548 39.2718 -42.0088 -0.637 -0.595 -0.490 113 33 49 0
-23.9008 39.9442 -43.8506 -0.748 -0.290 0.597 109 33 50 0
-26.5988 37.3905 -40.8155 -0.778 -0.618 0.109 105 31 46 0
-26.6380 37.1148 -40.7663 -0.945 -0.326 0.021 105 33 45 0
-26.5746 36.9268 -40.8324 -0.945 -0.326 0.021 106 33 47 0
-27.7028 35.4989 -39.5557 -0.858 0.429 0.282 106 33 49 0
-26.6169 35.6917 -40.7597 0.329 -0.944 0.009 106 34 48 0
-20.8047 38.4537 -47.2405 -0.769 -0.380 -0.514 101 35 47 0
-20.6126 38.1000 -47.4454 -0.541 -0.759 -0.362 102 39 50 0
-10.5938 43.4862 -58.6299 -0.529 -0.469 -0.707 99 49 59 0
-9.0435 43.8122 -60.3499 -0.567 -0.475 -0.673 103 58 69 0
-8.1540 43.9083 -61.3349 -0.436 -0.656 -0.617 108 72 82 0
-7.5959 44.0371 -61.9543 -0.498 -0.642 -0.583 113 79 89 0
-3.5046 46.7740 -66.5329 -0.317 -0.763 -0.563 112 81 89 0
-5.7795 43.6405 -63.9531 -0.224 -0.921 -0.320 122 107 108 0
-9.9988 38.1447 -59.1749 -0.835 -0.120 0.536 158 148 149 0
-13.4300 31.4687 -55.2427 0.325 -0.597 0.734 176 167 168 0
-13.2571 31.3315 -55.4309 0.325 -0.597 0.734 177 167 168 0
-13.6928 30.3178 -54.9281 0.118 -0.781 0.613 178 170 170 0
-13.5092 30.1883 -55.1282 0.118 -0.781 0.613 179 170 169 0
-9.8432 20.4112 -58.9734 -0.682 -0.727 -0.086 175 164 158 0
7.9165 12.4801 -78.4314 -0.995 0.099 -0.009 155 141 133 0
7.8061 11.9655 -78.2986 -0.995 0.082 -0.060 100 92 88 0
7.8116 11.7282 -78.2996 -0.996 0.061 -0.071 52 50 51 0
-23.9331 63.3167 -44.6724 -0.457 -0.639 0.618 209 196 198 0
-24.1731 60.5308 -44.3431 0.156 -0.904 0.397 191 172 176 0
-23.5792 57.2394 -44.9266 -0.905 0.172 -0.389 147 79 93 0
-26.9030 49.3856 -41.0645 -0.913 0.342 0.220 137 51 69 0
-26.8058 49.2116 -41.1682 -0.885 0.402 0.234 134 48 66 0
-28.4867 43.8060 -39.1825 -0.797 -0.454 0.399 123 37 53 0
-28.4352 43.5990 -39.2349 -0.993 0.004 -0.117 124 39 54 0
-28.7291 42.5495 -38.8853 -0.567 -0.383 0.729 126 40 55 0
-28.8502 42.1804 -38.7427 -0.738 -0.611 0.286 125 40 55 0
-25.5599 44.0074 -42.4307 -0.666 -0.431 -0.609 123 36 53 0
-25.6619 43.6509 -42.3096 -0.748 -0.294 -0.595 122 35 52 0
-27.5821 40.1026 -40.1009 -0.886 -0.363 -0.289 125 38 54 0
-28.0061 39.4714 -39.6166 -0.139 -0.091 0.986 125 37 53 0
-27.3345 39.3335 -40.3578 -0.876 -0.225 0.427 125 38 55 0
-25.6567 39.3212 -42.2170 -0.949 -0.123 0.289 115 34 51 0
-25.3470 39.3403 -42.5606 -0.428 -0.092 0.899 112 34 53 0
-25.6094 38.8645 -42.2590 -0.764 -0.009 0.645 111 34 53 0
-23.4427 39.7132 -44.6796 -0.989 -0.144 0.042 107 32 47 0
