ply
format ascii 1.0
element vertex 841
property float x
property float y
property float z
property float nx
property float ny
property float nz
property uchar diffuse_red
property uchar diffuse_green
property uchar diffuse_blue
property uchar class
end_header
0.7888 52.3419 -53.0863 0.687 0.723 0.075 15 98 55 0
0.5278 52.5929 -53.1127 0.687 0.723 0.075 15 97 53 0
0.2658 52.8448 -53.1392 0.687 0.723 0.075 15 97 53 0
3.5525 53.2992 -50.9451 0.655 0.664 0.361 18 97 54 0
-4.6851 56.8224 -54.0426 0.954 -0.267 -0.137 13 96 52 0
-4.5952 57.0544 -53.8695 0.954 -0.267 -0.137 14 97 53 0
-4.5055 57.2859 -53.6967 0.954 -0.267 -0.137 15 97 53 0
-2.7199 57.5783 -52.4812 0.936 0.010 -0.351 16 97 54 0
-2.6656 57.8091 -52.3299 0.936 0.010 -0.351 15 96 53 0
-5.2084 61.4424 -51.9746 0.952 -0.266 -0.152 22 99 58 0
10.1380 60.4495 -43.3342 0.937 -0.348 0.001 27 102 61 0
17.7370 61.7076 -38.1543 0.957 0.097 -0.274 40 106 72 0
-1.4277 75.0289 -42.7208 0.390 -0.717 0.578 187 189 178 0
-1.3164 75.2239 -42.5539 0.390 -0.717 0.578 189 188 178 0
-2.1089 75.8672 -42.6952 0.852 -0.523 -0.012 191 188 180 0
-1.9881 76.0600 -42.5238 0.852 -0.523 -0.012 193 189 181 0
-12.1171 97.8708 -37.3283 0.667 0.558 0.493 182 171 166 0
4.7707 101.8437 -25.2105 0.896 -0.159 0.414 174 162 153 0
4.7612 102.0418 -25.1141 0.896 -0.159 0.414 172 159 151 0
4.7422 102.4378 -24.9214 0.896 -0.159 0.414 173 161 153 0
20.3009 -1.7988 -69.6431 0.862 -0.441 -0.251 255 255 255 0
18.4660 31.2188 -53.7173 0.662 0.055 0.748 231 222 127 0
18.3852 31.4226 -53.6607 0.662 0.055 0.748 234 225 120 0
16.9392 31.6799 -54.3942 0.826 -0.035 0.563 237 229 105 0
16.8930 31.8908 -54.3132 0.826 -0.035 0.563 239 231 101 0
16.8467 32.1019 -54.2321 0.826 -0.035 0.563 240 232 95 0
16.8004 32.3129 -54.1509 0.826 -0.035 0.563 240 233 91 0
12.7216 36.0951 -54.6442 0.925 -0.258 -0.280 247 241 99 0
12.8439 36.3253 -54.4522 0.925 -0.258 -0.280 248 241 100 0
12.9659 36.5549 -54.2608 0.925 -0.258 -0.280 246 241 100 0
13.0875 36.7838 -54.0699 0.925 -0.258 -0.280 247 242 101 0
10.2811 37.9474 -55.1511 0.834 0.552 0.013 239 235 91 0
9.7413 38.3692 -55.2570 0.697 0.698 0.167 236 230 81 0
9.5295 38.5844 -55.2729 0.697 0.698 0.167 235 229 79 0
15.5336 43.7691 -49.0027 0.750 -0.525 0.402 156 163 53 0
15.6012 43.9800 -48.8534 0.750 -0.525 0.402 147 156 53 0
10.3419 47.0427 -50.4249 0.664 0.183 0.724 33 99 56 0
10.2296 47.2643 -50.3779 0.664 0.183 0.724 32 100 57 0
2.2498 50.9694 -53.2478 0.687 0.723 0.075 18 102 53 0
1.9937 51.2157 -53.2742 0.687 0.723 0.075 16 102 53 0
1.7367 51.4628 -53.3008 0.687 0.723 0.075 16 102 54 0
1.4788 51.7109 -53.3274 0.687 0.723 0.075 16 103 56 0
1.2200 51.9598 -53.3541 0.687 0.723 0.075 15 102 56 0
0.9603 52.2096 -53.3809 0.687 0.723 0.075 13 101 56 0
0.6996 52.4603 -53.4077 0.687 0.723 0.075 12 100 54 0
0.4380 52.7118 -53.4347 0.687 0.723 0.075 13 100 55 0
0.1755 52.9643 -53.4618 0.687 0.723 0.075 14 101 55 0
-2.8512 57.7114 -52.8273 0.936 0.010 -0.351 16 97 54 0
-1.0289 75.2824 -42.6754 0.390 -0.717 0.578 188 190 179 0
4.7666 74.0540 -39.8369 0.394 -0.777 0.490 188 189 179 0
-11.1844 96.9733 -37.5746 0.667 0.558 0.493 187 176 172 0
4.8445 102.5291 -25.1076 0.896 -0.159 0.414 175 161 152 0
4.8065 103.3198 -24.7226 0.896 -0.159 0.414 172 158 149 0
20.2003 -1.7908 -70.0020 0.862 -0.441 -0.251 255 255 255 0
18.6224 31.3195 -53.8631 0.662 0.055 0.748 232 225 128 0
18.5416 31.5233 -53.8065 0.662 0.055 0.748 234 226 120 0
18.4608 31.7272 -53.7499 0.662 0.055 0.748 235 229 112 0
18.3799 31.9313 -53.6932 0.662 0.055 0.748 238 230 106 0
17.0146 31.9882 -54.4855 0.826 -0.035 0.563 239 231 100 0
16.9684 32.1992 -54.4044 0.826 -0.035 0.563 240 232 94 0
16.9221 32.4102 -54.3233 0.826 -0.035 0.563 240 233 90 0
12.7764 36.4109 -54.7533 0.925 -0.258 -0.280 245 238 95 0
16.5160 37.1026 -52.1460 0.924 -0.266 -0.275 243 237 93 0
9.2895 40.2505 -54.8700 0.721 -0.673 0.162 220 214 64 0
9.4560 40.4815 -54.6506 0.721 -0.673 0.162 217 211 61 0
23.9906 41.5495 -45.3528 0.735 0.665 0.136 211 205 58 0
14.5676 43.2199 -50.1612 0.479 0.133 0.868 171 174 52 0
14.3211 43.6448 -50.0903 0.479 0.133 0.868 163 169 53 0
15.6828 43.8631 -49.1581 0.750 -0.525 0.402 155 163 52 0
15.3313 45.1274 -48.7172 0.965 0.187 -0.183 103 112 50 0
2.1637 51.0845 -53.5666 0.687 0.723 0.075 19 102 53 0
1.9070 51.3313 -53.5936 0.687 0.723 0.075 16 102 53 0
1.6495 51.5791 -53.6207 0.687 0.723 0.075 16 104 54 0
2.5568 51.7556 -52.9837 0.688 0.721 0.080 16 104 55 0
1.1317 52.0772 -53.6753 0.687 0.723 0.075 15 103 55 0
0.8713 52.3277 -53.7027 0.687 0.723 0.075 14 103 55 0
0.6101 52.5790 -53.7302 0.687 0.723 0.075 13 102 54 0
0.3479 52.8312 -53.7578 0.687 0.723 0.075 14 103 55 0
0.0848 53.0843 -53.7855 0.687 0.723 0.075 14 103 55 0
5.1893 60.5057 -46.8835 0.891 -0.406 -0.203 19 101 55 0
17.9035 59.9398 -39.5245 0.937 -0.348 0.012 24 106 62 0
-0.9630 74.9514 -43.1302 0.390 -0.717 0.578 136 158 142 0
-0.7422 75.3406 -42.7965 0.390 -0.717 0.578 185 189 180 0
-0.6322 75.5345 -42.6302 0.390 -0.717 0.578 188 189 181 0
4.9182 103.2134 -25.0048 0.896 -0.159 0.414 173 159 150 0
20.0993 -1.7827 -70.3623 0.862 -0.441 -0.251 255 255 255 0
13.4121 30.5403 -57.7071 0.919 -0.331 -0.212 229 223 137 0
18.7786 31.4201 -54.0086 0.662 0.055 0.748 231 226 128 0
18.6979 31.6238 -53.9521 0.662 0.055 0.748 234 227 120 0
18.6172 31.8277 -53.8956 0.662 0.055 0.748 236 230 113 0
18.5364 32.0317 -53.8390 0.662 0.055 0.748 237 231 107 0
17.0900 32.2965 -54.5766 0.826 -0.035 0.563 239 232 96 0
17.0438 32.5074 -54.4956 0.826 -0.035 0.563 240 233 93 0
11.8178 32.6120 -57.6006 0.659 0.681 0.320 243 237 90 0
12.4626 36.0347 -55.4427 0.925 -0.258 -0.280 244 238 91 0
12.7088 36.4967 -55.0553 0.925 -0.258 -0.280 244 237 91 0
12.8313 36.7266 -54.8624 0.925 -0.258 -0.280 243 237 90 0
16.4789 43.1206 -49.3544 0.742 -0.536 0.401 176 178 54 0
14.7692 43.3157 -50.2872 0.479 0.133 0.868 171 174 52 0
14.6463 43.5278 -50.2519 0.479 0.133 0.868 169 173 53 0
14.5232 43.7403 -50.2165 0.479 0.133 0.868 162 168 52 0
15.8319 43.9571 -49.3134 0.750 -0.525 0.402 154 163 51 0
10.4231 47.6789 -50.6604 0.664 0.183 0.724 31 104 60 0
26.1746 47.9549 -40.9962 0.409 -0.751 0.519 24 104 58 0
3.2357 51.1338 -53.2203 0.688 0.721 0.080 18 103 54 0
2.4720 51.8716 -53.3008 0.688 0.721 0.080 17 104 54 0
1.0430 52.1951 -53.9975 0.687 0.723 0.075 17 105 56 0
0.7821 52.4461 -54.0256 0.687 0.723 0.075 17 105 56 0
0.5203 52.6980 -54.0537 0.687 0.723 0.075 17 104 55 0
0.2576 52.9509 -54.0819 0.687 0.723 0.075 17 105 55 0
5.1828 60.6211 -47.1423 0.891 -0.406 -0.203 20 102 56 0
5.4500 61.0230 -46.7732 0.891 -0.406 -0.203 22 103 57 0
5.5830 61.2231 -46.5894 0.891 -0.406 -0.203 22 104 59 0
-0.6232 62.3438 -49.7621 0.940 -0.342 0.003 23 105 60 0
30.1683 58.9062 -32.9247 0.936 -0.352 0.012 27 106 65 0
-0.6761 75.0102 -43.2508 0.390 -0.717 0.578 130 154 138 0
-0.3468 75.5922 -42.7511 0.390 -0.717 0.578 188 188 179 0
4.9718 74.6728 -40.0110 0.819 -0.060 0.571 189 189 181 0
-13.5272 112.0749 -31.8720 0.525 -0.695 0.491 175 161 152 0
-13.4324 112.2510 -31.7238 0.525 -0.695 0.491 174 160 151 0
18.7735 31.9280 -54.0412 0.662 0.055 0.748 236 230 116 0
17.0276 32.5896 -54.7592 0.835 -0.035 0.550 241 233 96 0
11.8438 32.7033 -57.8481 0.659 0.681 0.320 242 236 90 0
18.5820 36.3612 -51.8652 0.923 -0.267 -0.277 245 238 88 0
18.7012 36.5805 -51.6795 0.923 -0.267 -0.277 244 237 87 0
12.6409 36.5827 -55.3582 0.925 -0.258 -0.280 243 237 87 0
12.7637 36.8129 -55.1646 0.925 -0.258 -0.280 243 237 87 0
16.5114 37.4919 -52.5379 0.924 -0.266 -0.275 243 237 87 0
16.6294 43.2145 -49.5073 0.742 -0.536 0.401 176 178 55 0
14.8477 43.6233 -50.3778 0.479 0.133 0.868 169 173 53 0
14.7249 43.8357 -50.3425 0.479 0.133 0.868 161 167 51 0
15.9809 44.0509 -49.4686 0.750 -0.525 0.402 152 161 49 0
10.5759 47.7751 -50.8249 0.664 0.183 0.724 31 107 63 0
32.8661 48.6561 -36.8345 0.726 -0.194 0.660 20 104 55 0
1.2147 52.0626 -54.2922 0.687 0.723 0.075 18 104 55 0
0.9541 52.3133 -54.3208 0.687 0.723 0.075 18 105 56 0
0.6927 52.5650 -54.3495 0.687 0.723 0.075 18 105 55 0
0.4303 52.8175 -54.3782 0.687 0.723 0.075 17 103 54 0
0.1669 53.0709 -54.4071 0.687 0.723 0.075 17 103 54 0
-4.5322 57.7718 -54.8298 0.954 -0.267 -0.137 14 102 56 0
5.1762 60.7368 -47.4016 0.891 -0.406 -0.203 17 103 56 0
-7.1689 70.8611 -49.6628 0.714 -0.687 0.137 48 114 76 0
-0.7203 74.4837 -43.8741 0.390 -0.717 0.578 76 132 99 0
-0.4999 74.8743 -43.5383 0.390 -0.717 0.578 91 134 108 0
-0.0623 75.6498 -42.8716 0.390 -0.717 0.578 187 187 177 0
5.1049 74.7630 -40.1925 0.819 -0.060 0.571 189 189 182 0
21.3651 90.4365 -22.2150 0.905 -0.185 -0.382 178 165 159 0
21.4416 90.5713 -22.0988 0.905 -0.185 -0.382 177 164 158 0
-13.2024 112.3008 -31.8995 0.525 -0.695 0.491 174 160 151 0
-2.4816 109.6350 -26.7681 0.837 0.540 -0.089 255 255 255 0
18.5260 33.0494 -53.9042 0.662 0.055 0.748 242 235 94 0
16.5194 33.7041 -54.7893 0.988 0.005 0.154 245 238 94 0
12.6959 36.8994 -55.4677 0.925 -0.258 -0.280 243 238 85 0
25.0574 42.0244 -45.2756 0.884 -0.465 -0.052 210 205 60 0
15.0488 43.7186 -50.5034 0.479 0.133 0.868 168 173 54 0
14.9262 43.9308 -50.4683 0.479 0.133 0.868 159 167 52 0
16.1966 44.3548 -49.4740 0.750 -0.525 0.402 142 154 50 0
14.0629 45.4258 -50.2212 0.479 0.133 0.868 97 110 45 0
0.8649 52.4319 -54.6451 0.687 0.723 0.075 19 105 56 0
0.6029 52.6842 -54.6744 0.687 0.723 0.075 18 104 55 0
33.7670 60.0108 -30.6545 0.960 0.277 0.043 34 109 66 0
-7.1881 70.7599 -50.0715 0.714 -0.687 0.137 46 114 73 0
-0.5697 73.0156 -44.8672 0.824 -0.007 0.566 64 122 83 0
-2.3547 73.8813 -45.5079 0.608 -0.300 0.735 67 124 87 0
-0.8755 73.7578 -44.6697 0.390 -0.717 0.578 68 125 88 0
-0.7646 73.9548 -44.5001 0.390 -0.717 0.578 69 126 91 0
-0.6540 74.1514 -44.3308 0.390 -0.717 0.578 71 128 93 0
-0.5437 74.3476 -44.1620 0.390 -0.717 0.578 71 128 93 0
0.5189 74.3111 -43.5328 0.390 -0.713 0.582 75 130 96 0
-0.3238 74.7384 -43.8256 0.390 -0.717 0.578 80 131 100 0
1.1590 75.4687 -42.5433 0.390 -0.713 0.582 186 185 177 0
5.2379 74.8531 -40.3740 0.819 -0.060 0.571 189 189 183 0
18.6824 33.1491 -54.0499 0.662 0.055 0.748 241 234 94 0
15.2495 43.8137 -50.6288 0.479 0.133 0.868 168 171 57 0
16.3451 44.4483 -49.6287 0.750 -0.525 0.402 140 150 53 0
14.5128 45.0913 -50.4182 0.479 0.133 0.868 113 127 49 0
0.7755 52.5509 -54.9705 0.687 0.723 0.075 20 106 57 0
0.5128 52.8038 -55.0004 0.687 0.723 0.075 18 105 55 0
-0.6863 72.7232 -45.4164 0.765 -0.267 0.587 57 120 78 0
0.0654 73.2190 -44.6990 0.851 -0.014 0.525 64 122 84 0
-0.5876 73.8185 -44.7885 0.390 -0.717 0.578 65 123 85 0
-0.4772 74.0152 -44.6190 0.390 -0.717 0.578 66 123 87 0
-0.3671 74.2115 -44.4499 0.390 -0.717 0.578 68 125 90 0
0.8027 74.3699 -43.6511 0.390 -0.713 0.582 73 129 95 0
-0.0384 74.7974 -43.9450 0.390 -0.717 0.578 78 131 100 0
0.0707 74.9917 -43.7775 0.390 -0.717 0.578 85 132 104 0
1.3343 75.3340 -42.8260 0.390 -0.713 0.582 179 182 173 0
1.4398 75.5254 -42.6622 0.390 -0.713 0.582 184 184 175 0
18.8387 33.2487 -54.1955 0.662 0.055 0.748 242 236 97 0
13.1839 43.6847 -52.2644 0.391 0.235 0.890 169 172 56 0
16.4935 44.5417 -49.7833 0.750 -0.525 0.402 140 150 54 0
14.7148 45.1854 -50.5442 0.479 0.133 0.868 111 127 50 0
16.5085 48.7069 -47.6144 0.404 -0.754 0.518 24 107 61 0
14.7260 50.8765 -47.5864 0.825 0.565 0.019 18 105 56 0
30.4269 59.5776 -33.4124 0.936 -0.352 0.012 23 106 66 0
0.1890 73.3181 -44.8966 0.851 -0.014 0.525 61 121 83 0
-0.4107 73.6823 -45.0768 0.390 -0.717 0.578 63 122 84 0
-0.3006 73.8791 -44.9070 0.390 -0.717 0.578 64 123 85 0
-0.5336 74.1579 -44.9059 0.824 -0.007 0.566 64 122 86 0
1.4039 75.0074 -43.2731 0.390 -0.713 0.582 109 142 118 0
19.3164 32.5319 -54.5657 0.662 0.055 0.748 237 233 114 0
16.1905 32.6193 -56.4526 0.935 -0.271 -0.229 238 233 104 0
18.9948 33.3482 -54.3408 0.662 0.055 0.748 239 237 98 0
16.6417 44.6350 -49.9378 0.750 -0.525 0.402 137 150 51 0
14.4953 44.8564 -51.1497 0.486 0.135 0.864 130 144 50 0
14.3727 45.0708 -51.1141 0.486 0.135 0.864 121 137 51 0
14.9164 45.2794 -50.6699 0.479 0.133 0.868 109 128 51 0
14.8111 50.7624 -47.8893 0.825 0.565 0.019 21 108 59 0
11.5826 70.3526 -39.7180 0.591 0.674 0.444 53 119 77 0
11.3030 70.6203 -39.7520 0.591 0.674 0.444 57 120 79 0
-0.1239 73.7431 -45.1949 0.390 -0.717 0.578 60 121 82 0
-0.3888 74.0293 -45.2100 0.765 -0.267 0.587 61 122 83 0
-0.3997 74.2550 -45.0997 0.824 -0.007 0.566 62 122 85 0
-0.4576 74.4920 -45.0124 0.824 -0.007 0.566 63 124 88 0
1.5793 74.8728 -43.5557 0.390 -0.713 0.582 80 130 100 0
59.0239 65.7441 -12.7838 0.825 0.552 0.123 192 187 181 0
11.5725 85.3469 -31.9425 0.771 0.504 0.389 188 181 174 0
19.3916 32.8353 -54.6545 0.662 0.055 0.748 239 234 111 0
16.1426 32.6994 -56.7425 0.935 -0.271 -0.229 240 235 106 0
19.2311 33.2434 -54.5422 0.662 0.055 0.748 239 235 102 0
19.1507 33.4476 -54.4860 0.662 0.055 0.748 240 236 99 0
14.8173 44.7370 -51.3122 0.486 0.135 0.864 135 149 49 0
14.6952 44.9510 -51.2768 0.486 0.135 0.864 129 145 49 0
14.5729 45.1653 -51.2414 0.486 0.135 0.864 118 135 48 0
14.2945 51.5233 -48.1115 0.825 0.565 0.019 22 112 61 0
14.1432 51.7433 -48.0912 0.825 0.565 0.019 20 111 61 0
29.9357 60.3639 -33.8074 0.940 -0.342 0.007 19 106 63 0
12.4545 69.6625 -39.8313 0.591 0.674 0.444 50 119 75 0
11.9011 70.1928 -39.8994 0.591 0.674 0.444 51 118 75 0
11.6227 70.4596 -39.9337 0.591 0.674 0.444 51 119 75 0
11.3430 70.7276 -39.9682 0.591 0.674 0.444 54 120 78 0
-0.2216 74.1184 -45.3873 0.765 -0.267 0.587 59 121 82 0
-0.2659 74.3521 -45.2934 0.824 -0.007 0.566 59 120 83 0
1.8596 74.9304 -43.6732 0.390 -0.713 0.582 79 130 98 0
59.0900 65.6809 -12.9435 0.825 0.552 0.123 190 185 179 0
-0.0417 107.5177 -27.9257 0.831 0.552 -0.070 163 154 145 0
20.8566 0.0942 -71.0580 0.862 -0.441 -0.251 229 225 216 0
15.9618 33.8616 -56.5533 0.989 0.016 0.146 243 237 96 0
16.6630 34.5807 -55.7421 0.988 0.005 0.154 244 240 100 0
10.7004 37.6867 -57.8457 0.922 -0.263 -0.285 240 237 95 0
13.2154 38.9380 -55.6267 0.925 -0.258 -0.280 236 229 81 0
21.5286 43.7936 -47.9174 0.647 0.620 0.444 173 178 57 0
15.2597 44.4048 -51.5092 0.486 0.135 0.864 153 161 51 0
14.5307 51.1894 -48.4362 0.825 0.565 0.019 17 109 58 0
14.3798 51.4089 -48.4162 0.825 0.565 0.019 18 110 59 0
14.0771 51.8492 -48.3761 0.825 0.565 0.019 19 111 61 0
-6.9078 59.0131 -57.7386 0.522 -0.630 0.575 15 107 60 0
-6.8191 59.2492 -57.5605 0.522 -0.630 0.575 16 109 61 0
31.1929 63.9731 -31.3978 0.724 -0.679 0.121 41 113 68 0
11.6628 70.5667 -40.1496 0.591 0.674 0.444 51 119 75 0
-0.0743 74.2122 -45.5741 0.824 -0.007 0.566 57 119 81 0
-0.1322 74.4491 -45.4870 0.824 -0.007 0.566 56 120 82 0
5.6971 73.6659 -42.2588 0.385 -0.736 0.557 65 125 88 0
5.0924 74.8798 -42.0047 0.395 -0.725 0.565 166 173 164 0
20.7569 0.1060 -71.4202 0.862 -0.441 -0.251 229 224 218 0
15.9318 32.6281 -57.5171 0.935 -0.271 -0.229 239 233 112 0
16.0464 32.8601 -57.3245 0.935 -0.271 -0.229 241 235 107 0
10.4992 37.5421 -58.3627 0.922 -0.263 -0.285 243 237 96 0
10.6291 37.7767 -58.1592 0.922 -0.263 -0.285 240 237 98 0
13.1483 39.0276 -55.9301 0.925 -0.258 -0.280 236 229 81 0
21.7664 43.6828 -48.1089 0.647 0.620 0.444 178 182 54 0
21.5822 43.8829 -48.1201 0.647 0.620 0.444 172 176 55 0
15.3368 44.7125 -51.6006 0.486 0.135 0.864 141 156 52 0
15.7623 45.1343 -51.1146 0.479 0.133 0.868 122 140 49 0
14.9720 45.3538 -51.4954 0.486 0.135 0.864 109 129 47 0
14.4653 51.2943 -48.7212 0.825 0.565 0.019 18 110 59 0
14.3141 51.5142 -48.7014 0.825 0.565 0.019 18 110 59 0
14.1626 51.7346 -48.6817 0.825 0.565 0.019 19 110 59 0
14.0107 51.9554 -48.6618 0.825 0.565 0.019 19 111 61 0
12.9390 53.5142 -48.5219 0.825 0.565 0.019 14 107 60 0
-6.6418 59.1079 -57.8766 0.522 -0.630 0.575 12 105 58 0
-6.5534 59.3436 -57.6985 0.522 -0.630 0.575 13 107 59 0
15.9268 68.7035 -38.7453 0.948 0.164 -0.274 47 114 70 0
11.7029 70.6739 -40.3658 0.591 0.674 0.444 49 117 73 0
0.1121 74.2964 -45.7412 0.765 -0.267 0.587 54 118 81 0
0.9473 74.3147 -45.2085 0.390 -0.717 0.578 54 120 80 0
5.9681 73.7221 -42.3717 0.385 -0.736 0.557 64 124 86 0
5.1479 74.5658 -42.4465 0.395 -0.725 0.565 99 138 111 0
5.2545 74.7509 -42.2834 0.395 -0.725 0.565 149 172 155 0
5.3608 74.9356 -42.1206 0.395 -0.725 0.565 164 172 161 0
1.5854 108.1736 -27.1874 0.840 0.534 -0.097 254 254 254 0
1.4029 108.4673 -27.1489 0.840 0.534 -0.097 254 255 255 0
20.6568 0.1177 -71.7837 0.862 -0.441 -0.251 232 224 220 0
14.4484 30.9890 -59.6085 0.930 -0.284 -0.232 230 225 184 0
13.0725 31.2761 -60.3246 0.919 -0.331 -0.212 227 220 149 0
13.2089 31.5185 -60.1126 0.919 -0.331 -0.212 230 223 137 0
15.9981 32.9408 -57.6167 0.935 -0.271 -0.229 240 235 108 0
17.6752 35.4885 -55.2343 0.826 -0.035 0.563 244 237 94 0
17.6291 35.6995 -55.1535 0.826 -0.035 0.563 244 238 92 0
10.4274 37.6322 -58.6779 0.922 -0.263 -0.285 242 237 94 0
10.5576 37.8670 -58.4737 0.922 -0.263 -0.285 242 237 98 0
13.0811 39.1175 -56.2345 0.925 -0.258 -0.280 235 229 81 0
22.0037 43.5723 -48.2999 0.647 0.620 0.444 184 185 57 0
21.8200 43.7720 -48.3114 0.647 0.620 0.444 178 180 55 0
21.6359 43.9723 -48.3229 0.647 0.620 0.444 172 176 55 0
15.5350 44.8069 -51.7268 0.486 0.135 0.864 136 153 50 0
15.1710 45.4478 -51.6220 0.486 0.135 0.864 103 126 47 0
15.7187 45.6534 -51.1702 0.479 0.133 0.868 88 116 46 0
15.4749 46.0804 -51.1012 0.479 0.133 0.868 62 104 45 0
15.3528 46.2944 -51.0666 0.479 0.133 0.868 54 103 49 0
19.4320 47.0321 -48.1157 0.497 0.130 0.858 37 108 58 0
10.3854 51.6616 -51.3961 0.657 0.735 0.165 17 109 58 0
14.2481 51.6199 -48.9875 0.825 0.565 0.019 18 110 59 0
14.0963 51.8407 -48.9680 0.825 0.565 0.019 18 110 59 0
12.8704 53.6238 -48.8104 0.825 0.565 0.019 14 107 60 0
1.0148 73.9844 -45.6636 0.390 -0.717 0.578 52 117 78 0
5.6284 74.9913 -42.2362 0.395 -0.725 0.565 162 172 160 0
6.1672 75.4827 -41.6413 0.819 -0.060 0.571 182 183 175 0
6.1224 75.7048 -41.5537 0.819 -0.060 0.571 183 184 176 0
1.3911 108.4247 -27.4862 0.840 0.534 -0.097 255 254 254 0
14.2739 30.8289 -60.1121 0.930 -0.284 -0.232 230 225 193 0
14.3980 31.0688 -59.9086 0.930 -0.284 -0.232 229 223 184 0
13.0343 31.3589 -60.6191 0.919 -0.331 -0.212 226 220 150 0
14.8906 32.0211 -59.1007 0.930 -0.284 -0.232 234 227 133 0
15.1348 32.4930 -58.7004 0.930 -0.284 -0.232 237 232 118 0
10.3553 37.7225 -58.9941 0.922 -0.263 -0.285 241 235 92 0
23.8656 43.0799 -47.6628 0.941 0.220 -0.255 196 194 61 0
22.2405 43.4620 -48.4906 0.647 0.620 0.444 186 187 60 0
15.8536 44.6882 -51.8875 0.486 0.135 0.864 146 156 50 0
15.7329 44.9010 -51.8528 0.486 0.135 0.864 136 151 49 0
15.6120 45.1142 -51.8180 0.486 0.135 0.864 124 143 48 0
15.4909 45.3277 -51.7832 0.486 0.135 0.864 115 136 48 0
15.3696 45.5416 -51.7484 0.486 0.135 0.864 101 126 47 0
15.9184 45.7465 -51.2948 0.479 0.133 0.868 85 115 45 0
15.6751 46.1732 -51.2260 0.479 0.133 0.868 58 102 46 0
15.5532 46.3870 -51.1915 0.479 0.133 0.868 53 106 51 0
15.4311 46.6012 -51.1570 0.479 0.133 0.868 50 110 57 0
19.7352 46.9143 -48.2737 0.497 0.130 0.858 44 112 59 0
19.6209 47.1204 -48.2385 0.497 0.130 0.858 39 111 59 0
23.5654 47.4025 -45.5986 0.874 -0.344 -0.343 34 111 59 0
23.7166 47.5926 -45.4040 0.874 -0.344 -0.343 34 113 62 0
10.0824 52.0052 -51.7195 0.657 0.735 0.165 17 111 59 0
6.5080 73.8341 -42.5967 0.385 -0.736 0.557 62 122 84 0
5.5784 74.4933 -42.8404 0.395 -0.725 0.565 69 126 89 0
5.6843 74.6783 -42.6770 0.395 -0.725 0.565 90 134 106 0
5.7899 74.8628 -42.5141 0.395 -0.725 0.565 143 171 150 0
5.8953 75.0468 -42.3515 0.395 -0.725 0.565 160 172 159 0
6.0004 75.2304 -42.1893 0.395 -0.725 0.565 172 178 164 0
6.2549 75.7945 -41.7344 0.819 -0.060 0.571 182 183 175 0
57.5259 67.1836 -13.8230 0.827 0.548 0.126 192 187 181 0
24.3803 90.6269 -22.5461 0.422 -0.412 0.808 173 163 153 0
16.1028 31.1374 -59.1013 0.671 -0.414 0.615 232 225 197 0
14.3474 31.1487 -60.2096 0.930 -0.284 -0.232 231 224 189 0
14.7182 31.8646 -59.6006 0.930 -0.284 -0.232 231 224 146 0
14.8410 32.1018 -59.3988 0.930 -0.284 -0.232 232 225 137 0
15.0331 32.3460 -59.1495 0.932 -0.275 -0.235 234 228 127 0
15.1528 32.5814 -58.9507 0.932 -0.275 -0.235 237 231 123 0
16.0160 33.3348 -58.0095 0.935 -0.271 -0.229 240 234 112 0
22.2942 43.5510 -48.6928 0.647 0.620 0.444 185 187 62 0
15.9303 44.9950 -51.9785 0.486 0.135 0.864 135 147 48 0
15.8097 45.2081 -51.9439 0.486 0.135 0.864 124 140 48 0
15.6889 45.4215 -51.9092 0.486 0.135 0.864 114 133 47 0
15.8749 46.2658 -51.3505 0.479 0.133 0.868 56 103 47 0
15.7533 46.4795 -51.3162 0.479 0.133 0.868 54 109 52 0
15.6315 46.6936 -51.2818 0.479 0.133 0.868 50 112 56 0
23.4942 47.4951 -45.8727 0.874 -0.344 -0.343 35 112 60 0
23.6457 47.6853 -45.6772 0.874 -0.344 -0.343 33 111 61 0
5.7402 74.3645 -43.1188 0.395 -0.725 0.565 65 123 86 0
6.1614 75.1022 -42.4665 0.395 -0.725 0.565 160 174 161 0
6.2661 75.2855 -42.3044 0.395 -0.725 0.565 171 176 164 0
6.4321 75.6621 -42.0025 0.819 -0.060 0.571 183 183 175 0
16.2699 31.0210 -59.3620 0.671 -0.414 0.615 234 226 207 0
14.4209 31.4684 -60.3071 0.930 -0.284 -0.232 230 222 182 0
14.6682 31.9454 -59.9003 0.930 -0.284 -0.232 229 221 149 0
14.9140 32.4196 -59.4958 0.930 -0.284 -0.232 234 227 132 0
15.6210 32.7179 -58.8893 0.935 -0.271 -0.229 237 230 127 0
12.9162 38.7235 -57.4765 0.914 0.381 -0.143 238 232 87 0
12.4267 40.0377 -57.1020 0.914 0.381 -0.143 229 224 73 0
12.3449 40.2573 -57.0394 0.914 0.381 -0.143 227 221 71 0
16.1274 45.0888 -52.1041 0.486 0.135 0.864 134 145 50 0
15.3251 45.3084 -52.5008 0.920 0.369 0.134 120 136 49 0
15.2316 45.5227 -52.4485 0.920 0.369 0.134 110 130 48 0
15.1380 45.7372 -52.3961 0.920 0.369 0.134 95 120 45 0
15.0443 45.9519 -52.3437 0.920 0.369 0.134 77 110 44 0
14.8567 46.3820 -52.2387 0.920 0.369 0.134 57 108 53 0
15.9530 46.5718 -51.4406 0.479 0.133 0.868 54 112 57 0
15.8315 46.7857 -51.4063 0.479 0.133 0.868 49 116 58 0
23.5746 47.7784 -45.9513 0.874 -0.344 -0.343 32 111 61 0
9.4704 52.6990 -52.3727 0.657 0.735 0.165 20 114 63 0
11.5838 71.3739 -41.2698 0.591 0.674 0.444 44 115 71 0
12.2301 71.6212 -40.7286 0.752 -0.280 0.596 47 116 72 0
12.2245 71.8241 -40.6262 0.752 -0.280 0.596 49 117 73 0
12.2190 72.0268 -40.5238 0.752 -0.280 0.596 54 117 76 0
7.4813 74.6711 -42.1629 0.385 -0.736 0.557 140 167 149 0
7.5898 74.8513 -41.9996 0.385 -0.736 0.557 160 174 161 0
7.6980 75.0311 -41.8367 0.385 -0.736 0.557 169 175 164 0
1.5558 76.8778 -44.7878 0.393 -0.714 0.579 178 181 170 0
6.5644 75.7517 -42.1829 0.819 -0.060 0.571 183 184 176 0
14.2314 74.2810 -38.0633 0.669 -0.521 0.530 184 187 180 0
16.4756 31.3517 -59.3642 0.671 -0.414 0.615 231 224 201 0
14.3236 31.3184 -60.7594 0.932 -0.275 -0.235 230 224 196 0
14.6180 32.0264 -60.2007 0.930 -0.284 -0.232 226 220 153 0
14.7414 32.2641 -59.9975 0.930 -0.284 -0.232 230 223 143 0
14.8644 32.5010 -59.7949 0.930 -0.284 -0.232 233 226 136 0
14.9870 32.7372 -59.5928 0.930 -0.284 -0.232 237 229 129 0
12.2564 40.3493 -57.3611 0.914 0.381 -0.143 227 221 75 0
32.4010 41.7838 -43.7122 0.871 0.412 0.267 220 213 70 0
22.0351 44.1296 -49.1231 0.647 0.620 0.444 173 177 54 0
15.4169 45.1903 -52.8062 0.920 0.369 0.134 129 142 52 0
15.3234 45.4046 -52.7540 0.920 0.369 0.134 115 132 49 0
15.2298 45.6192 -52.7017 0.920 0.369 0.134 106 127 48 0
15.1361 45.8339 -52.6495 0.920 0.369 0.134 90 118 46 0
15.0423 46.0489 -52.5971 0.920 0.369 0.134 72 109 45 0
14.9484 46.2641 -52.5447 0.920 0.369 0.134 63 108 52 0
14.8545 46.4795 -52.4922 0.920 0.369 0.134 59 110 57 0
23.1981 47.4901 -46.6212 0.874 -0.344 -0.343 35 118 62 0
23.3510 47.6813 -46.4234 0.874 -0.344 -0.343 33 116 62 0
11.9042 71.2115 -41.4496 0.591 0.674 0.444 45 115 69 0
11.6241 71.4821 -41.4875 0.591 0.674 0.444 46 116 71 0
11.3428 71.7538 -41.5255 0.591 0.674 0.444 47 115 72 0
12.3846 71.7006 -40.8863 0.752 -0.280 0.596 48 116 72 0
12.3790 71.9034 -40.7838 0.752 -0.280 0.596 47 115 72 0
12.3734 72.1060 -40.6815 0.752 -0.280 0.596 50 117 74 0
7.2026 73.8186 -43.0970 0.385 -0.736 0.557 55 121 81 0
7.3119 74.0008 -42.9317 0.385 -0.736 0.557 59 123 85 0
7.6383 74.5448 -42.4382 0.385 -0.736 0.557 89 129 104 0
7.7466 74.7252 -42.2746 0.385 -0.736 0.557 138 166 147 0
7.8546 74.9051 -42.1114 0.385 -0.736 0.557 157 173 159 0
7.9623 75.0846 -41.9486 0.385 -0.736 0.557 166 174 164 0
1.8329 76.9340 -44.9063 0.393 -0.714 0.579 176 179 171 0
6.6967 75.8413 -42.3633 0.819 -0.060 0.571 180 182 175 0
6.6519 76.0633 -42.2759 0.819 -0.060 0.571 182 183 176 0
14.3573 74.1680 -38.3330 0.669 -0.521 0.530 182 183 177 0
14.4017 74.3516 -38.2085 0.669 -0.521 0.530 183 184 179 0
26.5182 78.9053 -28.0692 0.909 -0.089 0.406 192 188 178 0
23.3899 91.7814 -23.3397 0.411 -0.404 0.817 171 162 154 0
16.6423 31.2353 -59.6244 0.671 -0.414 0.615 233 226 207 0
16.6615 31.4585 -59.4953 0.671 -0.414 0.615 231 224 203 0
14.2705 31.3987 -61.0643 0.932 -0.275 -0.235 229 223 198 0
14.3927 31.6383 -60.8603 0.932 -0.275 -0.235 229 223 189 0
14.5678 32.1077 -60.5020 0.930 -0.284 -0.232 226 220 162 0
14.6914 32.3455 -60.2981 0.930 -0.284 -0.232 229 222 150 0
15.6386 33.1144 -59.2865 0.935 -0.271 -0.229 236 229 126 0
14.7925 44.8626 -53.6821 0.919 0.373 0.125 148 154 55 0
14.6978 45.0783 -53.6300 0.919 0.373 0.125 138 147 53 0
15.3216 45.5010 -53.0076 0.920 0.369 0.134 112 129 49 0
15.2280 45.7158 -52.9554 0.920 0.369 0.134 102 123 47 0
15.1342 45.9308 -52.9032 0.920 0.369 0.134 84 114 44 0
15.0403 46.1460 -52.8510 0.920 0.369 0.134 67 107 44 0
17.5362 47.5606 -50.5055 0.586 -0.678 0.443 35 118 62 0
17.6408 47.7649 -50.3313 0.586 -0.678 0.443 34 119 62 0
17.7451 47.9686 -50.1576 0.586 -0.678 0.443 33 118 64 0
17.8491 48.1718 -49.9844 0.586 -0.678 0.443 32 116 66 0
15.2794 69.9221 -40.2537 0.948 0.164 -0.274 42 111 67 0
12.5446 71.5773 -41.1462 0.752 -0.280 0.596 47 115 71 0
12.5390 71.7800 -41.0437 0.752 -0.280 0.596 49 118 74 0
12.5333 71.9826 -40.9413 0.752 -0.280 0.596 49 118 74 0
12.5277 72.1851 -40.8389 0.752 -0.280 0.596 49 118 75 0
8.0111 74.7791 -42.3860 0.385 -0.736 0.557 137 166 146 0
8.1186 74.9587 -42.2229 0.385 -0.736 0.557 156 172 159 0
8.2258 75.1379 -42.0601 0.385 -0.736 0.557 165 173 164 0
6.8288 75.9309 -42.5435 0.819 -0.060 0.571 178 179 173 0
14.5718 74.4221 -38.3536 0.669 -0.521 0.530 182 183 178 0
26.5982 78.9863 -28.2305 0.909 -0.089 0.406 192 187 178 0
26.5798 79.1617 -28.1506 0.909 -0.089 0.406 193 186 178 0
16.8471 31.5652 -59.6262 0.671 -0.414 0.615 232 226 207 0
14.2172 31.4793 -61.3699 0.932 -0.275 -0.235 230 224 201 0
14.6412 32.4272 -60.5995 0.930 -0.284 -0.232 227 222 153 0
15.5892 33.1962 -59.5842 0.935 -0.271 -0.229 236 228 125 0
15.7054 33.4297 -59.3869 0.935 -0.271 -0.229 237 231 119 0
15.3063 33.6119 -59.5492 0.932 -0.275 -0.235 238 232 115 0
15.4255 33.8455 -59.3499 0.932 -0.275 -0.235 239 233 113 0
15.6630 34.3105 -58.9529 0.932 -0.275 -0.235 242 235 101 0
21.4888 41.2566 -51.5511 0.933 -0.315 -0.173 224 217 73 0
30.7782 42.0859 -45.1166 0.913 0.376 0.160 217 209 77 0
30.0219 42.2554 -45.5163 0.914 0.372 0.163 216 208 74 0
18.6274 44.7266 -51.5816 0.916 0.379 0.132 152 158 57 0
15.3199 45.5976 -53.2617 0.920 0.369 0.134 110 127 50 0
15.2261 45.8126 -53.2096 0.920 0.369 0.134 100 122 48 0
17.8368 47.8544 -50.4537 0.586 -0.678 0.443 32 120 62 0
18.0444 48.2607 -50.1068 0.586 -0.678 0.443 31 118 67 0
15.1666 70.2601 -40.4411 0.948 0.164 -0.274 41 110 66 0
12.6988 71.6566 -41.3035 0.752 -0.280 0.596 47 115 71 0
12.6932 71.8592 -41.2010 0.752 -0.280 0.596 48 117 73 0
12.6875 72.0617 -41.0986 0.752 -0.280 0.596 48 117 73 0
12.6818 72.2641 -40.9962 0.752 -0.280 0.596 50 118 76 0
7.6271 73.7476 -43.4840 0.385 -0.736 0.557 53 120 79 0
6.5965 74.2207 -43.9018 0.395 -0.725 0.565 55 122 82 0
6.7008 74.4054 -43.7377 0.395 -0.725 0.565 58 122 85 0
8.2748 74.8329 -42.4971 0.385 -0.736 0.557 136 164 146 0
8.3818 75.0122 -42.3340 0.385 -0.736 0.557 157 171 160 0
8.4886 75.1911 -42.1714 0.385 -0.736 0.557 166 172 165 0
9.2832 75.1837 -41.6620 0.378 -0.719 0.583 172 175 169 0
8.2870 94.3640 -32.2578 0.826 -0.243 0.509 178 171 161 0
-1.8281 107.9565 -31.6707 0.628 0.409 0.662 166 156 151 0
17.3939 31.2747 -59.7305 0.930 -0.280 -0.238 233 227 211 0
17.0324 31.6717 -59.7569 0.671 -0.414 0.615 233 228 208 0
14.5909 32.5091 -60.9017 0.930 -0.284 -0.232 226 221 161 0
14.7146 32.7466 -60.6969 0.930 -0.284 -0.232 229 221 153 0
14.8945 32.9893 -60.4530 0.932 -0.275 -0.235 232 224 142 0
15.0150 33.2251 -60.2511 0.932 -0.275 -0.235 236 227 133 0
15.1352 33.4602 -60.0499 0.932 -0.275 -0.235 237 230 125 0
15.2550 33.6946 -59.8492 0.932 -0.275 -0.235 239 232 120 0
16.1431 34.2219 -58.9966 0.405 0.371 0.835 241 234 109 0
15.6125 34.3938 -59.2507 0.932 -0.275 -0.235 241 235 103 0
18.6247 44.8198 -51.8298 0.916 0.379 0.132 150 157 56 0
14.0058 45.2785 -54.5856 0.917 0.379 0.121 132 141 53 0
14.5942 45.4886 -54.0937 0.919 0.373 0.125 120 133 52 0
15.3181 45.6944 -53.5162 0.920 0.369 0.134 105 122 48 0
15.1303 46.1251 -53.4122 0.920 0.369 0.134 79 109 44 0
14.8615 46.3442 -53.4717 0.480 0.105 0.871 69 109 51 0
14.9005 46.7717 -53.2222 0.483 0.124 0.867 60 118 67 0
17.9286 47.7401 -50.7501 0.586 -0.678 0.443 32 119 63 0
18.0324 47.9438 -50.5759 0.586 -0.678 0.443 31 120 62 0
18.2393 48.3494 -50.2290 0.586 -0.678 0.443 30 118 67 0
7.9423 50.1044 -55.9887 0.887 -0.336 -0.316 23 117 62 0
12.8529 71.7359 -41.4606 0.752 -0.280 0.596 47 115 71 0
12.8415 72.1407 -41.2557 0.752 -0.280 0.596 47 116 72 0
12.8358 72.3430 -41.1534 0.752 -0.280 0.596 50 118 76 0
6.9655 74.4616 -43.8506 0.395 -0.725 0.565 57 121 84 0
8.5378 74.8866 -42.6079 0.385 -0.736 0.557 130 159 141 0
8.6443 75.0655 -42.4449 0.385 -0.736 0.557 157 169 159 0
9.4496 75.0559 -41.9276 0.378 -0.719 0.583 165 171 165 0
9.5475 75.2349 -41.7702 0.378 -0.719 0.583 171 175 168 0
-2.8889 80.1954 -47.2369 0.668 -0.530 0.522 185 186 180 0
-2.8353 80.4066 -47.0914 0.668 -0.530 0.522 185 186 181 0
8.4216 94.2463 -32.5320 0.826 -0.243 0.509 179 171 161 0
8.4174 94.4432 -32.4315 0.826 -0.243 0.509 178 171 161 0
19.7873 0.6662 -74.5419 0.898 -0.394 -0.197 235 224 223 0
17.2363 32.0002 -59.7585 0.671 -0.414 0.615 231 227 203 0
14.5997 32.5975 -61.1628 0.932 -0.275 -0.235 226 221 166 0
14.6644 32.8290 -60.9992 0.930 -0.284 -0.232 228 220 158 0
14.7880 33.0660 -60.7943 0.930 -0.284 -0.232 230 222 146 0
14.9113 33.3024 -60.5899 0.930 -0.284 -0.232 234 225 137 0
15.0341 33.5380 -60.3862 0.930 -0.284 -0.232 236 228 129 0
15.2037 33.7775 -60.1500 0.932 -0.275 -0.235 237 230 123 0
16.3252 34.3261 -59.1313 0.405 0.371 0.835 239 233 113 0
23.6621 37.8605 -52.4962 0.397 0.367 0.841 240 234 93 0
23.4969 38.0533 -52.5025 0.397 0.367 0.841 240 234 93 0
23.3314 38.2466 -52.5090 0.397 0.367 0.841 240 234 94 0
30.1167 42.2328 -45.9960 0.914 0.372 0.163 214 209 74 0
14.5897 45.5861 -54.3524 0.919 0.373 0.125 117 131 53 0
15.3164 45.7913 -53.7712 0.920 0.369 0.134 101 120 49 0
15.1016 46.8650 -53.3477 0.483 0.124 0.867 58 120 68 0
16.5846 47.6716 -51.9581 0.479 0.133 0.868 36 121 66 0
7.8734 50.2146 -56.2991 0.887 -0.336 -0.316 24 119 63 0
42.5980 61.9390 -27.5213 0.366 0.388 0.846 27 110 61 0
28.3635 66.9561 -34.1624 0.812 0.583 0.007 43 112 68 0
13.0068 71.8152 -41.6175 0.752 -0.280 0.596 45 113 70 0
13.0011 72.0175 -41.5151 0.752 -0.280 0.596 47 114 71 0
12.9953 72.2197 -41.4127 0.752 -0.280 0.596 49 115 74 0
12.9896 72.4218 -41.3104 0.752 -0.280 0.596 51 116 77 0
9.5181 74.7486 -42.3510 0.378 -0.719 0.583 125 155 137 0
9.6160 74.9281 -42.1930 0.378 -0.719 0.583 157 167 160 0
9.7136 75.1072 -42.0353 0.378 -0.719 0.583 163 170 165 0
9.8111 75.2859 -41.8781 0.378 -0.719 0.583 169 175 168 0
-2.6393 80.4878 -47.2598 0.668 -0.530 0.522 185 186 180 0
17.8256 -1.7992 -77.4358 0.864 -0.428 -0.263 255 255 255 0
19.7266 0.6973 -74.8803 0.898 -0.394 -0.197 233 222 222 0
18.0949 31.9647 -59.5221 0.660 -0.404 0.634 231 229 208 0
17.4209 32.1062 -59.8888 0.671 -0.414 0.615 231 227 204 0
17.5291 32.3380 -59.6962 0.677 -0.412 0.610 229 225 199 0
14.4248 32.4413 -61.6732 0.932 -0.275 -0.235 228 223 186 0
14.6141 32.9115 -61.3023 0.930 -0.284 -0.232 228 220 167 0
14.7379 33.1488 -61.0967 0.930 -0.284 -0.232 230 220 155 0
14.8614 33.3853 -60.8916 0.930 -0.284 -0.232 232 222 144 0
15.0318 33.6258 -60.6538 0.932 -0.275 -0.235 233 224 135 0
16.1589 34.8393 -59.2788 0.405 0.371 0.835 240 234 110 0
15.9842 35.0446 -59.2852 0.405 0.371 0.835 241 234 109 0
15.8090 35.2505 -59.2917 0.405 0.371 0.835 242 235 104 0
23.8350 37.9551 -52.6190 0.397 0.367 0.841 240 235 92 0
23.6703 38.1479 -52.6255 0.397 0.367 0.841 239 234 92 0
15.3435 43.9544 -55.0238 0.919 0.373 0.125 183 182 62 0
15.0599 44.6012 -54.8696 0.919 0.373 0.125 162 169 59 0
13.9941 45.4744 -55.1083 0.917 0.379 0.121 125 137 56 0
14.5853 45.6837 -54.6115 0.919 0.373 0.125 114 127 55 0
14.4901 45.9009 -54.5597 0.919 0.373 0.125 97 116 52 0
15.3022 46.9581 -53.4729 0.483 0.124 0.867 56 123 68 0
16.7828 47.7624 -52.0815 0.479 0.133 0.868 38 123 68 0
8.3021 49.6231 -56.6534 0.886 -0.339 -0.317 26 121 65 0
8.4643 49.8408 -56.4330 0.886 -0.339 -0.317 25 120 64 0
8.6259 50.0576 -56.2133 0.886 -0.339 -0.317 25 119 65 0
10.6442 51.9359 -53.9058 0.705 -0.678 0.207 23 117 67 0
4.3838 60.5909 -53.4556 0.877 0.453 0.159 13 109 61 0
7.2868 74.2057 -44.4036 0.395 -0.725 0.565 51 115 78 0
9.7822 74.8004 -42.4583 0.378 -0.719 0.583 121 153 135 0
9.8797 74.9797 -42.3004 0.378 -0.719 0.583 156 167 160 0
9.9769 75.1585 -42.1428 0.378 -0.719 0.583 162 169 165 0
10.0739 75.3368 -41.9856 0.378 -0.719 0.583 167 174 167 0
17.7063 -1.7948 -77.8343 0.864 -0.428 -0.263 255 255 255 0
19.6658 0.7285 -75.2198 0.898 -0.394 -0.197 233 223 222 0
18.2815 32.0703 -59.6489 0.660 -0.404 0.634 232 230 208 0
18.2959 32.2902 -59.5238 0.660 -0.404 0.634 233 230 206 0
17.7113 32.4432 -59.8275 0.677 -0.412 0.610 232 228 204 0
17.6423 32.6547 -59.7616 0.671 -0.414 0.615 231 225 198 0
14.8590 33.4732 -61.1604 0.932 -0.275 -0.235 229 222 151 0
14.9348 33.7046 -60.9890 0.930 -0.284 -0.232 231 225 140 0
15.1005 33.9440 -60.7542 0.932 -0.275 -0.235 232 227 132 0
15.0999 34.1671 -60.6372 0.529 -0.556 0.641 235 230 127 0
16.3411 34.9432 -59.4134 0.405 0.371 0.835 240 233 112 0
15.4649 35.9748 -59.4468 0.405 0.371 0.835 242 233 103 0
19.5927 36.9275 -56.2332 0.420 0.359 0.833 241 234 94 0
19.4271 37.1284 -56.2363 0.420 0.359 0.833 241 234 93 0
24.0077 38.0495 -52.7416 0.397 0.367 0.841 238 232 93 0
23.6785 38.4355 -52.7551 0.397 0.367 0.841 238 233 91 0
23.5132 38.6292 -52.7618 0.397 0.367 0.841 239 233 91 0
18.2437 38.7615 -56.1553 0.412 0.358 0.838 237 232 88 0
23.0149 39.2135 -52.7821 0.397 0.367 0.841 237 232 87 0
18.3633 43.6362 -53.5134 0.772 -0.632 0.074 190 189 68 0
15.1506 44.4817 -55.1802 0.919 0.373 0.125 171 171 62 0
15.0559 44.6977 -55.1288 0.919 0.373 0.125 162 166 60 0
14.9611 44.9140 -55.0774 0.919 0.373 0.125 150 157 58 0
14.8662 45.1306 -55.0259 0.919 0.373 0.125 141 148 59 0
13.9882 45.5726 -55.3704 0.917 0.379 0.121 125 135 60 0
14.5808 45.7815 -54.8711 0.919 0.373 0.125 113 126 59 0
16.9807 47.8531 -52.2046 0.479 0.133 0.868 38 124 69 0
10.7872 52.0320 -54.0775 0.705 -0.678 0.207 20 117 66 0
4.3722 60.7101 -53.7300 0.877 0.453 0.159 15 110 62 0
4.2387 60.9547 -53.6892 0.877 0.453 0.159 14 109 62 0
9.8509 74.4930 -42.8820 0.378 -0.719 0.583 66 123 90 0
9.9484 74.6728 -42.7234 0.378 -0.719 0.583 76 125 99 0
10.0456 74.8521 -42.5652 0.378 -0.719 0.583 116 152 134 0
10.1426 75.0310 -42.4074 0.378 -0.719 0.583 149 169 158 0
10.2394 75.2095 -42.2499 0.378 -0.719 0.583 159 169 162 0
10.3359 75.3876 -42.0929 0.378 -0.719 0.583 166 173 166 0
13.4467 74.7331 -40.3927 0.396 -0.730 0.556 170 176 170 0
-0.4462 79.4614 -47.0365 0.254 0.180 0.950 181 182 176 0
4.2764 79.6217 -43.8486 0.631 0.341 0.697 187 188 181 0
21.0640 92.9376 -25.8142 0.507 0.468 0.724 172 160 155 0
20.8127 93.2286 -25.8263 0.507 0.468 0.724 170 161 152 0
11.3716 99.5869 -28.6874 0.583 0.420 0.696 166 156 147 0
0.7966 105.1968 -32.6873 0.240 0.032 0.970 163 154 145 0
17.5865 -1.7904 -78.2346 0.864 -0.428 -0.263 255 255 255 0
18.8582 32.0033 -59.6086 0.972 0.097 -0.216 233 229 212 0
18.4678 32.1759 -59.7754 0.660 -0.404 0.634 232 230 208 0
17.8932 32.5482 -59.9587 0.677 -0.412 0.610 232 229 205 0
17.8261 32.7598 -59.8916 0.671 -0.414 0.615 232 227 202 0
14.6373 33.3150 -61.7040 0.930 -0.284 -0.232 226 220 169 0
14.7613 33.5519 -61.4975 0.930 -0.284 -0.232 228 221 157 0
14.8849 33.7882 -61.2916 0.930 -0.284 -0.232 230 224 145 0
15.0081 34.0237 -61.0863 0.930 -0.284 -0.232 230 225 139 0
15.1310 34.2586 -60.8816 0.930 -0.284 -0.232 232 227 133 0
15.3883 34.5048 -60.5821 0.529 -0.556 0.641 235 228 124 0
15.6487 36.0784 -59.5820 0.405 0.371 0.835 241 232 102 0
15.4725 36.2863 -59.5889 0.405 0.371 0.835 242 234 100 0
23.3556 39.1123 -52.8985 0.397 0.367 0.841 236 230 89 0
23.1895 39.3075 -52.9055 0.397 0.367 0.841 235 230 87 0
23.0229 39.5033 -52.9124 0.397 0.367 0.841 235 229 87 0
21.9308 39.6578 -53.5519 0.917 0.400 -0.015 234 229 87 0
14.9570 45.0110 -55.3371 0.919 0.373 0.125 149 153 62 0
14.8620 45.2278 -55.2857 0.919 0.373 0.125 141 146 63 0
14.7669 45.4448 -55.2342 0.919 0.373 0.125 134 140 63 0
14.6716 45.6621 -55.1827 0.919 0.373 0.125 124 134 63 0
14.5764 45.8795 -55.1312 0.919 0.373 0.125 110 125 60 0
15.6750 46.7179 -53.9648 0.480 0.105 0.871 70 124 67 0
17.6562 47.0915 -52.4606 0.479 0.133 0.868 54 127 71 0
19.6099 66.8846 -40.7534 0.370 0.383 0.846 25 109 62 0
10.1144 74.5452 -42.9884 0.378 -0.719 0.583 65 123 90 0
10.2115 74.7247 -42.8300 0.378 -0.719 0.583 77 124 98 0
10.3082 74.9037 -42.6719 0.378 -0.719 0.583 111 150 130 0
10.4048 75.0823 -42.5141 0.378 -0.719 0.583 144 171 158 0
10.5011 75.2605 -42.3568 0.378 -0.719 0.583 155 170 161 0
10.5972 75.4382 -42.1998 0.378 -0.719 0.583 164 171 164 0
13.6929 74.7842 -40.5008 0.396 -0.730 0.556 171 175 169 0
13.7909 74.9550 -40.3463 0.396 -0.730 0.556 172 177 171 0
-0.1177 79.5029 -47.1324 0.254 0.180 0.950 179 181 176 0
-0.3379 79.7884 -47.1275 0.254 0.180 0.950 181 181 175 0
4.4254 79.7083 -44.0258 0.631 0.341 0.697 187 188 180 0
1.7098 104.2855 -32.8824 0.240 0.032 0.970 163 153 145 0
1.3498 104.8690 -32.8129 0.240 0.032 0.970 162 154 143 0
-1.3457 110.7379 -31.5030 0.606 0.694 0.388 160 148 139 0
17.4663 -1.7859 -78.6365 0.864 -0.428 -0.263 255 255 255 0
18.6537 32.2812 -59.9018 0.660 -0.404 0.634 232 230 209 0
18.0748 32.6531 -60.0896 0.677 -0.412 0.610 234 230 209 0
18.0096 32.8648 -60.0213 0.671 -0.414 0.615 232 227 205 0
14.2120 32.6827 -62.6345 0.930 -0.284 -0.232 231 226 201 0
14.8349 33.8720 -61.5951 0.930 -0.284 -0.232 227 222 152 0
14.9584 34.1078 -61.3890 0.930 -0.284 -0.232 229 223 147 0
15.0815 34.3428 -61.1836 0.930 -0.284 -0.232 231 225 140 0
15.6236 34.6145 -60.6811 0.529 -0.556 0.641 234 228 130 0
16.8780 34.9458 -59.6751 0.405 0.371 0.835 237 230 124 0
18.2281 35.4964 -58.4901 0.671 -0.414 0.615 237 230 116 0
18.2462 35.7142 -58.3633 0.671 -0.414 0.615 240 231 116 0
23.5296 39.2063 -53.0215 0.397 0.367 0.841 236 230 92 0
23.1975 39.5971 -53.0357 0.397 0.367 0.841 234 229 88 0
21.8017 39.9452 -53.7776 0.917 0.400 -0.015 232 227 84 0
17.2980 44.0303 -54.6107 0.937 0.341 -0.073 181 181 70 0
17.2259 44.2425 -54.5467 0.937 0.341 -0.073 177 175 67 0
17.0815 44.6673 -54.4187 0.937 0.341 -0.073 167 167 63 0
17.0092 44.8799 -54.3546 0.937 0.341 -0.073 158 159 63 0
14.7626 45.5425 -55.4947 0.919 0.373 0.125 136 140 69 0
14.6673 45.7600 -55.4432 0.919 0.373 0.125 123 132 66 0
17.6141 47.6075 -52.5166 0.479 0.133 0.868 40 129 68 0
80.2781 51.8997 -8.7185 0.750 0.363 0.553 12 109 61 0
10.3772 74.5973 -43.0946 0.378 -0.719 0.583 64 123 89 0
10.5701 74.9551 -42.7782 0.378 -0.719 0.583 107 147 126 0
10.6662 75.1334 -42.6206 0.378 -0.719 0.583 144 169 156 0
10.7621 75.3112 -42.4633 0.378 -0.719 0.583 156 169 160 0
10.8578 75.4887 -42.3064 0.378 -0.719 0.583 165 171 164 0
14.0360 75.0057 -40.4542 0.396 -0.730 0.556 172 177 171 0
0.2097 79.5443 -47.2279 0.254 0.180 0.950 178 181 176 0
-2.7546 80.8448 -48.5076 0.703 -0.307 0.641 182 183 177 0
4.5742 79.7948 -44.2029 0.631 0.341 0.697 187 188 180 0
2.0782 104.2527 -32.9722 0.240 0.032 0.970 162 152 143 0
-1.3834 110.9132 -31.7578 0.606 0.694 0.388 155 142 136 0
-3.0837 112.0258 -32.2987 0.612 0.694 0.381 99 92 88 0
17.3455 -1.7814 -79.0401 0.864 -0.428 -0.263 255 255 255 0
18.8394 32.3863 -60.0280 0.660 -0.404 0.634 233 229 209 0
18.7118 32.5897 -60.0057 0.972 0.097 -0.216 235 230 210 0
18.1746 32.7490 -60.2793 0.671 -0.414 0.615 234 229 210 0
18.1928 32.9695 -60.1509 0.671 -0.414 0.615 233 228 208 0
14.3345 33.0102 -62.6979 0.932 -0.275 -0.235 230 226 198 0
14.4114 33.2440 -62.5234 0.930 -0.284 -0.232 228 223 191 0
14.7847 33.9561 -61.8994 0.930 -0.284 -0.232 227 222 161 0
14.9085 34.1921 -61.6926 0.930 -0.284 -0.232 229 223 155 0
15.0656 34.4304 -61.4623 0.932 -0.275 -0.235 230 224 146 0
15.1862 34.6646 -61.2585 0.932 -0.275 -0.235 232 226 134 0
18.4100 35.5984 -58.6200 0.671 -0.414 0.615 235 229 118 0
18.4280 35.8160 -58.4933 0.671 -0.414 0.615 235 228 118 0
21.4085 40.8436 -53.8580 0.917 0.400 -0.015 227 219 85 0
22.1491 41.0732 -53.2439 0.471 -0.085 0.878 226 218 84 0
14.7583 45.6404 -55.7556 0.919 0.373 0.125 134 140 76 0
18.4807 47.0528 -52.5328 0.586 -0.678 0.443 56 131 73 0
19.0968 48.2746 -51.4783 0.586 -0.678 0.443 37 125 71 0
24.8330 48.4435 -47.5706 0.882 -0.089 0.462 32 122 69 0
-0.0869 74.1483 -50.6049 0.814 0.581 0.012 34 109 65 0
-0.2830 74.4223 -50.5909 0.814 0.581 0.012 36 111 67 0
23.8297 69.4742 -37.1485 0.945 0.141 0.296 44 112 71 0
23.7788 69.6692 -37.0795 0.945 0.141 0.296 44 112 71 0
9.5335 74.1176 -44.2168 0.393 -0.720 0.572 49 115 76 0
10.6393 74.6492 -43.2004 0.378 -0.719 0.583 63 123 89 0
10.7354 74.8280 -43.0421 0.378 -0.719 0.583 68 125 94 0
10.8313 75.0064 -42.8842 0.378 -0.719 0.583 102 144 121 0
10.9269 75.1843 -42.7267 0.378 -0.719 0.583 144 166 153 0
11.0224 75.3619 -42.5695 0.378 -0.719 0.583 158 168 160 0
11.1176 75.5390 -42.4128 0.378 -0.719 0.583 163 172 164 0
14.1833 74.8859 -40.7163 0.396 -0.730 0.556 168 176 168 0
6.7439 77.5963 -44.2394 0.258 0.182 0.949 175 180 174 0
0.5359 79.5855 -47.3231 0.254 0.180 0.950 177 180 175 0
4.7230 79.8812 -44.3798 0.631 0.341 0.697 186 188 181 0
1.3769 81.5386 -45.7333 0.627 0.350 0.695 186 187 179 0
-3.1265 112.2066 -32.5591 0.612 0.694 0.381 99 92 89 0
17.2242 -1.7770 -79.4454 0.864 -0.428 -0.263 255 255 255 0
18.6338 32.6656 -60.3233 0.972 0.097 -0.216 236 230 211 0
18.6383 32.8841 -60.2050 0.972 0.097 -0.216 235 230 210 0
14.2810 33.0934 -63.0075 0.932 -0.275 -0.235 231 227 200 0
14.4040 33.3321 -62.7993 0.932 -0.275 -0.235 231 226 196 0
14.7344 34.0404 -62.2045 0.930 -0.284 -0.232 229 222 169 0
14.8584 34.2766 -61.9970 0.930 -0.284 -0.232 229 223 162 0
14.9820 34.5120 -61.7901 0.930 -0.284 -0.232 230 223 152 0
20.1318 37.7350 -56.6460 0.412 0.358 0.838 238 230 100 0
21.4541 40.7268 -54.1828 0.917 0.400 -0.015 229 219 88 0
22.3572 41.1675 -53.3465 0.471 -0.085 0.878 224 216 84 0
17.9750 43.3734 -55.1118 0.935 0.349 -0.063 197 194 78 0
16.9667 44.8583 -55.0022 0.937 0.341 -0.073 161 161 76 0
19.2189 48.1600 -51.7537 0.581 -0.679 0.449 39 128 74 0
24.9558 48.3349 -47.8260 0.882 -0.089 0.462 36 126 73 0
27.2937 52.1962 -44.2249 0.744 -0.643 0.181 20 117 68 0
-0.1949 74.3059 -50.9322 0.814 0.581 0.012 36 112 66 0
-0.3915 74.5807 -50.9186 0.814 0.581 0.012 36 112 66 0
13.3716 72.8323 -42.6402 0.385 -0.733 0.560 45 112 72 0
13.4721 73.0069 -42.4808 0.385 -0.733 0.560 47 114 73 0
11.0916 75.0575 -42.9899 0.378 -0.719 0.583 96 140 116 0
11.1869 75.2351 -42.8325 0.378 -0.719 0.583 139 163 149 0
11.2818 75.4123 -42.6755 0.378 -0.719 0.583 157 169 160 0
11.3766 75.5891 -42.5188 0.378 -0.719 0.583 165 172 165 0
14.4275 74.9366 -40.8236 0.396 -0.730 0.556 169 175 168 0
0.8609 79.6266 -47.4179 0.254 0.180 0.950 176 181 175 0
4.8716 79.9676 -44.5566 0.631 0.341 0.697 183 185 180 0
4.7008 80.2321 -44.5312 0.631 0.341 0.697 184 186 181 0
1.5291 81.6271 -45.9153 0.627 0.350 0.695 185 186 180 0
-1.4589 111.2651 -32.2691 0.606 0.694 0.388 153 139 136 0
17.1024 -1.7725 -79.8525 0.864 -0.428 -0.263 255 255 255 0
18.1877 33.1396 -60.6787 0.965 0.152 -0.212 233 230 207 0
18.1770 33.3573 -60.5709 0.965 0.152 -0.212 232 230 204 0
14.2273 33.1769 -63.3180 0.932 -0.275 -0.235 233 229 201 0
14.3506 33.4158 -63.1091 0.932 -0.275 -0.235 233 228 198 0
14.6840 34.1250 -62.5105 0.930 -0.284 -0.232 229 221 174 0
14.9321 34.5970 -62.0946 0.930 -0.284 -0.232 228 221 158 0
15.0555 34.8319 -61.8876 0.930 -0.284 -0.232 228 222 146 0
15.4437 35.5342 -61.2560 0.932 -0.275 -0.235 233 226 127 0
18.7906 36.0190 -58.7527 0.671 -0.414 0.615 232 226 120 0
18.8083 36.2359 -58.6262 0.671 -0.414 0.615 233 227 116 0
22.7091 40.8574 -53.5655 0.471 -0.085 0.878 229 219 90 0
22.6369 41.0594 -53.5072 0.471 -0.085 0.878 227 218 88 0
22.5647 41.2616 -53.4489 0.471 -0.085 0.878 224 214 85 0
17.8460 43.6782 -55.3403 0.935 0.349 -0.063 192 189 80 0
16.9091 44.9542 -55.2952 0.937 0.341 -0.073 162 161 87 0
16.8364 45.1678 -55.2311 0.937 0.341 -0.073 159 159 91 0
19.3819 48.2498 -51.8938 0.586 -0.678 0.443 38 129 75 0
18.6957 51.1626 -50.8156 0.607 -0.654 0.451 26 122 69 0
18.7868 51.3615 -50.6493 0.607 -0.654 0.451 26 121 68 0
27.1778 51.9225 -44.7192 0.744 -0.643 0.181 24 117 70 0
27.6266 52.6332 -44.0424 0.744 -0.643 0.181 20 118 67 0
27.7379 52.8096 -43.8745 0.744 -0.643 0.181 20 117 65 0
6.8111 58.9476 -54.6818 0.854 0.173 0.490 15 114 63 0
13.5235 72.7107 -42.9037 0.385 -0.733 0.560 44 112 71 0
11.4460 75.2858 -42.9380 0.378 -0.719 0.583 135 163 148 0
11.5406 75.4627 -42.7811 0.378 -0.719 0.583 155 169 160 0
11.6349 75.6392 -42.6245 0.378 -0.719 0.583 165 172 165 0
14.1357 75.1378 -41.2103 0.390 -0.733 0.557 171 175 169 0
1.1847 79.6675 -47.5125 0.254 0.180 0.950 177 181 176 0
4.8495 80.3184 -44.7081 0.631 0.341 0.697 183 185 182 0
-1.4095 108.9219 -33.7982 0.522 -0.591 0.615 155 144 139 0
-1.3582 109.1022 -33.6686 0.522 -0.591 0.615 155 145 138 0
16.9801 -1.7679 -80.2613 0.864 -0.428 -0.263 255 255 255 0
14.2970 33.4997 -63.4197 0.932 -0.275 -0.235 234 230 203 0
14.4202 33.7381 -63.2106 0.932 -0.275 -0.235 234 229 199 0
14.8820 34.6822 -62.3999 0.930 -0.284 -0.232 227 221 168 0
15.0057 34.9173 -62.1922 0.930 -0.284 -0.232 228 223 159 0
15.1514 35.1536 -61.9690 0.932 -0.275 -0.235 229 225 149 0
15.2721 35.3871 -61.7641 0.932 -0.275 -0.235 232 227 141 0
15.3923 35.6200 -61.5599 0.932 -0.275 -0.235 230 225 133 0
15.5123 35.8521 -61.3563 0.932 -0.275 -0.235 230 224 126 0
18.9891 36.3370 -58.7555 0.671 -0.414 0.615 232 225 122 0
22.9159 40.9517 -53.6675 0.471 -0.085 0.878 227 218 91 0
22.8439 41.1535 -53.6093 0.471 -0.085 0.878 225 216 89 0
22.7719 41.3555 -53.5510 0.471 -0.085 0.878 223 213 86 0
16.8513 45.0504 -55.5891 0.937 0.341 -0.073 165 164 100 0
16.7785 45.2644 -55.5250 0.937 0.341 -0.073 156 156 97 0
16.7057 45.4785 -55.4609 0.937 0.341 -0.073 128 133 79 0
19.2926 46.2805 -53.2925 0.448 -0.114 0.887 100 127 81 0
19.1504 46.6987 -53.1672 0.448 -0.114 0.887 87 136 87 0
18.2912 46.9280 -53.6253 0.780 -0.622 0.069 73 137 82 0
18.4364 47.1331 -53.4188 0.780 -0.622 0.069 60 137 79 0
20.1818 47.9054 -51.8336 0.564 -0.701 0.436 43 134 75 0
25.1504 48.5088 -48.1644 0.882 -0.089 0.462 36 127 75 0
19.8770 48.9408 -51.4916 0.586 -0.678 0.443 36 130 77 0
19.9772 49.1406 -51.3184 0.586 -0.678 0.443 36 129 77 0
28.4245 50.4266 -44.9425 0.391 0.451 0.802 26 123 69 0
28.2379 50.6254 -44.9632 0.391 0.451 0.802 27 124 70 0
23.5824 51.1314 -47.8347 0.394 0.445 0.804 26 123 69 0
23.3879 51.3407 -47.8552 0.394 0.445 0.804 25 121 69 0
27.4852 51.4272 -45.0467 0.391 0.451 0.802 25 121 69 0
27.4278 51.8068 -44.8847 0.523 -0.474 0.709 25 120 71 0
27.2873 52.0055 -44.8743 0.744 -0.643 0.181 24 120 70 0
27.3998 52.1838 -44.7042 0.744 -0.643 0.181 23 121 71 0
27.5120 52.3616 -44.5345 0.744 -0.643 0.181 22 121 70 0
27.6238 52.5388 -44.3654 0.744 -0.643 0.181 21 120 68 0
27.7353 52.7156 -44.1968 0.744 -0.643 0.181 23 120 69 0
27.8465 52.8918 -44.0287 0.744 -0.643 0.181 23 119 68 0
7.7310 74.9633 -45.9196 0.426 -0.768 0.479 52 119 78 0
7.8536 75.1417 -45.7426 0.426 -0.768 0.479 52 118 79 0
13.5865 74.2156 -42.3669 0.391 -0.737 0.552 60 122 85 0
13.6870 74.3879 -42.2080 0.391 -0.737 0.552 68 123 93 0
11.7045 75.3363 -43.0432 0.378 -0.719 0.583 133 161 146 0
11.7986 75.5129 -42.8864 0.378 -0.719 0.583 154 169 159 0
11.8925 75.6891 -42.7299 0.378 -0.719 0.583 163 173 165 0
14.3817 75.1879 -41.3165 0.390 -0.733 0.557 169 176 169 0
15.0097 75.2069 -40.8830 0.396 -0.730 0.556 171 177 172 0
3.4767 80.0036 -46.1227 0.934 0.341 -0.108 181 183 180 0
