ply
format ascii 1.0
element vertex 827
property float x
property float y
property float z
property float nx
property float ny
property float nz
property uchar diffuse_red
property uchar diffuse_green
property uchar diffuse_blue
property uchar class
end_header
-21.3946 29.5134 -26.0702 -0.983 -0.027 0.181 101 17 31 0
-16.9989 30.3593 -29.9865 -0.874 0.359 0.328 87 14 31 0
-17.1799 30.0508 -29.8698 -0.851 0.370 0.372 83 13 29 0
-17.1345 29.8679 -29.9414 -0.859 0.363 0.362 81 13 27 0
-16.9928 29.7378 -30.0931 -0.958 -0.148 -0.247 80 13 25 0
-17.1428 29.4486 -30.0018 -0.959 -0.091 -0.269 77 11 21 0
-17.2505 29.1835 -29.9457 -0.748 -0.530 -0.399 77 14 23 0
-17.4844 28.8512 -29.7839 -0.970 -0.025 -0.244 75 12 21 0
-15.7733 28.1072 -31.4828 -0.560 -0.812 -0.164 75 18 26 0
-9.6779 28.4137 -37.0542 0.136 -0.962 -0.236 80 50 51 0
-4.9016 19.7611 -42.8652 -0.502 -0.618 -0.605 187 177 162 0
-3.5982 18.9676 -44.1963 -0.487 -0.557 -0.673 189 177 165 0
14.9761 14.8281 -61.9984 0.104 -0.442 0.891 175 162 147 0
-31.2907 109.0804 -4.3474 -0.977 -0.047 0.209 255 255 255 0
-11.8305 66.3042 -29.2503 -0.034 0.090 0.995 121 85 79 0
-18.4971 56.1709 -24.7185 -0.989 -0.119 0.088 111 30 42 0
-18.5894 55.8345 -24.6874 -0.988 -0.119 0.096 110 28 40 0
-21.1356 52.5987 -22.8542 -0.462 0.442 0.769 119 32 41 0
-20.9341 52.0426 -23.1302 -0.381 -0.603 0.701 131 38 49 0
-20.8521 51.8702 -23.2340 -0.381 -0.603 0.701 125 32 43 0
-23.3728 48.0663 -21.5160 -0.745 0.153 0.649 130 32 46 0
-23.3380 46.7112 -21.7668 -0.859 -0.174 0.481 131 32 46 0
-23.3221 46.4950 -21.8164 -0.859 -0.174 0.481 134 36 49 0
-23.3062 46.2792 -21.8659 -0.859 -0.174 0.481 136 38 51 0
-25.5018 37.3943 -21.2685 -0.936 -0.248 0.249 150 40 59 0
-25.6991 37.0453 -21.1423 -0.924 -0.314 0.220 150 40 59 0
-23.6314 37.8818 -22.9200 -0.730 -0.642 0.235 151 43 62 0
-24.4346 35.6482 -22.5374 -0.152 -0.363 0.919 151 38 58 0
-22.0242 33.0965 -25.1787 -0.127 -0.956 0.266 151 43 59 0
-21.9974 32.4967 -25.3003 -0.200 0.101 0.974 139 36 50 0
-22.1628 32.1900 -25.1968 -0.090 -0.055 0.994 133 32 46 0
-22.2121 31.9558 -25.1890 0.004 -0.374 0.927 125 25 40 0
-21.1591 32.1896 -26.1253 0.496 -0.739 0.456 118 22 37 0
-22.3810 31.2441 -25.1476 0.213 -0.293 0.932 115 23 36 0
-22.5993 30.9106 -24.9995 0.095 -0.003 0.996 112 21 34 0
-22.4713 30.7864 -25.1379 0.167 -0.058 0.984 109 18 33 0
-22.2648 30.7089 -25.3414 0.374 -0.336 0.864 108 18 33 0
-21.7223 30.6282 -25.8562 0.336 -0.504 0.796 105 16 31 0
-21.6873 30.4469 -25.9179 0.342 -0.447 0.827 103 15 30 0
-20.3745 31.0159 -27.0405 -0.925 0.353 0.142 103 15 29 0
-20.8775 30.1116 -26.7211 -0.783 0.362 0.507 102 17 30 0
-21.4999 29.5505 -26.2359 -0.805 -0.457 0.378 102 18 31 0
-17.3642 30.0478 -29.9813 -0.861 0.366 0.354 82 12 28 0
-17.1961 29.9325 -30.1553 -0.954 -0.193 -0.231 81 13 27 0
-14.1427 29.2614 -33.0881 -0.249 -0.963 0.107 70 13 20 0
-15.9055 28.1331 -31.6395 -0.556 -0.817 -0.157 73 16 23 0
-15.9649 27.4834 -31.6894 -0.009 -0.913 -0.408 73 21 29 0
-14.4167 28.0673 -33.0273 -0.009 -0.913 -0.408 72 22 29 0
-5.0943 30.0591 -41.3294 0.136 -0.943 -0.304 100 72 68 0
1.2979 18.7981 -49.0593 -0.503 -0.717 -0.483 186 172 159 0
-6.0024 15.9387 -42.7676 -0.446 -0.858 -0.254 186 172 159 0
14.4532 14.5284 -61.9172 -0.023 -0.370 0.929 177 163 150 0
-0.1764 7.5178 -49.5155 -0.873 0.441 0.205 171 155 142 0
-7.0244 72.8274 -33.0056 -0.771 -0.527 -0.356 131 155 108 0
-6.8584 72.6817 -33.1830 -0.804 -0.465 -0.371 134 150 107 0
-12.3509 66.0019 -29.1565 -0.215 0.108 0.971 121 85 79 0
-16.1152 59.5129 -26.7031 -0.896 0.263 -0.358 107 36 44 0
-20.5450 54.7573 -23.3544 0.204 0.069 0.976 106 30 40 0
-18.5822 56.0022 -24.9762 -0.989 -0.088 0.117 111 29 41 0
-21.3527 52.5623 -22.9565 -0.459 0.449 0.767 114 27 38 0
-21.0440 51.8564 -23.3560 -0.387 -0.611 0.690 125 32 43 0
-21.2165 51.4653 -23.2586 -0.435 0.359 0.826 124 31 42 0
-21.7907 50.7319 -22.8433 -0.464 0.301 0.833 126 30 42 0
-21.5870 50.4264 -23.0812 -0.287 0.534 0.795 123 27 41 0
-23.5045 48.0981 -21.6749 -0.745 0.153 0.649 131 33 48 0
-23.8354 38.2802 -22.9403 -0.780 -0.507 0.366 147 39 59 0
-23.7706 37.9009 -23.0612 -0.709 -0.599 0.372 150 39 60 0
-25.2715 36.0113 -21.9711 -0.177 -0.313 0.933 147 36 57 0
-24.4997 35.5088 -22.7677 -0.539 -0.393 0.745 153 40 60 0
-23.1098 33.5426 -24.3722 -0.307 -0.732 0.608 154 47 62 0
-22.2393 32.8616 -25.2890 -0.256 -0.964 -0.079 147 40 56 0
-21.4106 29.9014 -26.5320 -0.665 0.362 0.653 103 17 30 0
-21.6015 29.5898 -26.4048 -0.805 -0.457 0.378 107 23 36 0
-21.6290 29.1734 -26.4460 -0.908 -0.400 -0.129 112 30 42 0
18.8035 15.9724 -66.0756 -0.676 -0.472 -0.565 176 162 151 0
19.7402 15.4800 -67.0236 0.164 -0.275 0.947 175 161 148 0
3.6189 9.2641 -53.0608 -0.954 0.273 -0.121 174 158 145 0
-12.1261 66.4003 -29.6422 -0.486 0.632 0.603 124 88 82 0
-21.0549 53.2232 -23.4268 -0.548 0.290 0.784 119 31 44 0
-21.5264 52.5638 -23.0928 -0.462 0.442 0.769 122 34 46 0
-21.5587 52.2917 -23.1060 -0.067 -0.693 0.718 125 35 47 0
-21.4354 51.4277 -23.3581 -0.437 0.363 0.823 127 31 43 0
-21.7885 50.4031 -23.1923 -0.288 0.532 0.796 126 28 41 0
-22.5489 49.5184 -22.6252 0.047 0.319 0.947 125 27 40 0
-23.7719 45.9467 -22.0547 -0.674 -0.734 -0.086 134 34 46 0
-24.2701 41.5358 -22.2922 -0.323 0.618 0.716 145 34 51 0
-25.8652 37.5747 -21.4373 -0.377 0.585 0.718 147 38 57 0
-25.2644 36.1295 -22.2261 -0.941 -0.276 0.194 146 34 56 0
-25.1671 35.9901 -22.3389 -0.951 -0.262 0.166 147 35 57 0
-22.5715 33.5823 -25.1373 -0.142 -0.888 -0.437 151 42 57 0
-21.7367 33.4900 -25.9290 -0.171 -0.935 -0.309 147 40 56 0
-21.7366 33.2825 -25.9620 -0.587 -0.126 0.800 143 37 53 0
-21.7718 33.0534 -25.9657 -0.687 -0.089 0.721 138 35 49 0
-21.8837 32.7771 -25.9055 -0.629 -0.080 0.773 134 33 47 0
-22.1481 32.4074 -25.7182 -0.595 -0.143 0.791 129 30 46 0
-21.5341 29.9284 -26.6836 -0.693 0.390 0.606 101 17 32 0
-21.7186 29.6201 -26.5609 -0.809 -0.458 0.369 119 35 48 0
-21.6646 29.4506 -26.6381 -0.781 -0.609 0.137 132 50 62 0
-21.5860 29.2953 -26.7359 -0.764 -0.628 0.147 124 42 54 0
-21.4888 29.1506 -26.8494 -0.764 -0.628 0.147 102 20 32 0
-16.2047 27.5473 -32.0221 -0.147 -0.817 -0.558 78 25 31 0
7.8124 35.4459 -53.1191 -0.153 -0.935 -0.320 191 175 160 0
-5.3095 27.8918 -42.1075 -0.973 -0.208 -0.097 197 184 168 0
19.1500 16.3834 -66.7010 -0.800 -0.362 -0.478 177 163 150 0
19.3034 16.1778 -66.8764 -0.694 -0.460 -0.553 175 161 150 0
19.6089 16.0116 -67.1872 -0.800 -0.362 -0.478 176 162 151 0
10.0442 11.2798 -59.0375 -0.997 -0.062 0.038 173 158 144 0
3.7637 9.3578 -53.4979 -0.953 0.279 -0.122 171 157 144 0
-31.4308 109.8518 -5.1077 -0.946 0.067 0.317 255 255 255 0
-30.9927 108.4987 -5.7302 -0.802 -0.498 -0.330 233 224 215 0
-6.4348 73.8032 -34.1293 -0.903 0.430 -0.005 123 148 100 0
-8.7636 70.9569 -32.4042 -0.369 0.640 0.674 125 133 95 0
-15.9990 61.0328 -27.2153 -0.060 -0.834 0.549 111 44 51 0
-18.3084 56.5712 -25.7632 -0.426 0.542 0.724 116 29 45 0
-20.4502 54.4107 -24.1045 -0.292 0.583 0.758 119 29 45 0
-21.8472 51.9494 -23.1887 -0.698 -0.698 -0.161 123 31 45 0
-21.7150 51.8219 -23.3323 -0.695 -0.701 -0.158 125 32 43 0
-21.2608 51.9729 -23.7324 -0.957 0.204 -0.204 126 32 43 0
-21.9776 50.8701 -23.2373 -0.980 0.095 0.173 126 30 41 0
-22.1324 50.4972 -23.1516 -0.968 0.022 0.249 125 29 41 0
-21.9845 50.3843 -23.3075 -0.391 0.580 0.715 126 28 41 0
-22.7713 49.4757 -22.7163 -0.405 0.506 0.762 126 28 41 0
-23.5717 48.5610 -22.1134 -0.130 0.273 0.953 127 30 44 0
-23.7327 48.1917 -22.0213 -0.138 0.280 0.950 128 32 46 0
-23.4810 46.3219 -22.5512 -0.690 -0.701 -0.180 132 32 44 0
-23.0037 46.2509 -23.0081 -0.459 -0.834 -0.305 132 34 45 0
-24.8603 36.1086 -22.8748 -0.961 -0.270 0.064 147 35 57 0
-23.6112 34.6707 -24.2677 -0.957 -0.239 -0.165 148 44 61 0
-22.6217 33.2445 -25.4164 -0.083 -0.950 -0.301 147 40 56 0
-21.7668 33.1627 -26.2275 -0.996 0.014 0.087 137 31 46 0
-21.9279 32.8551 -26.1256 -0.998 -0.021 0.058 132 29 44 0
-22.0908 32.5477 -26.0220 -0.982 -0.189 -0.024 130 28 44 0
-22.3545 32.1792 -25.8340 -0.731 -0.077 0.678 125 24 40 0
-21.6343 32.2115 -26.5012 0.464 -0.883 0.067 118 22 37 0
-21.3529 30.7426 -26.9956 0.405 -0.359 0.841 101 15 28 0
-21.8190 29.6603 -26.7312 -0.809 -0.458 0.369 113 29 44 0
-21.7623 29.4922 -26.8106 -0.628 -0.700 0.340 132 50 62 0
-21.6689 29.3453 -26.9210 -0.642 -0.688 0.338 117 35 47 0
-21.5678 29.2027 -27.0379 -0.764 -0.628 0.147 101 19 31 0
-19.0706 30.0124 -29.2414 -0.236 0.032 0.971 87 12 27 0
-18.3393 30.2175 -29.8917 0.073 0.227 0.971 86 10 26 0
-18.6444 29.8395 -29.6666 -0.061 0.293 0.954 84 10 25 0
-14.5811 29.5362 -33.5076 -0.385 -0.444 0.809 74 14 24 0
-15.1236 29.0386 -33.0797 0.053 -0.569 0.821 74 17 24 0
-8.1573 29.3219 -39.5383 0.133 -0.958 -0.255 85 55 52 0
-8.9871 28.6964 -38.8623 0.121 -0.939 -0.321 93 63 61 0
2.7115 22.4506 -50.7687 -0.364 -0.766 0.530 190 176 165 0
2.8521 22.2734 -50.9279 -0.364 -0.766 0.530 189 175 164 0
18.1183 14.7267 -66.3700 -0.755 -0.213 -0.620 173 160 149 0
3.9546 9.4628 -53.9781 -0.941 0.325 -0.093 169 156 141 0
-31.4511 110.1610 -5.3803 -0.946 0.059 0.320 255 255 255 0
-14.4706 62.3445 -28.7664 0.047 -0.972 0.228 111 43 50 0
-14.6645 61.8926 -28.6555 0.106 -0.974 0.200 108 40 48 0
-21.1926 51.9406 -24.1007 -0.958 0.200 -0.205 128 29 42 0
-21.7143 51.2471 -23.7207 -0.961 0.232 -0.152 127 29 42 0
-21.7996 50.9322 -23.6902 -0.499 0.400 0.769 127 29 42 0
-22.2287 50.3241 -23.3836 -0.534 0.435 0.725 127 28 41 0
-22.6530 49.7231 -23.0803 -0.763 0.536 0.362 128 28 42 0
-23.4468 48.8115 -22.4797 -0.752 0.536 0.383 128 30 44 0
-25.5355 38.0488 -22.2088 -0.670 0.581 0.463 149 37 57 0
-24.6998 35.5013 -23.3902 -0.441 -0.860 0.256 151 43 63 0
-24.3990 34.2586 -23.8664 -0.933 -0.111 0.343 148 43 60 0
-23.9825 32.8934 -24.4701 -0.765 0.136 0.629 146 42 56 0
-21.8022 33.4550 -26.4238 -0.999 0.014 0.053 138 30 49 0
-21.7711 33.2666 -26.4824 -0.994 0.017 0.107 134 29 46 0
-22.3433 32.2905 -26.0994 -0.664 -0.307 0.681 125 25 43 0
-20.6894 31.6491 -27.7485 0.314 -0.408 0.857 103 16 28 0
-21.9795 29.6655 -26.8510 -0.626 -0.684 0.376 103 21 34 0
-21.8802 29.5222 -26.9665 -0.628 -0.700 0.340 105 23 37 0
-21.7844 29.3766 -27.0789 -0.620 -0.699 0.356 102 21 34 0
-18.8292 30.2483 -29.7097 -0.070 0.294 0.953 88 12 25 0
-18.9477 29.9747 -29.6415 -0.074 0.297 0.952 86 12 26 0
-18.9771 29.7519 -29.6489 -0.076 0.294 0.953 84 12 26 0
-19.4196 29.0949 -29.3374 0.257 -0.247 0.934 82 14 27 0
-19.4147 28.8937 -29.3735 0.252 -0.243 0.937 82 14 25 0
-15.5420 29.3362 -32.9306 0.216 -0.957 -0.196 72 14 22 0
-14.6516 29.5972 -33.7235 -0.381 -0.461 0.801 71 15 23 0
-16.7589 27.8606 -32.0221 -0.300 -0.758 -0.579 75 22 27 0
-8.7972 28.8856 -39.3169 0.120 -0.939 -0.322 93 64 62 0
-1.0555 32.1765 -46.0510 0.121 -0.939 -0.321 112 94 84 0
2.7323 22.5431 -51.1059 -0.096 -0.844 0.527 190 176 165 0
2.9332 22.3876 -51.3184 -0.096 -0.844 0.527 189 175 164 0
19.6651 15.6822 -68.0357 -0.708 -0.335 -0.622 175 161 150 0
-31.8975 110.0347 -5.3218 -0.778 0.346 0.524 255 255 255 0
-8.4992 71.9128 -33.2207 -0.645 0.575 0.503 117 138 91 0
-12.7877 66.3385 -30.0587 -0.480 0.629 0.612 116 82 77 0
-13.4521 64.8617 -29.6641 -0.927 0.343 0.153 114 63 65 0
-19.6030 56.7604 -25.1453 -0.061 0.425 0.903 109 34 44 0
-19.6601 55.4346 -25.2976 0.067 -0.123 0.990 120 31 46 0
-21.7178 52.3691 -23.8412 -0.666 -0.379 0.642 126 30 45 0
-22.1184 50.8080 -23.7074 -0.636 0.334 0.695 126 27 41 0
-22.2941 50.4168 -23.6031 -0.654 0.349 0.671 126 28 41 0
-22.9092 49.6517 -23.1443 -0.917 0.399 0.017 126 27 40 0
-23.4993 48.9121 -22.7049 -0.772 0.529 0.354 126 28 43 0
-23.7432 46.6147 -22.8327 -0.425 0.477 0.769 131 30 44 0
-25.1519 38.6591 -22.7454 -0.736 0.619 0.274 150 37 57 0
-25.4392 38.2376 -22.5411 -0.698 0.607 0.380 152 40 60 0
-25.0826 35.3518 -23.3243 -0.896 -0.333 0.293 152 43 64 0
-24.7053 34.1646 -23.8631 -0.806 -0.074 0.588 145 40 57 0
-24.7586 33.9243 -23.8503 -0.451 -0.820 -0.352 146 41 58 0
-24.6699 33.7784 -23.9564 -0.513 -0.788 -0.340 148 44 61 0
-24.0375 32.9643 -24.6768 -0.890 0.043 0.453 144 38 54 0
-20.6319 34.3013 -27.6678 -0.635 -0.724 -0.269 135 27 46 0
-22.0371 32.7919 -26.5824 -0.599 -0.248 0.761 128 28 45 0
-21.0033 31.7708 -27.7120 -0.446 0.507 0.738 110 23 36 0
-19.2011 30.1375 -29.6585 -0.069 -0.103 0.992 86 11 24 0
-19.9233 29.5234 -29.0756 0.168 -0.074 0.983 87 14 27 0
-19.9458 29.3066 -29.0881 0.168 -0.074 0.983 85 13 27 0
-19.9683 29.0903 -29.1006 0.168 -0.074 0.983 83 13 27 0
-17.2854 27.8855 -31.8077 -0.469 -0.859 -0.204 72 19 25 0
-16.0896 28.0974 -32.8979 -0.113 -0.858 -0.501 74 22 28 0
-8.2720 29.9093 -39.9591 0.021 -0.962 -0.273 78 47 47 0
-7.7540 29.9410 -40.4407 -0.024 -0.955 -0.296 80 50 48 0
-0.6655 32.4697 -46.7058 0.124 -0.941 -0.314 114 96 86 0
4.4285 22.7883 -52.9943 -0.077 -0.996 -0.037 187 173 163 0
19.3924 15.1944 -68.2288 -0.786 -0.173 -0.593 173 158 147 0
-0.2655 7.5779 -50.9483 -0.285 -0.859 -0.424 169 153 138 0
-31.5573 111.0270 -5.8302 -0.772 0.344 0.535 255 255 255 0
-31.5887 110.6015 -5.8661 -0.949 0.061 0.309 255 255 255 0
-8.5876 72.0296 -33.4812 -0.642 0.572 0.510 115 135 91 0
-10.0041 70.3606 -32.4039 -0.421 0.619 0.663 114 123 87 0
-13.0641 65.9795 -30.1963 -0.616 0.351 0.706 115 76 71 0
-13.8363 64.9661 -29.6250 -0.841 0.324 0.433 113 68 67 0
-13.5126 64.9896 -29.9263 -0.870 0.204 0.448 113 63 64 0
-16.3651 62.0334 -27.6946 -0.592 -0.055 0.804 113 59 62 0
-17.2744 60.1099 -27.1344 -0.128 0.508 0.852 112 45 52 0
-19.7468 55.7730 -25.4736 0.144 -0.270 0.952 119 33 45 0
-20.9324 54.2078 -24.5978 0.100 0.053 0.994 120 30 43 0
-20.5175 54.3272 -24.9703 0.088 0.018 0.996 121 30 45 0
-22.0013 52.0303 -23.9264 0.148 -0.392 0.908 129 30 44 0
-22.1734 51.6367 -23.8250 -0.491 -0.355 0.795 130 29 43 0
-21.8899 51.6407 -24.0914 -0.120 -0.207 0.971 128 27 41 0
-22.6490 50.2610 -23.5889 0.024 -0.267 0.963 125 27 42 0
-22.8821 49.8224 -23.4370 -0.925 0.381 -0.016 126 29 43 0
-23.7415 48.8512 -22.7770 -0.878 0.438 0.192 126 28 45 0
-25.0741 47.0240 -21.8031 -0.131 0.099 0.986 140 46 60 0
-23.7680 46.9651 -23.0427 -0.772 -0.018 0.635 130 29 45 0
-21.3098 45.2394 -25.6246 0.573 -0.138 0.808 140 29 45 0
-24.9178 36.4110 -23.5862 -0.471 -0.224 0.853 149 37 59 0
-25.2607 35.7562 -23.3641 -0.724 -0.099 0.682 148 39 60 0
-23.9933 33.0993 -24.9677 -0.702 -0.296 0.648 142 36 53 0
-20.9544 34.2067 -27.6600 -0.172 -0.954 -0.247 133 26 46 0
-22.0976 31.6239 -26.9810 0.183 -0.734 0.654 108 17 32 0
-21.6163 30.6860 -27.5790 -0.828 0.184 0.529 95 12 26 0
-22.6618 29.2649 -26.8131 0.264 -0.845 0.465 99 19 29 0
-20.3960 28.9481 -28.9966 0.168 -0.113 0.979 83 14 26 0
-19.0469 28.2687 -30.3723 -0.319 0.146 0.937 75 14 22 0
-18.9808 28.1007 -30.4605 -0.607 0.269 0.748 72 15 23 0
-17.0988 28.0788 -32.2369 -0.435 -0.878 -0.198 72 19 25 0
-8.3407 29.9748 -40.1958 0.021 -0.962 -0.273 78 47 48 0
-7.4852 30.1736 -40.9712 -0.033 -0.954 -0.298 82 52 50 0
-4.3879 31.0050 -43.7611 0.113 -0.939 -0.325 96 74 68 0
4.1625 23.0099 -53.0489 -0.769 -0.192 -0.610 188 174 163 0
3.1770 22.1866 -52.2473 -0.387 -0.893 -0.229 186 172 161 0
3.9247 21.9956 -52.9812 -0.535 -0.844 -0.038 186 174 158 0
0.3414 8.3793 -51.7040 -0.791 -0.324 0.519 170 154 141 0
-10.1970 70.3730 -32.5762 -0.494 0.594 0.635 110 120 85 0
-10.7615 69.5315 -32.1714 -0.481 0.586 0.652 112 111 83 0
-11.2237 68.7927 -31.8476 -0.481 0.586 0.652 116 103 85 0
-11.8190 67.9304 -31.4170 -0.450 0.562 0.694 119 96 84 0
-12.8493 66.3716 -30.6817 -0.243 -0.016 0.970 114 76 71 0
-13.9404 64.7717 -29.8953 -0.445 -0.225 0.867 113 64 65 0
-13.9624 64.4701 -29.9207 -0.405 -0.076 0.911 113 60 64 0
-15.0464 63.1746 -29.0944 -0.031 -0.062 0.998 111 55 60 0
-20.1670 55.8115 -25.3814 0.150 -0.274 0.950 121 38 50 0
-20.0923 55.6248 -25.4806 0.139 -0.278 0.951 121 35 46 0
-19.6872 55.7345 -25.8466 0.261 -0.083 0.962 122 33 45 0
-21.2657 54.0691 -24.6096 0.095 0.061 0.994 122 32 44 0
-21.2577 53.8274 -24.6541 -0.323 -0.609 0.725 123 31 45 0
-22.3905 50.8740 -24.0353 -0.070 -0.024 0.997 126 28 41 0
-22.8886 49.9650 -23.7035 -0.921 0.389 -0.005 125 29 43 0
-23.7544 48.9860 -23.0351 -0.878 0.438 0.192 125 29 45 0
-24.6927 47.7194 -22.3420 -0.279 -0.495 0.823 133 37 51 0
-24.6795 47.4993 -22.3882 -0.295 -0.453 0.842 132 36 50 0
-24.5811 47.3513 -22.5038 -0.324 -0.625 0.710 131 35 49 0
-24.4689 47.2148 -22.6307 -0.326 -0.620 0.713 128 31 46 0
-24.2889 47.1347 -22.8131 -0.299 -0.569 0.766 128 29 44 0
-24.2059 46.9731 -22.9162 -0.119 -0.470 0.875 127 28 43 0
-23.8997 46.9967 -23.2019 -0.772 -0.018 0.635 128 28 44 0
-25.3284 35.6150 -23.5923 -0.793 -0.233 0.562 144 35 56 0
-24.8695 35.7232 -24.0095 -0.784 -0.507 -0.358 145 36 57 0
-24.1298 33.1182 -25.1068 -0.702 -0.296 0.648 138 34 51 0
-22.0140 33.2269 -27.0896 -0.994 0.050 -0.100 129 26 45 0
-20.3260 33.2285 -28.6845 -0.437 -0.573 -0.693 117 19 39 0
-22.1009 31.7254 -27.2371 -0.430 -0.858 -0.279 107 15 32 0
-20.7719 29.2397 -28.8731 0.242 -0.492 0.836 88 17 28 0
-20.7099 29.0719 -28.9574 0.146 -0.374 0.916 85 15 26 0
-19.3839 29.6141 -30.1275 -0.674 -0.544 -0.499 82 14 25 0
-19.3169 29.4458 -30.2166 -0.675 -0.492 -0.550 81 13 24 0
-19.5232 28.1057 -30.2266 -0.530 -0.830 0.174 75 12 24 0
-19.4035 27.9676 -30.3608 -0.528 -0.834 0.157 74 11 25 0
-19.3288 27.8050 -30.4563 -0.465 0.445 0.765 74 12 25 0
-7.6572 30.1888 -41.1214 -0.064 -0.944 -0.322 83 54 52 0
-0.4834 26.1473 -48.5186 -0.296 -0.949 -0.109 192 181 169 0
3.0803 22.2361 -52.4844 -0.451 -0.893 0.007 188 174 160 0
-0.0620 8.3428 -51.6395 -0.825 -0.200 0.529 170 154 141 0
-32.0765 110.7498 -6.0687 -0.785 0.332 0.524 255 255 255 0
-35.5809 64.4774 -9.7666 -0.967 -0.192 0.170 235 230 215 0
-35.4495 64.3917 -9.9042 -0.936 -0.279 0.213 234 231 214 0
-11.5082 68.7144 -31.9420 -0.497 0.590 0.637 114 102 82 0
-12.9042 66.7956 -30.9098 -0.164 0.172 0.971 116 86 76 0
-13.2770 66.1537 -30.6538 -0.081 0.054 0.995 114 77 70 0
-15.7020 63.2917 -28.7894 -0.179 0.351 0.919 112 63 64 0
-14.7575 63.9057 -29.5915 -0.109 0.272 0.956 112 60 64 0
-16.0331 62.4298 -28.6063 -0.173 0.362 0.916 111 55 60 0
-20.6056 55.8313 -25.2731 -0.068 -0.136 0.988 137 56 68 0
-20.5310 55.6452 -25.3721 0.150 -0.274 0.950 135 52 63 0
-20.4511 55.4638 -25.4753 0.139 -0.278 0.951 124 38 48 0
-21.6978 53.5929 -24.5774 -0.889 0.457 -0.029 125 33 44 0
-23.1918 50.0913 -23.6925 -0.427 -0.206 0.880 125 28 41 0
-23.6151 49.2519 -23.4186 -0.874 0.442 0.204 123 27 42 0
-24.8449 47.5019 -22.5184 -0.752 -0.070 0.655 129 31 46 0
-24.9357 47.1942 -22.4790 -0.339 -0.516 0.786 130 33 47 0
-24.7991 47.0789 -22.6259 -0.327 -0.493 0.806 129 31 46 0
-24.6366 46.9849 -22.7942 -0.345 -0.427 0.836 129 28 44 0
-24.4174 46.9377 -23.0091 -0.322 -0.420 0.848 126 27 42 0
-25.5322 45.3268 -22.1969 0.119 0.147 0.982 131 29 45 0
-24.2152 43.6862 -23.6941 0.565 -0.567 0.599 142 34 50 0
-24.0004 43.4058 -23.9403 0.501 -0.114 0.858 139 30 46 0
-24.3068 42.2749 -23.8213 0.530 -0.171 0.830 137 26 43 0
-25.8932 35.1315 -23.4013 -0.615 -0.547 0.568 143 34 55 0
-24.6957 34.9145 -24.5693 0.120 -0.396 0.910 142 37 55 0
-24.8310 34.2039 -24.5489 -0.604 -0.691 -0.398 140 35 52 0
-24.2824 33.1268 -25.2323 -0.701 -0.299 0.648 137 32 49 0
-22.0534 33.5182 -27.2857 -0.945 -0.116 0.306 129 26 45 0
-19.7027 33.7200 -29.4833 -0.437 -0.573 -0.693 115 16 39 0
-21.9295 30.9070 -27.7993 -0.898 -0.149 0.414 98 16 30 0
-22.0488 30.6318 -27.7280 -0.862 -0.066 0.502 99 17 31 0
-21.1241 29.1378 -28.8311 0.242 -0.492 0.836 84 14 24 0
-19.5223 29.8415 -30.2427 -0.684 -0.528 -0.503 82 14 24 0
-19.3078 28.3187 -30.6771 -0.660 -0.719 -0.218 77 13 26 0
-19.1296 28.2114 -30.8622 -0.660 -0.719 -0.218 76 12 28 0
-8.3829 29.9291 -40.7882 -0.170 -0.942 -0.290 84 56 53 0
4.2870 34.4344 -52.1144 -0.377 -0.913 -0.158 190 173 158 0
3.2575 22.6171 -52.9313 -0.436 -0.894 0.104 188 175 161 0
-31.7858 111.2883 -6.6080 -0.949 0.061 0.309 255 255 255 0
-36.9225 63.2201 -8.9576 -0.951 -0.231 -0.205 237 229 216 0
-36.8569 63.0559 -9.0447 -0.932 -0.279 -0.229 234 230 214 0
-35.5237 64.4941 -10.0959 -0.936 -0.279 0.213 232 229 213 0
-11.9554 68.4785 -31.9044 -0.458 0.580 0.673 113 104 82 0
-13.5147 66.1161 -30.7774 -0.045 0.060 0.997 115 78 70 0
-15.2148 63.9356 -29.4891 -0.117 0.259 0.959 114 64 65 0
-15.5537 63.3374 -29.2569 -0.083 0.258 0.962 113 61 65 0
-16.2300 62.4246 -28.7512 -0.172 0.351 0.921 112 56 62 0
-20.9112 55.7167 -25.3099 -0.068 -0.136 0.988 137 57 67 0
-20.8931 55.4797 -25.3628 0.150 -0.274 0.950 145 63 73 0
-22.7131 51.8656 -24.1762 0.334 -0.715 0.614 141 53 60 0
-23.1708 50.2589 -23.9829 -0.269 -0.121 0.956 124 28 40 0
-23.2879 49.6802 -23.9586 -0.837 0.493 0.238 123 27 41 0
-23.8363 48.9729 -23.5437 -0.713 0.609 0.346 125 28 42 0
-24.5861 48.0977 -22.9625 -0.626 0.555 0.548 126 28 42 0
-24.9049 46.9011 -22.8394 -0.354 -0.449 0.820 129 28 44 0
-24.5977 46.9283 -23.1274 -0.929 0.072 0.363 129 29 45 0
-24.3779 46.8810 -23.3435 -0.763 0.011 0.646 129 29 45 0
-25.5855 45.4203 -22.4152 -0.888 -0.238 0.394 131 28 45 0
-24.1006 42.3409 -24.2903 -0.269 0.616 0.741 137 24 42 0
-26.1491 34.8616 -23.4682 -0.758 -0.073 0.648 146 35 57 0
-26.0196 34.7452 -23.6089 -0.730 0.014 0.683 145 35 56 0
-24.7911 34.3405 -24.8378 -0.603 -0.691 -0.398 137 33 50 0
-24.2492 34.4945 -25.3298 0.040 -0.990 0.137 138 34 52 0
-24.4190 33.1456 -25.3714 -0.701 -0.299 0.648 135 29 46 0
-19.8567 33.9468 -29.5885 -0.535 -0.448 -0.716 120 20 43 0
-23.0649 31.7513 -26.8686 -0.751 -0.635 -0.182 116 16 42 0
-23.1263 31.5093 -26.8466 -0.548 -0.698 -0.461 109 12 36 0
-22.4882 31.4913 -27.4561 -0.299 -0.914 -0.274 105 13 31 0
-21.9150 31.2230 -28.0414 -0.510 -0.504 0.697 98 12 27 0
-21.9242 31.0123 -28.0644 -0.498 -0.426 0.755 96 13 28 0
-21.0344 29.0839 -29.2006 0.225 -0.920 0.321 83 15 24 0
-19.2428 29.2721 -30.8756 -0.951 -0.298 0.085 80 15 25 0
-18.7735 28.5010 -31.4379 -0.201 -0.973 -0.117 75 12 25 0
-7.6210 30.4083 -41.7544 -0.140 -0.963 -0.231 85 56 54 0
4.1565 34.4821 -52.3390 -0.665 -0.694 -0.278 190 173 159 0
1.1321 27.0102 -50.5879 -0.111 -0.955 -0.275 193 180 169 0
3.8451 27.1828 -53.1414 -0.075 -0.974 -0.215 192 179 167 0
-42.3382 85.1923 -0.7859 -0.674 0.510 0.534 235 225 215 0
-27.3879 75.8613 -16.4364 -0.893 0.099 0.438 236 229 216 0
-36.7360 63.4030 -9.3808 -0.869 -0.344 -0.355 235 229 215 0
-36.5305 63.4151 -9.5751 -0.993 -0.031 0.116 233 228 214 0
-13.2529 67.4195 -31.1766 0.264 -0.783 0.564 110 104 82 0
-15.4250 63.9200 -29.6275 -0.116 0.207 0.971 115 64 65 0
-16.2799 62.8327 -28.9745 -0.162 0.273 0.948 116 60 65 0
-16.3494 62.4923 -28.9590 -0.305 0.209 0.929 115 56 62 0
-20.4653 56.5437 -25.9216 -0.869 0.468 0.162 120 42 55 0
-21.0526 55.7514 -25.4798 -0.583 -0.243 0.775 133 52 63 0
-21.0523 55.4980 -25.5179 -0.351 -0.452 0.820 136 53 66 0
-20.9940 55.2978 -25.6034 -0.351 -0.452 0.820 123 37 48 0
-21.3452 54.4767 -25.3911 -0.901 0.434 0.011 121 33 42 0
-23.0673 51.7066 -24.1622 0.325 -0.694 0.642 156 69 75 0
-22.8663 50.6730 -24.5081 -0.200 0.112 0.973 124 28 39 0
-22.5390 50.7151 -24.8139 -0.698 0.473 0.538 122 26 39 0
-23.1453 49.9516 -24.3497 -0.693 0.495 0.524 121 26 40 0
-25.9221 46.6422 -22.1955 -0.284 0.530 0.799 129 29 45 0
-25.0101 47.1849 -22.9843 -0.666 0.434 0.607 128 30 45 0
-24.8881 47.0569 -23.1197 -0.147 -0.567 0.810 130 29 45 0
-24.5284 46.6658 -23.5212 -0.691 -0.238 0.683 134 31 48 0
-25.5846 45.5590 -22.6791 -0.905 -0.227 0.360 133 30 47 0
-25.4464 45.4465 -22.8276 -0.966 -0.241 -0.096 133 30 48 0
-27.0748 39.1108 -22.2203 -0.260 -0.774 -0.577 142 32 50 0
-24.9663 34.7474 -24.8824 -0.378 -0.919 0.113 142 36 54 0
-24.3557 34.5343 -25.4966 0.049 -0.991 0.124 136 33 50 0
-19.2076 34.4598 -30.4174 -0.536 -0.455 -0.711 115 16 39 0
-22.4896 31.5941 -27.7151 0.244 -0.931 0.270 105 13 31 0
-21.9231 31.3211 -28.2961 -0.592 -0.405 0.697 98 10 27 0
-21.8927 31.1338 -28.3530 -0.648 -0.357 0.673 96 11 27 0
-21.4520 28.9448 -29.1001 0.391 -0.894 0.218 84 14 24 0
8.4705 40.9651 -55.8422 -0.534 -0.835 0.130 73 24 33 0
8.4375 40.4044 -55.8945 -0.486 -0.711 0.509 75 28 36 0
3.6602 34.8606 -52.1659 -0.731 -0.613 -0.299 182 166 153 0
4.0837 34.5578 -52.6150 -0.760 -0.443 -0.476 190 173 158 0
1.1804 27.1252 -50.9555 -0.160 -0.939 -0.304 192 181 169 0
11.2042 26.7269 -60.5745 -0.491 -0.555 -0.671 188 176 162 0
-31.9643 111.6624 -7.0756 -0.949 0.064 0.309 255 255 255 0
-27.1251 76.4245 -16.9211 -0.927 -0.135 0.349 233 228 216 0
-17.1894 61.8791 -28.5786 -0.361 0.422 0.832 116 56 63 0
-18.1659 60.6874 -27.8209 -0.436 0.635 0.638 114 51 59 0
-19.2091 59.1761 -27.0467 -0.202 0.268 0.942 115 44 54 0
-20.7956 55.8956 -26.0147 -0.983 0.150 -0.101 123 40 52 0
-21.2497 55.2284 -25.6791 -0.354 -0.461 0.814 120 34 45 0
-21.0780 55.1312 -25.8577 -0.769 -0.102 0.632 120 32 44 0
-21.2971 54.4294 -25.7520 -0.900 0.436 -0.021 123 31 42 0
-22.6678 50.9969 -24.9490 -0.135 -0.396 0.908 123 27 38 0
-24.4409 48.0435 -23.6901 -0.470 0.359 0.806 128 29 44 0
-24.7465 46.6249 -23.6077 -0.712 -0.237 0.661 132 29 46 0
-25.8067 45.2863 -22.7917 -0.964 -0.228 0.140 133 31 48 0
-25.7028 39.8405 -23.6973 -0.118 -0.829 -0.547 143 34 53 0
-26.1236 39.3095 -23.3733 0.125 -0.992 -0.031 141 32 51 0
-24.9238 34.4728 -25.2370 -0.499 -0.808 -0.312 136 33 50 0
-24.6182 34.4700 -25.5297 -0.236 -0.881 -0.411 135 32 50 0
-24.4533 31.3004 -26.1567 0.326 -0.884 0.335 114 14 36 0
-21.9834 31.5943 -28.4759 -0.599 -0.728 0.333 101 11 29 0
-22.0854 31.3264 -28.4179 -0.651 -0.696 0.303 98 10 28 0
-22.0423 31.1467 -28.4858 -0.951 0.284 0.121 96 12 28 0
7.3364 40.2277 -55.2446 -0.554 -0.065 0.830 72 25 35 0
6.9753 39.7715 -54.9668 -0.551 -0.189 0.813 73 28 35 0
6.7835 39.4048 -54.8375 -0.643 0.368 0.672 74 30 35 0
6.7459 39.1186 -54.8440 -0.690 0.334 0.642 74 33 37 0
4.2305 34.7395 -53.0860 -0.754 -0.444 -0.483 188 171 157 0
1.3868 27.0702 -51.5012 0.130 -0.981 -0.145 192 179 168 0
-31.9608 112.4008 -7.3188 -0.942 0.067 0.328 255 255 255 0
-32.0300 111.8956 -7.3265 -0.949 0.064 0.309 255 255 255 0
-31.3297 111.0002 -8.1300 -0.931 -0.366 0.001 236 223 214 0
-32.1651 54.2790 -15.6552 -0.723 0.176 0.668 120 164 111 0
-20.7540 57.1253 -26.1864 -0.262 -0.043 0.964 116 40 50 0
-20.9426 56.6935 -26.0688 -0.834 0.514 0.201 116 40 50 0
-20.8524 56.0084 -26.2559 -0.985 0.136 -0.111 120 37 49 0
-20.8280 55.7755 -26.3135 -0.985 0.116 -0.127 120 34 45 0
-20.7806 55.5638 -26.3900 -0.921 0.389 0.021 120 32 44 0
-21.1858 54.9432 -26.0924 -0.903 0.429 0.013 120 32 44 0
-21.2395 54.6423 -26.0850 -0.905 0.425 -0.012 123 31 44 0
-23.3745 51.2572 -24.5334 0.246 -0.589 0.770 124 35 44 0
-25.9178 47.1593 -22.6947 -0.679 0.282 0.678 130 29 45 0
-25.6722 46.4491 -23.0346 -0.628 0.393 0.671 131 30 46 0
-24.5071 47.1987 -24.0425 -0.602 0.454 0.657 132 29 46 0
-25.0150 46.5416 -23.6516 -0.604 -0.609 0.514 133 30 47 0
-24.6954 46.3472 -23.9868 -0.956 -0.014 -0.292 134 31 47 0
-23.4493 39.8908 -26.1302 -0.576 0.736 0.356 143 34 55 0
-22.9248 32.7730 -27.6784 0.463 -0.448 0.765 119 18 38 0
-23.7521 31.2306 -27.1110 0.444 -0.867 0.225 109 14 33 0
-23.0162 31.2745 -27.8107 0.512 -0.591 0.623 106 14 32 0
-21.9636 31.5037 -28.7870 -0.686 -0.722 0.089 99 12 29 0
-22.2820 29.2719 -28.8092 -0.676 -0.600 -0.428 88 15 32 0
-22.1144 29.1665 -28.9855 -0.086 -0.938 0.336 85 14 30 0
-21.2970 28.6204 -29.8499 -0.643 -0.181 0.744 80 12 24 0
-15.4432 30.1841 -35.2371 0.578 -0.641 0.505 74 14 24 0
6.8681 39.8385 -55.2274 -0.552 -0.176 0.815 73 27 34 0
6.6812 39.4738 -55.1016 -0.683 0.328 0.652 74 30 35 0
6.5663 39.1475 -55.0393 -0.689 0.325 0.648 75 34 38 0
5.9076 38.5444 -54.4959 -0.946 0.211 0.246 77 37 41 0
4.7113 35.0835 -53.8560 -0.669 -0.469 -0.576 187 171 156 0
-20.7739 57.0168 -26.4977 -0.839 0.506 0.197 117 41 51 0
-21.2010 54.8388 -26.4037 -0.902 0.432 -0.002 121 32 44 0
-23.7064 51.3593 -24.4989 0.169 -0.789 0.591 123 32 41 0
-23.3439 51.1950 -24.8717 0.048 -0.194 0.980 121 29 40 0
-23.8617 50.4987 -24.4747 0.040 -0.160 0.986 123 29 41 0
-23.3294 50.7239 -24.9543 -0.126 -0.290 0.949 126 29 43 0
-23.3412 50.4723 -24.9795 -0.056 -0.217 0.975 126 28 43 0
-25.6568 46.6034 -23.3141 -0.603 0.391 0.695 131 30 45 0
-26.5505 40.9609 -23.2754 -0.320 -0.779 -0.539 134 25 44 0
-26.9312 39.3750 -23.1398 0.314 -0.946 0.084 145 36 56 0
-26.8031 39.2582 -23.2801 -0.833 -0.414 -0.368 146 38 58 0
-24.7377 37.9944 -25.4519 0.285 -0.944 0.168 146 34 59 0
-26.0274 36.2296 -24.4676 -0.934 0.309 0.179 140 32 55 0
-24.6094 34.2821 -26.1158 -0.403 -0.846 0.350 130 25 43 0
-23.3699 32.5989 -27.5537 0.462 -0.480 0.745 119 19 37 0
-23.4143 32.3645 -27.5451 0.444 -0.452 0.774 116 16 35 0
-23.7654 31.9387 -27.2692 0.417 -0.478 0.773 112 12 32 0
-23.5597 31.8623 -27.4783 0.486 -0.759 0.434 110 12 32 0
-24.1344 31.3008 -27.0069 0.447 -0.759 0.473 108 13 31 0
-23.6682 31.1822 -27.4728 0.443 -0.869 0.221 106 13 31 0
-23.3287 31.1868 -27.7989 0.511 -0.577 0.637 104 13 31 0
-22.9207 31.2315 -28.1850 0.471 -0.643 0.604 101 13 29 0
-22.1577 29.4429 -29.1798 -0.657 -0.612 -0.440 89 16 33 0
-22.1478 29.2459 -29.2180 -0.591 -0.723 -0.357 86 15 31 0
-21.4498 28.6317 -29.9792 -0.647 -0.179 0.741 78 10 23 0
-16.3978 29.7667 -34.6761 0.586 -0.642 0.494 75 15 27 0
5.9677 38.9608 -54.8628 -0.909 0.212 0.358 75 34 38 0
5.3745 38.3914 -54.3748 -0.989 0.108 0.105 78 37 42 0
-6.1153 31.5717 -44.3095 -0.252 -0.873 -0.417 86 57 54 0
4.8994 35.2870 -54.3694 -0.667 -0.473 -0.576 185 170 155 0
-32.1639 112.3613 -7.8297 -0.944 0.081 0.321 255 255 255 0
-15.5195 64.8530 -30.7544 -0.532 0.731 0.428 117 73 68 0
-19.3123 59.6001 -27.8511 0.075 0.341 0.937 116 49 56 0
-21.4099 56.5946 -26.2601 0.009 0.002 1.000 118 41 51 0
-20.9939 55.4432 -26.8278 -0.997 0.077 -0.014 119 31 43 0
-20.8632 55.3070 -26.9737 -0.894 0.446 0.029 119 32 43 0
-23.2307 52.4257 -25.1041 -0.936 0.317 0.155 123 32 43 0
-23.6996 51.7623 -24.7471 -0.821 0.263 0.507 122 32 41 0
-23.8172 51.4147 -24.6837 -0.817 0.264 0.513 122 31 41 0
-23.8339 51.1577 -24.7048 -0.834 0.248 0.494 122 30 41 0
-23.9785 50.7884 -24.6184 -0.819 0.269 0.507 124 29 43 0
-23.9238 48.4491 -25.0089 -0.743 0.644 0.182 129 28 42 0
-24.6114 46.6994 -24.5976 -0.958 -0.014 -0.286 134 32 46 0
-26.3542 42.1190 -23.5763 -0.862 -0.006 0.506 137 29 45 0
-26.3689 41.2298 -23.6904 -0.337 -0.766 -0.547 134 25 46 0
-25.4190 41.7480 -24.5326 0.313 -0.922 0.227 134 25 46 0
-26.5176 40.6788 -23.6265 -0.225 -0.861 -0.456 137 28 49 0
-27.2220 39.2776 -23.1487 0.314 -0.946 0.084 146 38 59 0
-26.7187 39.4455 -23.6103 -0.797 -0.429 -0.425 146 40 60 0
-25.4746 38.0114 -25.0183 -0.486 0.737 0.469 146 34 58 0
-23.6877 32.7110 -27.5083 0.468 -0.577 0.670 124 22 41 0
-24.7643 31.8230 -26.5972 -0.804 -0.594 0.015 121 20 38 0
-24.6303 31.7043 -26.7437 -0.808 -0.588 0.021 117 18 36 0
-23.6332 31.1034 -27.7930 0.408 -0.877 0.255 102 13 30 0
-23.0855 31.2345 -28.3027 0.401 -0.884 0.239 101 14 29 0
-22.3630 31.2630 -28.9961 0.486 -0.735 0.473 97 13 28 0
-21.7775 28.5440 -29.9537 -0.555 -0.350 0.754 78 10 23 0
4.9107 39.8609 -54.0840 0.070 -0.988 -0.140 71 23 34 0
5.0498 38.3445 -54.4371 -0.662 0.026 0.749 77 38 42 0
5.7095 38.4181 -55.0634 -0.599 -0.017 0.800 77 40 43 0
5.2842 35.5869 -55.0615 -0.667 -0.473 -0.576 184 170 155 0
7.1440 32.0717 -57.3642 0.326 -0.768 0.551 189 180 168 0
-4.8465 14.8409 -48.2761 -0.644 -0.425 -0.637 183 169 156 0
-31.3347 111.6901 -9.0801 -0.812 -0.523 -0.259 234 223 216 0
-9.7279 73.3740 -35.4846 -0.996 -0.061 -0.064 88 129 83 0
-12.1786 70.0383 -33.5889 -0.984 0.007 0.175 93 115 77 0
-11.7482 69.8652 -34.0304 -0.980 -0.103 -0.172 103 104 79 0
-15.2637 65.2876 -31.2813 -0.538 0.724 0.430 117 75 69 0
-16.8215 63.5074 -30.0277 -0.520 0.729 0.445 117 69 66 0
-22.9087 52.8715 -25.6554 -0.790 0.556 0.258 122 32 42 0
-23.5450 48.9184 -25.6049 -0.751 0.636 0.178 130 31 43 0
-24.3188 47.0861 -25.1178 -0.990 0.087 -0.116 135 32 45 0
-26.0943 44.6938 -23.7409 -0.948 0.185 -0.259 139 38 51 0
-25.1317 43.4433 -24.8520 -0.629 -0.537 -0.562 138 29 45 0
-27.1520 40.9641 -23.2504 -0.422 -0.663 -0.619 135 27 44 0
-25.5961 41.9611 -24.6143 0.373 -0.903 0.211 135 26 46 0
-26.2877 40.9837 -24.0845 0.007 -0.849 0.528 137 28 48 0
-27.4453 39.8729 -23.1226 0.248 -0.412 0.877 138 28 48 0
-27.5460 39.1543 -23.1279 0.290 -0.956 0.044 147 38 59 0
-26.3439 39.8539 -24.1918 -0.950 -0.003 -0.311 146 38 59 0
-26.4781 39.5364 -24.1073 -0.944 -0.083 -0.318 144 37 59 0
-26.4910 39.3115 -24.1269 -0.971 -0.159 0.180 144 37 58 0
-26.5494 39.0530 -24.1074 -0.934 -0.275 0.226 144 38 58 0
-25.0401 35.2592 -26.1117 -0.932 -0.156 -0.327 138 35 54 0
-24.8182 35.2007 -26.3349 -0.539 -0.692 -0.479 134 31 52 0
-24.8868 32.2581 -26.6896 -0.283 -0.954 0.101 137 32 52 0
-24.7857 31.9146 -26.8367 -0.808 -0.588 0.021 124 23 41 0
-24.6863 31.7739 -26.9530 -0.808 -0.588 0.021 119 20 38 0
-24.5868 31.6330 -27.0695 -0.808 -0.588 0.021 116 19 36 0
-23.4544 31.1123 -28.2405 0.399 -0.890 0.223 100 13 28 0
-22.7916 31.1066 -28.8831 0.486 -0.735 0.473 96 14 28 0
-22.4273 31.1216 -29.2338 0.486 -0.735 0.473 96 14 28 0
-22.3014 30.9915 -29.3743 0.362 -0.257 0.896 96 17 31 0
-22.2948 30.7896 -29.4095 0.355 -0.240 0.904 96 18 33 0
-22.2046 30.6379 -29.5186 0.385 -0.332 0.861 91 14 30 0
-21.9036 29.7903 -29.9313 -0.532 -0.731 -0.426 86 15 30 0
-21.7766 29.4555 -30.1023 -0.522 -0.849 0.087 84 16 29 0
-22.5787 28.1876 -29.5069 0.149 -0.851 0.503 77 9 22 0
3.6093 40.8827 -53.0482 -0.983 0.059 -0.173 77 16 30 0
5.4507 35.7818 -55.5611 -0.695 -0.460 -0.553 184 171 155 0
-16.5659 19.4722 -36.5762 -0.857 0.128 0.498 190 181 168 0
-4.6422 6.9366 -49.9157 -0.721 -0.602 -0.343 164 149 136 0
-32.3579 112.7153 -8.2949 -0.945 0.072 0.318 255 255 255 0
-31.3807 111.9629 -9.3507 -0.803 -0.540 -0.253 234 222 215 0
-9.8649 73.4469 -35.7112 -0.995 -0.081 -0.061 87 128 83 0
-10.0025 73.0020 -35.6408 -0.995 -0.059 -0.078 87 125 81 0
-12.1656 70.2525 -33.9299 -0.999 -0.006 0.044 89 113 75 0
-11.6764 70.1363 -34.4214 -0.983 0.145 0.108 101 103 78 0
-12.1860 69.3397 -34.0395 -0.971 0.030 0.238 110 99 81 0
-15.4015 65.3439 -31.4833 -0.504 0.730 0.461 117 75 69 0
-16.7195 63.7907 -30.4235 -0.494 0.730 0.472 117 69 65 0
-24.5818 50.8001 -24.6299 -0.976 -0.156 -0.153 125 34 46 0
-25.1947 50.0164 -24.1458 -0.972 -0.053 -0.231 124 31 44 0
-24.6909 46.6848 -25.1076 -0.956 0.229 -0.184 136 33 47 0
-25.1121 46.1024 -24.7812 -0.943 0.273 -0.189 137 35 48 0
-25.4171 45.6192 -24.5535 -0.940 0.220 -0.261 137 36 49 0
-25.9874 43.3417 -24.3227 0.490 -0.236 0.839 140 32 48 0
-26.4939 40.9517 -24.1697 0.047 -0.854 0.517 136 25 44 0
-27.3236 40.0923 -23.4858 0.186 -0.644 0.743 139 28 47 0
-26.2004 40.3055 -24.5464 -0.958 -0.015 -0.285 143 32 54 0
-26.5555 39.6021 -24.3014 -0.927 0.002 0.375 144 35 58 0
-26.7449 39.2436 -24.1682 -0.663 -0.107 0.741 144 35 58 0
-26.7079 39.0569 -24.2306 0.203 -0.947 0.247 143 35 57 0
-25.0072 35.3954 -26.4019 -0.944 -0.178 -0.278 135 31 51 0
-24.8452 35.2958 -26.5733 -0.553 -0.681 -0.479 135 32 52 0
-24.7854 35.1263 -26.6555 -0.463 -0.694 -0.551 134 31 50 0
-24.6946 32.0781 -27.1760 -0.383 -0.917 0.112 133 32 48 0
-24.6507 31.9017 -27.2437 -0.825 -0.565 -0.017 119 21 36 0
-24.6429 31.7026 -27.2795 -0.808 -0.588 0.021 115 18 34 0
-24.4922 30.9836 -27.5278 -0.166 -0.935 0.314 103 12 29 0
-24.2529 30.9287 -27.7681 -0.247 -0.927 0.281 101 13 29 0
-23.4534 31.0120 -28.5328 0.413 -0.881 0.229 98 13 28 0
-23.2571 30.9271 -28.7354 0.405 -0.832 0.379 96 14 28 0
-22.0799 29.7879 -30.0404 -0.593 -0.786 -0.177 85 15 29 0
-21.8616 29.5061 -30.2924 -0.529 -0.845 0.085 82 14 26 0
-22.7434 27.3920 -29.7358 -0.126 -0.989 0.071 77 13 25 0
-22.4676 27.3461 -30.0102 0.015 -0.304 0.953 79 16 28 0
-22.4341 27.1654 -30.0684 0.015 -0.304 0.953 75 13 26 0
6.0901 42.6383 -55.5776 -0.992 -0.118 -0.052 75 14 27 0
5.2309 35.7891 -55.7147 -0.762 -0.419 -0.494 184 170 157 0
-32.3013 113.1919 -8.6363 -0.936 0.091 0.339 255 255 255 0
-31.3890 112.3088 -9.6493 -0.736 -0.569 -0.368 234 223 215 0
-10.0497 73.7813 -35.8550 -0.782 -0.579 0.231 87 131 82 0
-10.1290 73.3930 -35.8324 -0.848 -0.462 0.261 85 128 81 0
-10.1909 73.0232 -35.8241 -0.843 -0.453 0.290 85 124 79 0
-12.3765 70.2460 -34.0853 -0.997 -0.017 0.075 86 113 74 0
-11.8350 70.1821 -34.6218 -0.969 0.160 0.190 99 104 77 0
-12.2641 69.4629 -34.3050 -0.963 0.034 0.268 107 100 79 0
-13.7591 67.7069 -33.0954 -0.075 -0.987 0.140 114 95 80 0
-15.2693 65.6617 -31.9117 -0.451 0.723 0.524 117 77 70 0
-16.6133 64.0792 -30.8248 -0.506 0.730 0.460 117 70 66 0
-19.5386 59.3795 -28.6357 -0.530 -0.802 0.276 116 45 54 0
-23.3907 52.0156 -25.9184 -0.870 0.473 0.141 124 32 45 0
-23.8968 50.8355 -25.5913 -0.871 -0.392 -0.296 124 26 44 0
-25.1070 48.8190 -24.6958 -0.644 0.513 0.568 128 27 45 0
-23.9950 46.9402 -26.0433 -0.875 -0.187 0.447 136 35 49 0
-25.2159 44.3242 -25.2217 0.256 -0.294 0.921 139 32 48 0
-26.3336 41.8647 -24.4786 0.386 -0.118 0.915 136 26 43 0
-26.3906 41.3796 -24.4913 0.206 -0.712 0.671 138 26 45 0
-26.7554 40.2238 -24.2984 -0.037 -0.929 -0.369 142 28 51 0
-26.0999 40.2906 -24.9276 -0.968 0.159 -0.196 141 28 53 0
-27.9193 38.2676 -23.4396 -0.941 -0.306 0.148 142 32 57 0
-25.6713 38.2299 -25.6349 -0.739 0.628 0.243 145 36 58 0
-24.7379 35.4829 -26.9305 -0.499 -0.725 -0.474 137 34 53 0
-24.3863 35.2996 -27.2987 -0.435 -0.741 -0.511 133 30 50 0
-24.6979 31.9774 -27.4623 -0.825 -0.565 -0.017 115 19 33 0
-24.6564 31.7993 -27.5278 -0.806 -0.591 0.017 111 17 31 0
-24.5752 31.0357 -27.7142 -0.998 -0.035 0.045 101 12 26 0
-24.4224 30.7244 -27.9068 -0.871 -0.447 0.203 98 13 26 0
-24.1100 30.7133 -28.2127 -0.292 -0.902 0.318 97 14 28 0
-23.8677 30.6581 -28.4565 -0.266 -0.896 0.356 95 13 28 0
-23.6325 30.5976 -28.6942 -0.391 -0.901 0.188 92 11 27 0
-22.6429 29.9667 -29.7470 0.330 -0.410 0.851 88 14 29 0
-21.7375 29.6781 -30.6696 -0.503 -0.598 0.624 82 14 25 0
-21.3801 29.2688 -31.0753 -0.612 -0.643 0.462 82 14 27 0
-21.4216 29.0405 -31.0670 -0.673 -0.708 0.213 80 12 25 0
-21.5966 28.7370 -30.9392 -0.764 -0.556 0.326 80 12 25 0
6.1976 42.8273 -56.0354 -0.978 -0.188 -0.091 76 15 28 0
5.6227 36.0953 -56.4218 -0.570 -0.702 -0.427 183 169 159 0
7.6314 34.6956 -58.5754 0.224 -0.943 0.247 192 177 168 0
5.9020 33.6312 -57.0404 -0.088 -0.996 -0.034 191 177 168 0
-32.3662 113.4346 -8.8941 -0.941 0.085 0.328 255 255 255 0
-31.6121 112.6232 -9.7440 -0.804 -0.564 -0.190 230 220 211 0
-10.7773 73.2607 -35.5883 0.200 -0.233 0.952 84 130 81 0
-11.1159 72.6139 -35.3476 0.344 -0.276 0.898 83 128 81 0
-11.9017 70.3186 -34.8996 -0.966 0.165 0.200 95 103 74 0
-12.3351 69.5935 -34.5771 -0.963 0.034 0.268 103 98 77 0
-13.8365 67.8272 -33.3561 -0.142 -0.985 -0.102 111 93 78 0
-15.3407 65.7834 -32.1711 -0.477 0.722 0.502 116 77 70 0
-16.6008 64.2784 -31.1494 -0.505 0.730 0.461 116 71 66 0
-23.1703 52.6160 -26.3551 -0.879 0.424 0.217 122 33 45 0
-23.2317 52.3142 -26.3371 -0.946 0.319 0.052 122 30 43 0
-24.3279 50.6079 -25.5037 -0.981 -0.089 -0.172 124 27 44 0
-24.1019 50.5657 -25.7304 -0.891 0.125 0.436 124 27 44 0
-24.1123 50.3152 -25.7552 -0.893 0.132 0.431 124 26 43 0
-25.1466 48.2245 -25.0358 -0.954 -0.291 -0.068 128 27 41 0
-25.5879 44.1594 -25.1710 0.256 -0.294 0.921 139 32 48 0
-26.6915 41.2734 -24.4948 0.165 -0.763 0.624 137 24 43 0
-27.3870 40.5122 -23.9212 -0.281 -0.494 0.822 140 27 47 0
-26.5909 39.8249 -24.7949 -0.973 -0.160 -0.166 139 27 52 0
-24.6775 35.4271 -27.2775 -0.275 -0.920 -0.279 134 31 50 0
-24.6656 34.8030 -27.3761 -0.846 0.424 0.323 128 25 46 0
-24.8349 32.2012 -27.5732 -0.586 -0.792 -0.171 122 25 39 0
-24.7672 32.0394 -27.6619 -0.815 -0.579 0.002 113 18 32 0
-24.7125 31.8694 -27.7391 -0.801 -0.598 0.008 110 17 31 0
-24.5439 31.1590 -28.0028 -0.998 -0.032 0.056 103 15 29 0
-24.4795 30.9955 -28.0885 -0.883 -0.405 0.235 102 15 29 0
-24.4232 30.8271 -28.1670 -0.883 -0.405 0.235 99 14 27 0
-24.3428 30.6734 -28.2669 -0.879 -0.416 0.233 97 14 27 0
-21.3418 29.3905 -31.3782 -0.527 -0.634 0.566 83 15 28 0
-21.3882 29.1587 -31.3652 -0.646 -0.662 0.381 81 13 26 0
-20.8305 29.2705 -31.8945 -0.620 -0.769 -0.153 81 13 26 0
-20.7375 29.1172 -32.0069 -0.562 -0.726 -0.396 79 13 25 0
3.5660 36.2349 -54.7637 0.061 -0.910 -0.411 160 141 132 0
5.8062 36.3007 -56.9436 -0.698 -0.659 -0.281 183 169 160 0
6.6731 34.0998 -58.0974 -0.175 -0.945 -0.275 191 177 168 0
6.0994 33.3163 -57.6459 -0.242 -0.955 -0.172 192 179 170 0
-13.8743 15.4902 -40.6123 0.132 -0.983 -0.125 183 171 157 0
-3.1088 16.1019 -51.0467 -0.922 -0.279 -0.268 180 168 156 0
-32.4343 113.6722 -9.1507 -0.941 0.085 0.328 255 255 255 0
-31.6966 112.8268 -9.9904 -0.804 -0.564 -0.190 231 221 212 0
-11.1987 73.0464 -35.5748 0.325 -0.218 0.920 82 130 80 0
-11.5066 72.4303 -35.3581 0.348 -0.191 0.918 79 127 79 0
-12.0730 70.6527 -35.0484 -0.956 0.209 0.204 88 110 76 0
-12.0618 70.3634 -35.0994 -0.980 -0.014 0.199 92 102 73 0
-12.4572 69.6743 -34.8069 -0.973 0.010 0.230 100 98 75 0
-23.9608 52.0634 -25.9638 -0.816 0.149 0.559 123 33 45 0
-24.2727 51.2954 -25.7641 -0.874 0.166 0.456 124 32 45 0
-24.5026 50.8480 -25.6006 -0.862 0.235 0.448 123 30 44 0
-24.5818 50.5361 -25.5660 -0.865 0.224 0.449 123 29 43 0
-24.6379 50.2455 -25.5511 -0.870 0.225 0.439 124 29 46 0
-25.2170 49.4958 -25.0870 -0.970 -0.024 -0.240 124 27 44 0
-25.1656 48.3552 -25.2949 -0.953 -0.293 -0.072 129 31 44 0
-26.9313 41.2146 -24.5503 0.170 -0.763 0.624 138 26 44 0
-27.6064 40.4683 -23.9918 -0.303 -0.542 0.784 140 27 46 0
-23.6743 36.2267 -28.4315 -0.164 0.074 0.984 131 28 47 0
-23.4941 36.1348 -28.6208 -0.227 0.118 0.967 132 29 48 0
-24.3254 35.3572 -27.9134 -0.099 -0.156 0.983 130 28 48 0
-24.7284 34.8736 -27.5852 -0.507 0.413 0.756 127 24 45 0
-24.9453 34.5176 -27.4217 -0.504 0.383 0.774 127 24 44 0
-25.0550 34.2350 -27.3532 -0.504 0.383 0.774 128 25 44 0
-25.1408 33.3468 -27.3918 -0.385 -0.923 -0.003 130 24 44 0
-25.7478 32.5381 -26.9085 -0.329 -0.899 0.288 129 27 42 0
-24.8280 32.1070 -27.8696 -0.813 -0.582 0.009 112 18 32 0
-24.5390 31.2663 -28.2689 -0.996 -0.059 0.061 102 14 29 0
-24.5445 31.0590 -28.2922 -0.995 -0.082 0.063 103 16 30 0
-24.5478 30.8535 -28.3173 -0.994 -0.084 0.066 104 19 32 0
-24.5469 30.6510 -28.3462 -0.995 -0.076 0.065 100 16 31 0
-24.3793 30.5510 -28.5243 -0.882 -0.390 0.265 94 12 26 0
-23.9609 30.6033 -28.9272 -0.411 -0.898 0.160 92 11 26 0
-23.8792 30.0428 -29.0846 -0.466 -0.723 0.510 95 18 34 0
-20.7802 29.8132 -32.1538 -0.188 -0.982 0.017 83 17 27 0
-20.6118 29.7021 -32.3341 -0.180 -0.984 0.011 81 15 26 0
-20.9352 29.3107 -32.0713 -0.575 -0.715 -0.397 82 15 26 0
-3.5887 29.9012 -48.9918 -0.696 -0.280 -0.661 191 177 167 0
-12.5445 15.6436 -42.1827 0.469 -0.832 0.296 183 171 158 0
-31.7865 113.0212 -10.2339 -0.638 -0.632 -0.440 230 219 213 0
-11.8307 71.7039 -35.5066 0.359 -0.247 0.900 79 121 79 0
-12.5758 70.3574 -34.9584 0.048 -0.114 0.992 87 110 76 0
-12.5103 69.8236 -35.0958 -0.925 -0.328 -0.191 98 97 75 0
-19.0644 60.3570 -29.9477 -0.627 -0.672 -0.394 116 46 54 0
-24.7319 51.5255 -25.5842 -0.968 -0.040 0.247 122 33 46 0
-13.1283 57.8203 -36.1307 0.044 0.223 0.974 130 31 44 0
-15.1949 55.2607 -34.4492 -0.066 0.341 0.938 131 33 46 0
-27.2279 41.1108 -24.5554 0.166 -0.759 0.630 138 27 44 0
-25.9358 38.4009 -26.1965 -0.485 0.648 0.588 141 35 58 0
-26.9399 35.5579 -25.5985 -0.991 -0.090 0.095 137 29 51 0
-24.8377 35.3351 -27.6956 -0.290 -0.913 -0.288 125 24 42 0
-24.6266 35.2671 -27.9125 -0.665 0.462 0.586 127 26 44 0
-24.9115 34.8631 -27.6877 -0.743 0.385 0.548 127 26 45 0
-25.0170 34.5819 -27.6225 -0.817 -0.576 -0.018 126 24 43 0
-24.8322 34.4961 -27.8158 -0.808 -0.560 -0.180 125 24 41 0
-25.0331 34.1523 -27.6653 -0.829 -0.528 -0.181 127 26 44 0
-25.4667 32.6239 -27.4482 -0.547 -0.812 -0.202 123 22 38 0
-24.9569 32.1313 -28.0169 -0.893 -0.290 0.345 112 18 34 0
-23.9529 31.7372 -29.0578 -0.595 0.301 0.745 99 11 28 0
-24.1266 31.4232 -28.9301 -0.906 0.356 0.226 101 13 29 0
-24.1059 31.2310 -28.9767 -0.438 -0.113 0.892 104 17 33 0
-24.3804 30.6533 -28.7859 -0.868 -0.442 0.228 95 13 27 0
-23.7799 30.4083 -29.4097 -0.187 -0.742 0.644 94 14 30 0
-23.9636 30.0937 -29.2722 -0.380 -0.900 0.214 93 16 32 0
-21.5194 30.1083 -31.6731 -0.502 0.458 0.734 87 17 28 0
-21.0586 29.7540 -32.1747 -0.216 -0.976 0.015 82 19 27 0
-20.8029 29.6936 -32.4343 -0.216 -0.976 0.015 81 17 26 0
-20.7818 29.4982 -32.4818 -0.621 -0.768 -0.154 81 16 25 0
-20.5801 29.4057 -32.6927 -0.621 -0.770 -0.145 77 13 22 0
-4.3716 30.1037 -48.5323 -0.684 -0.533 -0.498 190 177 166 0
-25.9157 14.6988 -29.4597 0.034 -0.579 0.814 186 176 161 0
-12.2634 15.8145 -42.7289 0.439 -0.839 0.322 181 168 157 0
-14.5189 12.1668 -41.0106 -0.988 -0.149 0.026 180 165 152 0
5.9054 12.9949 -60.9769 0.339 -0.578 0.742 171 157 144 0
-15.2149 69.1038 -32.8888 0.337 -0.199 0.920 76 128 78 0
-15.1934 68.8319 -32.9469 0.333 -0.195 0.922 74 126 78 0
-15.2717 67.8766 -32.9992 0.444 -0.620 0.647 81 112 76 0
-13.5924 68.3652 -34.5889 -0.542 -0.816 0.199 109 88 75 0
-24.7503 51.6650 -25.8501 -0.963 -0.042 0.267 122 31 46 0
-25.0147 50.9410 -25.6875 -0.800 -0.296 -0.521 125 33 47 0
-12.7790 58.2884 -36.7572 -0.579 -0.650 0.492 127 29 42 0
-26.9707 35.6514 -25.8315 -0.991 -0.090 0.095 136 28 51 0
-25.0418 34.8882 -27.8370 -0.776 -0.199 0.598 128 27 45 0
-25.0740 34.6561 -27.8368 -0.709 -0.363 0.604 124 23 40 0
-24.0455 31.7851 -29.2402 -0.908 0.354 0.224 103 15 31 0
-24.1346 31.5234 -29.1879 -0.908 0.354 0.224 104 17 33 0
-24.2870 31.2232 -29.0783 -0.862 0.167 0.478 110 26 39 0
-21.0008 29.8886 -32.4998 -0.577 -0.754 -0.314 80 17 26 0
-14.9858 15.3029 -40.4087 0.144 -0.983 -0.115 184 171 158 0
-14.3779 12.2762 -41.4185 -0.883 0.070 0.464 180 166 155 0
4.6965 12.7419 -60.1651 0.427 -0.633 0.646 168 158 143 0
-21.5648 63.4224 -27.7256 -0.410 -0.593 -0.693 80 134 84 0
-20.3017 64.4326 -28.8393 -0.420 -0.668 -0.614 78 132 81 0
-19.8647 64.5981 -29.2492 -0.487 -0.640 -0.594 74 129 79 0
-19.6728 64.5138 -29.4504 0.218 -0.962 0.161 73 128 79 0
-18.9314 64.9811 -30.1210 0.204 -0.969 0.137 75 124 78 0
-18.6300 65.0030 -30.4161 0.204 -0.969 0.137 75 121 77 0
-15.1550 67.8991 -33.4643 0.135 -0.549 0.825 85 109 77 0
-14.0789 68.6742 -34.4246 -0.315 -0.944 0.093 94 103 77 0
-13.7431 68.4159 -34.7915 -0.542 -0.816 0.199 107 88 75 0
-13.0535 68.7975 -35.4224 -0.107 -0.817 0.567 109 80 72 0
-22.1498 56.9946 -28.0102 0.307 -0.704 0.641 119 43 52 0
-24.8336 51.7463 -26.0606 -0.968 -0.058 0.244 122 32 46 0
-29.2626 42.3570 -22.9408 -0.891 -0.400 -0.215 133 28 46 0
-27.6872 41.0072 -24.6804 -0.051 -0.998 0.040 136 24 42 0
-26.9150 36.4374 -26.0580 -0.963 -0.229 0.145 134 28 51 0
-26.9509 36.2011 -26.0542 -0.963 -0.234 0.130 134 28 50 0
-27.0436 35.7155 -26.0277 -0.993 -0.102 0.056 136 29 52 0
-25.0875 35.3936 -28.0057 -0.287 -0.910 -0.299 127 25 45 0
-24.9757 35.2583 -28.1345 -0.668 0.475 0.573 127 25 44 0
-25.1255 34.9451 -28.0284 -0.561 -0.351 0.749 130 28 47 0
-25.1764 34.7000 -28.0109 -0.685 -0.414 0.599 127 25 43 0
-24.8418 33.2487 -28.5369 -0.937 0.323 0.136 117 17 35 0
-24.9499 32.9704 -28.4673 -0.925 0.342 0.163 114 15 33 0
-24.9971 32.7326 -28.4525 -0.643 0.484 0.593 114 17 33 0
-24.9143 32.5793 -28.5550 -0.259 -0.425 0.867 110 16 31 0
-24.8659 32.4039 -28.6265 -0.259 -0.425 0.867 106 15 30 0
-24.0373 31.8965 -29.5142 -0.906 0.358 0.225 101 16 31 0
-24.1279 31.6331 -29.4600 -0.906 0.358 0.225 103 18 33 0
-23.8443 30.3704 -29.9101 -0.414 -0.878 0.241 91 13 29 0
-23.8959 30.1352 -29.8906 -0.861 -0.504 -0.076 90 12 27 0
-20.8979 30.0497 -32.8675 -0.585 -0.772 -0.249 79 16 25 0
-1.3927 36.9579 -51.2325 -0.350 -0.823 0.448 75 29 33 0
-0.8565 36.9893 -51.7587 -0.529 -0.734 0.426 75 30 35 0
-3.4452 31.2313 -49.9716 -0.923 -0.367 0.116 188 175 162 0
-4.2558 30.6014 -49.2544 -0.931 -0.352 0.097 190 176 164 0
-3.0495 30.9424 -50.4018 -0.848 -0.505 -0.162 190 177 165 0
-2.9426 29.5606 -50.6931 0.250 0.252 0.935 190 180 168 0
-14.2466 12.9510 -41.7430 -0.376 -0.925 -0.060 181 169 157 0
-13.8808 12.8807 -42.1142 -0.417 -0.909 -0.015 180 168 155 0
-14.3277 12.5456 -41.7171 -0.950 -0.305 0.070 179 167 155 0
-21.0907 64.0956 -28.4356 -0.377 -0.640 -0.669 77 136 85 0
-20.2987 64.6266 -29.1507 -0.459 -0.606 -0.649 75 134 83 0
-19.2758 64.8259 -30.1390 0.211 -0.969 0.133 73 128 81 0
-14.2693 68.0962 -34.6710 -0.220 -0.945 0.243 104 90 75 0
-13.5531 68.5066 -35.3270 0.130 -0.902 0.411 110 81 73 0
-14.1959 67.5814 -34.8124 -0.591 0.696 0.407 115 76 71 0
-22.6479 56.4368 -27.9095 0.314 -0.869 0.383 118 42 52 0
-26.0883 47.6751 -25.6620 -0.991 0.129 0.046 126 30 42 0
-23.5684 48.6467 -28.0327 -0.576 -0.709 -0.407 132 32 44 0
-23.8588 48.1612 -27.8092 -0.489 -0.574 -0.657 132 31 45 0
