ply
format ascii 1.0
element vertex 869
property float x
property float y
property float z
property float nx
property float ny
property float nz
property uchar diffuse_red
property uchar diffuse_green
property uchar diffuse_blue
property uchar class
end_header
-4.8154 59.6189 -24.5390 0.697 -0.693 0.183 116 89 85 0
-4.6511 59.8224 -24.3938 0.697 -0.693 0.183 125 104 96 0
-4.4873 60.0253 -24.2490 0.697 -0.693 0.183 155 138 125 0
-4.8800 60.2968 -24.2793 0.718 -0.669 0.195 202 189 173 0
-4.7281 60.5008 -24.1384 0.718 -0.669 0.195 203 196 175 0
-1.6707 72.3201 -18.0792 0.675 0.738 0.005 211 200 184 0
-1.9768 72.5998 -18.0743 0.675 0.738 0.005 209 200 185 0
-3.1682 73.0813 -18.3092 0.687 0.726 0.003 208 199 184 0
-3.4651 73.3622 -18.3004 0.687 0.726 0.003 205 196 181 0
-3.7632 73.6443 -18.2917 0.687 0.726 0.003 204 195 180 0
11.3655 88.5088 -6.5408 0.709 -0.253 0.658 179 161 139 0
10.0626 89.5630 -6.5772 0.486 -0.463 0.742 178 160 138 0
10.5372 89.5536 -6.4074 0.490 -0.447 0.748 178 160 138 0
10.2487 90.0287 -6.3144 0.489 -0.447 0.749 177 159 137 0
16.0500 89.2232 -4.5274 0.965 -0.136 -0.224 254 255 254 0
0.7808 26.4980 -36.6115 0.741 -0.628 0.240 130 104 97 0
0.9432 26.7534 -36.4448 0.741 -0.628 0.240 123 92 88 0
4.0389 27.8719 -34.8369 0.827 -0.535 0.176 113 74 74 0
4.1088 28.1069 -34.7129 0.731 -0.639 0.241 108 69 68 0
4.2708 28.3539 -34.5499 0.731 -0.639 0.241 107 66 67 0
4.4323 28.6000 -34.3875 0.731 -0.639 0.241 103 60 62 0
4.5933 28.8453 -34.2256 0.731 -0.639 0.241 99 54 56 0
5.7324 29.6579 -33.4662 0.738 -0.657 0.158 99 52 54 0
5.9131 29.9014 -33.2978 0.738 -0.657 0.158 98 49 53 0
7.6611 31.4191 -32.0192 0.714 -0.640 0.285 100 48 50 0
7.8092 31.6522 -31.8671 0.714 -0.640 0.285 100 48 50 0
7.3975 33.1268 -31.4019 0.939 -0.342 0.027 103 39 44 0
7.6641 35.3073 -30.3916 0.504 0.306 0.808 113 37 43 0
8.3152 37.2755 -29.3285 0.511 -0.146 0.847 102 33 38 0
8.2776 37.4858 -29.2544 0.513 -0.133 0.848 106 37 41 0
8.2215 37.6951 -29.1875 0.513 -0.133 0.848 104 38 41 0
8.1653 37.9044 -29.1206 0.513 -0.133 0.848 106 41 44 0
8.1091 38.1139 -29.0537 0.513 -0.133 0.848 107 42 46 0
8.6150 38.3522 -28.7677 0.513 -0.139 0.847 106 39 45 0
8.3977 39.1874 -28.4984 0.513 -0.139 0.847 114 43 47 0
8.3433 39.3963 -28.4310 0.513 -0.139 0.847 115 42 46 0
7.1392 40.8373 -28.2716 0.524 0.402 0.751 115 41 47 0
6.9538 41.0448 -28.2531 0.524 0.402 0.751 115 40 44 0
5.7268 41.2262 -28.6291 0.525 0.404 0.749 115 40 42 0
6.9029 41.8944 -27.9164 0.560 0.398 0.727 118 44 44 0
6.7256 42.1035 -27.8943 0.560 0.398 0.727 126 52 50 0
6.5477 42.3132 -27.8720 0.560 0.398 0.727 134 60 57 0
6.3694 42.5234 -27.8498 0.560 0.398 0.727 138 63 59 0
6.7516 43.1657 -27.4404 0.539 0.414 0.733 125 45 46 0
6.5640 43.3763 -27.4214 0.539 0.414 0.733 126 45 46 0
6.9221 43.5905 -27.1999 0.955 -0.004 0.298 127 46 49 0
6.7603 43.8013 -27.1713 0.609 -0.256 0.751 128 47 50 0
5.8087 44.2242 -27.3448 0.539 0.414 0.733 130 50 53 0
5.6186 44.4375 -27.3256 0.539 0.414 0.733 127 48 51 0
6.2058 44.6489 -27.0209 0.965 -0.017 0.264 126 48 52 0
6.1872 44.8611 -26.9390 0.965 -0.017 0.264 129 51 55 0
6.1685 45.0733 -26.8571 0.965 -0.017 0.264 131 53 58 0
6.7303 45.2803 -26.5636 0.955 -0.004 0.298 127 52 56 0
6.9368 45.4889 -26.4003 0.952 -0.010 0.307 126 51 56 0
7.0878 45.6974 -26.2575 0.958 0.057 0.281 125 50 56 0
7.3001 45.9043 -26.0928 0.956 -0.011 0.292 123 48 57 0
7.0187 46.1182 -26.1069 0.958 0.057 0.281 123 50 58 0
6.9842 46.3287 -26.0316 0.958 0.057 0.281 124 51 59 0
5.2471 46.5724 -26.5693 0.957 0.050 0.286 124 53 61 0
-5.3975 47.9385 -29.9179 0.972 -0.048 0.231 118 53 59 0
-5.4293 48.6328 -29.6392 0.972 -0.048 0.231 113 47 54 0
4.0997 49.3781 -25.8182 0.978 -0.206 -0.031 107 42 49 0
4.1475 49.5892 -25.7123 0.978 -0.206 -0.031 104 39 46 0
4.2429 50.0106 -25.5009 0.978 -0.206 -0.031 103 36 44 0
4.6662 50.2021 -25.2649 0.957 0.050 0.286 104 37 44 0
4.6320 50.4157 -25.1882 0.957 0.050 0.286 100 33 40 0
4.3855 50.6405 -25.1849 0.978 -0.206 -0.031 95 28 36 0
4.4329 50.8500 -25.0798 0.978 -0.206 -0.031 95 28 36 0
5.4129 51.6355 -24.3903 0.633 -0.220 0.742 94 32 38 0
5.3919 51.8464 -24.3098 0.633 -0.220 0.742 94 33 38 0
5.7104 52.0350 -24.1136 0.646 -0.247 0.722 90 27 34 0
5.6979 52.2447 -24.0306 0.646 -0.247 0.722 93 29 37 0
4.2560 52.7647 -24.3440 0.957 0.050 0.286 88 23 31 0
4.2219 52.9783 -24.2672 0.957 0.050 0.286 89 24 32 0
4.1535 53.4054 -24.1137 0.957 0.050 0.286 91 28 36 0
4.1193 53.6189 -24.0370 0.957 0.050 0.286 87 26 33 0
4.0852 53.8325 -23.9602 0.957 0.050 0.286 86 25 32 0
3.4283 54.0970 -24.0915 0.969 0.062 0.239 84 23 30 0
3.4478 55.1531 -23.6425 0.909 0.279 0.309 86 26 33 0
3.3602 55.3724 -23.5831 0.909 0.279 0.309 87 28 35 0
3.2725 55.5919 -23.5236 0.909 0.279 0.309 85 28 35 0
3.4523 55.7859 -23.3762 0.970 -0.015 0.244 87 32 37 0
1.5310 56.1841 -23.9171 0.622 0.660 0.421 88 36 40 0
1.2730 56.4238 -23.9119 0.622 0.660 0.421 87 36 38 0
1.0141 56.6644 -23.9066 0.622 0.660 0.421 88 38 40 0
0.7542 56.9058 -23.9013 0.622 0.660 0.421 88 40 41 0
0.4934 57.1482 -23.8960 0.622 0.660 0.421 87 41 42 0
0.2316 57.3914 -23.8906 0.622 0.660 0.421 88 46 46 0
-0.0311 57.6355 -23.8853 0.622 0.660 0.421 89 48 48 0
-0.2949 57.8806 -23.8799 0.622 0.660 0.421 90 51 51 0
-0.5596 58.1265 -23.8745 0.622 0.660 0.421 93 56 55 0
-0.8252 58.3734 -23.8691 0.622 0.660 0.421 98 63 61 0
-1.0919 58.6211 -23.8636 0.622 0.660 0.421 102 68 66 0
-4.4213 59.4503 -24.7428 0.680 -0.707 0.197 109 77 75 0
-4.6799 59.7044 -24.7318 0.697 -0.693 0.183 115 86 82 0
-4.5158 59.9077 -24.5863 0.697 -0.693 0.183 127 102 97 0
-4.3523 60.1104 -24.4413 0.697 -0.693 0.183 150 129 119 0
-4.7475 60.3825 -24.4731 0.718 -0.669 0.195 203 188 173 0
-4.5959 60.5863 -24.3320 0.718 -0.669 0.195 205 194 175 0
-3.8142 61.3715 -23.7157 0.664 -0.694 0.278 210 202 182 0
-1.8248 72.4626 -18.3434 0.675 0.738 0.005 209 199 183 0
-2.1319 72.7432 -18.3392 0.675 0.738 0.005 207 198 182 0
-2.9932 73.1510 -18.4858 0.682 0.732 -0.000 207 198 182 0
-3.6167 73.5069 -18.5665 0.687 0.726 0.003 207 198 182 0
-3.9157 73.7898 -18.5583 0.687 0.726 0.003 206 197 181 0
10.3938 89.5411 -6.6997 0.489 -0.447 0.749 177 161 137 0
10.7691 89.5706 -6.5491 0.490 -0.447 0.748 175 158 136 0
9.8436 90.1222 -6.6592 0.482 -0.445 0.755 177 159 137 0
10.4816 90.0451 -6.4565 0.489 -0.447 0.749 175 157 134 0
10.5108 90.2128 -6.3756 0.489 -0.447 0.749 174 157 133 0
-5.4652 23.7158 -40.3684 0.942 -0.255 -0.218 233 222 204 0
-5.3601 23.9777 -40.2198 0.942 -0.255 -0.218 233 222 204 0
0.9215 26.5926 -36.7979 0.741 -0.628 0.240 131 104 97 0
1.0836 26.8478 -36.6310 0.741 -0.628 0.240 124 92 89 0
4.3489 27.5364 -35.1330 0.822 -0.540 0.182 122 88 86 0
4.4756 27.7793 -34.9844 0.822 -0.540 0.182 119 80 80 0
4.2487 28.1990 -34.8927 0.731 -0.639 0.241 108 68 68 0
4.5716 28.6915 -34.5669 0.731 -0.639 0.241 102 58 61 0
4.7323 28.9366 -34.4047 0.731 -0.639 0.241 100 54 57 0
8.3948 31.5728 -31.9442 0.935 -0.353 0.031 99 48 50 0
8.8721 34.8366 -30.4010 0.365 0.305 0.880 108 32 40 0
7.8528 35.3977 -30.5437 0.504 0.306 0.808 110 34 41 0
7.5455 35.5894 -30.5773 0.527 0.228 0.819 105 30 37 0
8.5567 37.3669 -29.4585 0.511 -0.146 0.847 102 33 38 0
8.5175 37.5768 -29.3851 0.513 -0.133 0.848 106 37 42 0
8.4615 37.7859 -29.3184 0.513 -0.133 0.848 104 38 42 0
8.4054 37.9950 -29.2516 0.513 -0.133 0.848 107 41 46 0
8.1762 38.1951 -29.2527 0.518 -0.122 0.846 107 40 47 0
8.8545 38.4418 -28.8981 0.513 -0.139 0.847 107 40 47 0
8.2372 38.6228 -29.0511 0.513 -0.133 0.848 104 37 44 0
8.1811 38.8323 -28.9842 0.513 -0.133 0.848 107 38 45 0
8.6376 39.2760 -28.6292 0.513 -0.139 0.847 114 42 49 0
8.5291 39.6936 -28.4947 0.513 -0.139 0.847 115 43 47 0
8.2242 39.8930 -28.5241 0.524 0.402 0.751 115 42 47 0
7.0143 40.0610 -28.9020 0.525 0.404 0.749 116 42 47 0
7.3057 40.9225 -28.4334 0.524 0.402 0.751 115 42 49 0
6.0826 41.1022 -28.8113 0.525 0.404 0.749 114 41 45 0
5.8947 41.3121 -28.7930 0.525 0.404 0.749 114 39 43 0
7.0589 41.9787 -28.0826 0.560 0.398 0.727 117 43 44 0
6.8818 42.1879 -28.0607 0.560 0.398 0.727 126 51 51 0
6.7043 42.3975 -28.0386 0.560 0.398 0.727 130 56 55 0
6.5263 42.6077 -28.0166 0.560 0.398 0.727 136 61 58 0
6.3479 42.8185 -27.9945 0.560 0.398 0.727 134 56 57 0
6.9115 43.2494 -27.6053 0.539 0.414 0.733 129 48 50 0
6.7242 43.4600 -27.5865 0.539 0.414 0.733 128 46 49 0
6.9850 43.6733 -27.4005 0.955 -0.004 0.298 127 45 49 0
6.9739 43.8847 -27.3161 0.609 -0.256 0.751 127 45 49 0
5.7804 44.5212 -27.4918 0.539 0.414 0.733 130 49 53 0
6.8651 44.7299 -27.0026 0.955 -0.004 0.298 128 48 53 0
6.2443 44.9447 -27.1427 0.965 -0.017 0.264 129 50 55 0
6.2256 45.1569 -27.0608 0.965 -0.017 0.264 132 54 59 0
6.7931 45.3635 -26.7640 0.955 -0.004 0.298 131 56 61 0
6.7692 45.5746 -26.6845 0.955 -0.004 0.298 129 55 60 0
7.1423 45.7805 -26.4601 0.958 0.057 0.281 124 51 58 0
7.1078 45.9910 -26.3847 0.958 0.057 0.281 123 50 59 0
7.0733 46.2015 -26.3094 0.958 0.057 0.281 125 53 61 0
7.0387 46.4120 -26.2340 0.958 0.057 0.281 125 54 62 0
-7.9931 48.1087 -31.0926 0.513 0.541 0.666 120 56 62 0
-5.3715 48.7256 -29.8631 0.972 -0.048 0.231 117 52 58 0
-7.2870 49.2605 -30.3488 0.975 -0.038 0.217 113 47 53 0
3.8741 49.6903 -26.0340 0.976 -0.213 -0.036 104 39 45 0
4.2068 49.8883 -25.8278 0.978 -0.206 -0.031 101 36 42 0
4.2545 50.0989 -25.7220 0.978 -0.206 -0.031 101 35 42 0
4.7228 50.2880 -25.4693 0.957 0.050 0.286 103 36 43 0
4.6886 50.5016 -25.3926 0.957 0.050 0.286 100 33 41 0
4.3972 50.7291 -25.4053 0.978 -0.206 -0.031 98 31 38 0
5.9859 50.8523 -24.7651 0.646 -0.247 0.722 98 31 39 0
5.9354 51.6917 -24.4324 0.646 -0.247 0.722 91 30 35 0
5.9228 51.9013 -24.3493 0.646 -0.247 0.722 92 31 36 0
5.9102 52.1109 -24.2663 0.646 -0.247 0.722 89 27 34 0
5.8975 52.3204 -24.1832 0.646 -0.247 0.722 91 28 36 0
4.3126 52.8514 -24.5481 0.957 0.050 0.286 87 22 30 0
4.2784 53.0650 -24.4713 0.957 0.050 0.286 88 23 31 0
4.2442 53.2787 -24.3946 0.957 0.050 0.286 87 23 31 0
4.2100 53.4923 -24.3178 0.957 0.050 0.286 89 26 34 0
4.1758 53.7060 -24.2410 0.957 0.050 0.286 86 25 32 0
4.1416 53.9196 -24.1642 0.957 0.050 0.286 84 23 30 0
3.4741 54.1855 -24.3002 0.969 0.062 0.239 85 24 31 0
1.8021 54.5383 -24.7719 0.787 -0.131 0.603 84 23 30 0
3.4037 55.4616 -23.7920 0.909 0.279 0.309 86 26 34 0
3.3160 55.6812 -23.7326 0.909 0.279 0.309 84 27 34 0
3.5053 55.8742 -23.5816 0.970 -0.015 0.244 84 31 35 0
1.5779 56.2746 -24.1281 0.622 0.660 0.421 85 33 37 0
1.3199 56.5145 -24.1232 0.622 0.660 0.421 83 33 34 0
1.0610 56.7554 -24.1183 0.622 0.660 0.421 85 35 36 0
0.8011 56.9971 -24.1134 0.622 0.660 0.421 86 38 39 0
0.7832 57.2141 -24.0292 0.969 -0.037 0.245 87 42 43 0
0.7698 57.4306 -23.9435 0.969 -0.037 0.245 87 45 46 0
0.7564 57.6470 -23.8578 0.969 -0.037 0.245 89 49 50 0
0.7430 57.8633 -23.7722 0.969 -0.037 0.245 90 50 50 0
0.7296 58.0796 -23.6867 0.969 -0.037 0.245 91 54 53 0
-0.1458 58.3941 -23.8793 0.589 0.653 0.476 95 61 59 0
-1.0452 58.7143 -24.0785 0.622 0.660 0.421 101 67 65 0
-4.4472 59.3316 -25.0803 0.680 -0.707 0.197 105 71 68 0
-4.2785 59.5348 -24.9328 0.680 -0.707 0.197 109 77 74 0
-4.5445 59.7899 -24.9245 0.697 -0.693 0.183 112 82 79 0
-4.3807 59.9930 -24.7788 0.697 -0.693 0.183 123 96 92 0
-4.2174 60.1955 -24.6335 0.697 -0.693 0.183 144 122 113 0
-5.1083 60.5304 -24.8234 0.715 -0.672 0.192 200 183 168 0
-4.9547 60.7346 -24.6810 0.715 -0.672 0.192 206 193 174 0
-3.1727 73.0881 -18.8489 0.687 0.726 0.003 207 198 181 0
-3.4702 73.3696 -18.8413 0.687 0.726 0.003 207 198 181 0
-3.7689 73.6522 -18.8336 0.687 0.726 0.003 207 198 181 0
-5.2818 74.4340 -19.0668 0.989 0.128 -0.067 203 194 178 0
-22.7965 93.5204 -17.5648 0.976 0.201 0.078 188 175 158 0
-22.8564 93.7784 -17.4790 0.976 0.201 0.078 188 175 157 0
10.6266 89.5581 -6.8413 0.489 -0.447 0.749 174 158 134 0
11.0005 89.5876 -6.6905 0.490 -0.447 0.748 175 159 136 0
10.0801 90.1377 -6.8011 0.482 -0.445 0.755 175 157 135 0
10.4821 90.1553 -6.6448 0.491 -0.451 0.746 174 156 132 0
16.7771 89.1301 -4.7419 0.963 -0.135 -0.232 254 255 254 0
1.2239 26.9422 -36.8170 0.741 -0.628 0.240 124 92 89 0
4.4493 27.6231 -35.3297 0.822 -0.540 0.182 123 89 87 0
4.5759 27.8660 -35.1807 0.822 -0.540 0.182 121 82 81 0
5.9237 28.2737 -34.5076 0.755 -0.608 0.247 114 73 73 0
4.3885 28.2910 -35.0725 0.731 -0.639 0.241 108 67 68 0
4.5500 28.5374 -34.9090 0.731 -0.639 0.241 106 66 66 0
4.7109 28.7831 -34.7461 0.731 -0.639 0.241 105 61 64 0
5.7874 29.5893 -34.0071 0.738 -0.657 0.158 96 51 51 0
7.8001 33.0979 -31.7869 0.442 0.126 0.888 102 39 45 0
7.4669 33.2827 -31.8336 0.939 -0.342 0.027 105 38 44 0
8.5306 35.5250 -30.4977 0.365 0.305 0.880 109 32 41 0
8.2250 36.7846 -30.0838 0.509 -0.168 0.845 106 36 41 0
8.7976 37.4581 -29.5882 0.511 -0.146 0.847 101 32 37 0
8.7568 37.6677 -29.5156 0.513 -0.133 0.848 105 35 41 0
8.7009 37.8765 -29.4489 0.513 -0.133 0.848 103 36 42 0
8.6450 38.0853 -29.3822 0.513 -0.133 0.848 108 42 48 0
8.4131 38.2852 -29.3849 0.518 -0.122 0.846 110 43 50 0
8.5331 38.5033 -29.2488 0.513 -0.133 0.848 109 42 50 0
8.2288 38.7005 -29.2796 0.519 -0.119 0.846 108 41 49 0
8.1697 38.9100 -29.2138 0.519 -0.119 0.846 110 43 50 0
8.3235 39.1291 -29.0647 0.525 -0.127 0.842 114 44 51 0
8.4319 39.3455 -28.9336 0.495 -0.125 0.860 116 44 52 0
8.3715 39.5546 -28.8685 0.495 -0.125 0.860 117 44 53 0
6.2500 41.1879 -28.9748 0.525 0.404 0.749 116 42 49 0
6.0625 41.3978 -28.9568 0.525 0.404 0.749 117 42 47 0
6.2957 41.6176 -28.7777 0.527 0.414 0.742 118 42 46 0
7.1456 41.8492 -28.3640 0.535 0.404 0.742 119 43 46 0
7.2148 42.0629 -28.2486 0.560 0.398 0.727 121 45 48 0
7.4548 42.2792 -28.0686 0.551 0.399 0.733 121 45 47 0
6.8607 42.4818 -28.2051 0.560 0.398 0.727 128 52 52 0
6.6830 42.6920 -28.1832 0.560 0.398 0.727 134 59 57 0
6.5048 42.9027 -28.1613 0.560 0.398 0.727 134 55 57 0
7.0712 43.3330 -27.7700 0.539 0.414 0.733 132 50 53 0
6.8842 43.5435 -27.7514 0.539 0.414 0.733 130 47 51 0
7.0479 43.7562 -27.6013 0.955 -0.004 0.298 130 46 51 0
7.0239 43.9676 -27.5217 0.955 -0.004 0.298 129 47 53 0
6.9999 44.1790 -27.4420 0.955 -0.004 0.298 131 49 56 0
6.9759 44.3904 -27.3624 0.955 -0.004 0.298 131 50 56 0
6.9519 44.6017 -27.2828 0.955 -0.004 0.298 131 50 56 0
6.9279 44.8130 -27.2032 0.955 -0.004 0.298 132 51 57 0
6.9039 45.0243 -27.1236 0.955 -0.004 0.298 133 54 60 0
6.8800 45.2356 -27.0440 0.955 -0.004 0.298 135 57 63 0
6.8560 45.4468 -26.9645 0.955 -0.004 0.298 136 61 67 0
6.8320 45.6579 -26.8849 0.955 -0.004 0.298 134 60 67 0
5.4975 45.8872 -27.2862 0.957 0.050 0.286 130 58 65 0
-4.7050 48.7970 -29.8693 0.975 -0.014 0.220 123 61 66 0
-7.2442 49.5896 -30.4835 0.975 -0.038 0.217 111 46 52 0
4.2661 50.1874 -25.9433 0.978 -0.206 -0.031 99 32 40 0
4.7795 50.3739 -25.6739 0.957 0.050 0.286 99 32 41 0
4.7453 50.5876 -25.5971 0.957 0.050 0.286 100 33 42 0
4.4089 50.8178 -25.6260 0.978 -0.206 -0.031 101 34 43 0
6.1854 50.9293 -24.9172 0.646 -0.247 0.722 103 36 45 0
5.9744 51.3600 -24.8154 0.938 0.164 0.304 97 30 38 0
5.9155 51.5728 -24.7482 0.938 0.164 0.304 93 30 35 0
5.7976 51.9986 -24.6136 0.938 0.164 0.304 91 30 35 0
6.1095 52.1867 -24.4186 0.646 -0.247 0.722 90 27 34 0
6.0969 52.3960 -24.3356 0.646 -0.247 0.722 90 27 35 0
4.4033 52.7245 -24.8292 0.957 0.050 0.286 87 24 32 0
4.3691 52.9382 -24.7524 0.957 0.050 0.286 86 22 30 0
4.3349 53.1519 -24.6756 0.957 0.050 0.286 86 22 30 0
4.2665 53.5793 -24.5220 0.957 0.050 0.286 85 22 30 0
4.2323 53.7930 -24.4452 0.957 0.050 0.286 84 23 30 0
4.1981 54.0067 -24.3684 0.957 0.050 0.286 85 24 31 0
3.1263 54.3069 -24.6421 0.876 0.482 -0.019 85 24 31 0
3.4681 55.3374 -24.0829 0.650 -0.223 0.727 85 25 32 0
3.4491 55.5506 -24.0006 0.650 -0.223 0.727 87 27 35 0
2.1381 55.8873 -24.3481 0.622 0.660 0.421 86 30 37 0
1.8819 56.1258 -24.3437 0.622 0.660 0.421 84 31 36 0
1.6249 56.3651 -24.3392 0.622 0.660 0.421 84 33 36 0
1.3669 56.6053 -24.3347 0.622 0.660 0.421 83 33 34 0
1.1079 56.8464 -24.3302 0.622 0.660 0.421 85 35 36 0
0.9421 57.0786 -24.2947 0.929 -0.187 0.318 85 37 40 0
0.9531 57.2925 -24.2010 0.929 -0.187 0.318 85 40 42 0
1.0166 57.5005 -24.0901 0.589 0.653 0.476 86 44 46 0
0.7444 57.7450 -24.0891 0.589 0.653 0.476 89 48 49 0
0.4711 57.9905 -24.0881 0.589 0.653 0.476 91 51 52 0
0.1968 58.2369 -24.0871 0.589 0.653 0.476 90 52 52 0
-0.0786 58.4842 -24.0861 0.589 0.653 0.476 96 61 59 0
-0.9985 58.8076 -24.2935 0.622 0.660 0.421 101 67 64 0
-4.3042 59.4162 -25.2704 0.680 -0.707 0.197 106 71 67 0
-4.1358 59.6192 -25.1226 0.680 -0.707 0.197 109 77 74 0
-4.4091 59.8753 -25.1172 0.697 -0.693 0.183 113 82 79 0
-4.3158 60.0870 -24.9937 0.687 -0.701 0.192 121 93 89 0
-4.1506 60.2891 -24.8474 0.687 -0.701 0.192 137 116 107 0
-4.9754 60.6163 -25.0177 0.715 -0.672 0.192 193 176 162 0
-4.8220 60.8203 -24.8751 0.715 -0.672 0.192 206 192 175 0
-9.2084 62.7691 -25.6933 0.684 -0.703 0.198 211 202 184 0
-16.6108 74.8402 -23.3942 0.577 -0.278 0.768 210 198 184 0
-16.6230 75.0798 -23.2983 0.577 -0.278 0.768 210 198 184 0
-22.6253 92.8860 -18.0744 0.976 0.201 0.078 196 181 163 0
-22.7452 93.4020 -17.9028 0.976 0.201 0.078 190 176 159 0
-22.8052 93.6601 -17.8170 0.976 0.201 0.078 188 175 158 0
-21.9300 93.6018 -17.5153 0.731 -0.328 0.599 186 173 156 0
10.2307 89.6464 -7.1868 0.482 -0.445 0.755 176 160 137 0
10.2592 89.8155 -7.1053 0.482 -0.445 0.755 176 160 137 0
10.6529 89.8373 -6.9495 0.491 -0.451 0.746 174 159 136 0
10.6831 90.0048 -6.8681 0.491 -0.451 0.746 175 157 135 0
10.7131 90.1721 -6.7867 0.491 -0.451 0.746 173 155 133 0
16.7494 89.2471 -4.9247 0.963 -0.135 -0.232 254 255 254 0
-11.2773 5.9321 -50.5925 0.729 0.684 0.000 230 223 206 0
-2.1986 24.3846 -39.4507 0.951 -0.205 -0.231 234 223 205 0
4.5498 27.7098 -35.5263 0.822 -0.540 0.182 126 92 90 0
6.0550 28.3636 -34.6878 0.755 -0.608 0.247 112 70 71 0
6.1986 28.6050 -34.5327 0.755 -0.608 0.247 107 65 66 0
5.9055 29.6772 -34.1929 0.738 -0.657 0.158 95 50 50 0
6.0861 29.9211 -34.0230 0.738 -0.657 0.158 95 50 51 0
6.2661 30.1640 -33.8536 0.738 -0.657 0.158 98 49 53 0
8.8101 32.4095 -31.9582 0.447 0.130 0.885 99 40 44 0
7.4234 33.1364 -32.1733 0.939 -0.342 0.027 103 38 44 0
8.0799 33.4150 -31.8103 0.935 -0.347 0.080 105 38 45 0
8.7676 35.6185 -30.6284 0.365 0.305 0.880 107 31 41 0
8.4219 37.0871 -30.1422 0.509 -0.168 0.845 106 37 40 0
8.3745 37.2973 -30.0718 0.509 -0.168 0.845 105 36 41 0
9.0379 37.5490 -29.7175 0.511 -0.146 0.847 104 34 40 0
8.9397 37.9668 -29.5791 0.513 -0.133 0.848 103 36 43 0
8.8839 38.1754 -29.5126 0.513 -0.133 0.848 109 42 49 0
8.6495 38.3750 -29.5168 0.518 -0.122 0.846 110 43 51 0
8.7269 38.5907 -29.3973 0.525 -0.127 0.842 110 44 52 0
8.4650 38.7899 -29.4120 0.519 -0.119 0.846 112 45 54 0
8.4060 38.9992 -29.3463 0.519 -0.119 0.846 116 49 56 0
8.3470 39.2086 -29.2806 0.519 -0.119 0.846 119 51 58 0
8.6776 39.4343 -29.0620 0.495 -0.125 0.860 119 48 55 0
6.4172 41.2736 -29.1381 0.525 0.404 0.749 118 46 53 0
6.2300 41.4834 -29.1203 0.525 0.404 0.749 117 43 50 0
7.1939 42.3563 -28.3929 0.560 0.398 0.727 123 47 51 0
7.0169 42.5659 -28.3713 0.560 0.398 0.727 128 52 54 0
6.8395 42.7761 -28.3497 0.560 0.398 0.727 133 57 58 0
7.0754 42.9913 -28.1710 0.551 0.399 0.733 134 54 58 0
7.0440 43.6270 -27.9162 0.539 0.414 0.733 134 49 54 0
6.9669 45.1075 -27.3243 0.955 -0.004 0.298 135 56 62 0
6.9429 45.3188 -27.2447 0.955 -0.004 0.298 137 60 66 0
5.5887 45.7579 -27.5682 0.957 0.050 0.286 135 62 69 0
5.5545 45.9716 -27.4914 0.957 0.050 0.286 133 61 68 0
3.9095 46.2116 -28.0075 0.598 0.428 0.678 134 63 71 0
3.7261 46.4309 -27.9843 0.598 0.428 0.678 135 64 72 0
-4.1503 47.7242 -30.3948 0.956 0.038 0.291 134 72 77 0
-5.2452 48.6799 -30.4045 0.972 -0.048 0.231 127 66 71 0
-5.2558 48.9114 -30.3114 0.972 -0.048 0.231 125 63 68 0
-8.3332 49.9678 -31.0221 0.974 -0.119 0.195 108 43 49 0
4.2778 50.2759 -26.1650 0.978 -0.206 -0.031 98 31 39 0
4.8362 50.4598 -25.8785 0.957 0.050 0.286 96 29 38 0
4.8020 50.6736 -25.8017 0.957 0.050 0.286 97 30 39 0
4.4206 50.9067 -25.8470 0.978 -0.206 -0.031 99 32 41 0
6.3845 51.0062 -25.0690 0.646 -0.247 0.722 101 34 43 0
6.0844 51.2328 -25.0865 0.938 0.164 0.304 99 32 41 0
6.0255 51.4456 -25.0193 0.938 0.164 0.304 98 32 41 0
5.9666 51.6585 -24.9521 0.938 0.164 0.304 94 30 37 0
5.9077 51.8715 -24.8849 0.938 0.164 0.304 88 27 32 0
5.8487 52.0846 -24.8176 0.938 0.164 0.304 88 27 32 0
4.4257 53.0250 -24.9567 0.957 0.050 0.286 86 23 31 0
4.3914 53.2388 -24.8799 0.957 0.050 0.286 86 23 31 0
4.2888 53.8801 -24.6494 0.957 0.050 0.286 82 21 28 0
2.9456 54.6280 -24.8394 0.876 0.482 -0.019 84 23 30 0
3.6498 55.6251 -24.1573 0.650 -0.223 0.727 85 27 34 0
-0.2178 56.4267 -25.2711 0.926 -0.187 0.328 83 30 35 0
0.9950 56.5233 -24.7759 0.929 -0.187 0.318 83 32 35 0
1.0060 56.7376 -24.6819 0.929 -0.187 0.318 83 33 34 0
1.0170 56.9518 -24.5879 0.929 -0.187 0.318 86 36 37 0
1.0280 57.1658 -24.4941 0.929 -0.187 0.318 85 37 40 0
1.0390 57.3797 -24.4003 0.929 -0.187 0.318 85 39 42 0
1.0835 57.5897 -24.2955 0.589 0.653 0.476 86 44 46 0
0.8114 57.8345 -24.2949 0.589 0.653 0.476 90 47 49 0
0.5382 58.0802 -24.2943 0.589 0.653 0.476 92 50 52 0
0.2639 58.3268 -24.2937 0.589 0.653 0.476 91 52 52 0
-0.0114 58.5744 -24.2931 0.589 0.653 0.476 98 62 60 0
-0.9517 58.9009 -24.5087 0.622 0.660 0.421 102 67 65 0
-4.1613 59.5008 -25.4604 0.680 -0.707 0.197 107 72 69 0
-4.2738 59.9607 -25.3097 0.697 -0.693 0.183 113 83 79 0
-4.1761 60.1716 -25.1846 0.687 -0.701 0.192 119 92 88 0
-4.9962 60.4978 -25.3553 0.715 -0.672 0.192 132 110 101 0
-4.8426 60.7022 -25.2120 0.715 -0.672 0.192 192 175 162 0
-4.6895 60.9061 -25.0691 0.715 -0.672 0.192 206 193 176 0
-9.0620 62.8559 -25.8907 0.684 -0.703 0.198 212 201 184 0
-16.3466 74.9031 -23.5697 0.577 -0.278 0.768 210 198 184 0
-16.3589 75.1424 -23.4739 0.577 -0.278 0.768 209 197 183 0
-16.3711 75.3816 -23.3782 0.577 -0.278 0.768 208 197 184 0
-23.6921 93.3776 -18.5761 0.978 -0.068 0.197 199 183 168 0
-22.7538 93.5417 -18.1555 0.976 0.201 0.078 193 177 161 0
-22.8138 93.8001 -18.0697 0.976 0.201 0.078 190 175 161 0
-21.7326 93.6711 -17.7184 0.731 -0.328 0.599 188 173 157 0
-21.7142 93.9010 -17.6151 0.731 -0.328 0.599 189 172 155 0
10.4665 89.6626 -7.3279 0.482 -0.445 0.755 176 160 137 0
10.4948 89.8314 -7.2464 0.482 -0.445 0.755 175 160 138 0
10.5230 90.0001 -7.1651 0.482 -0.445 0.755 174 158 137 0
10.5513 90.1686 -7.0838 0.482 -0.445 0.755 175 157 136 0
10.5795 90.3369 -7.0027 0.482 -0.445 0.755 174 156 135 0
10.6077 90.5051 -6.9216 0.482 -0.445 0.755 174 156 135 0
16.7217 89.3643 -5.1078 0.963 -0.135 -0.232 254 255 255 0
-1.3570 26.2561 -38.6349 0.898 0.157 0.411 140 119 107 0
-1.4281 26.4832 -38.5664 0.898 0.157 0.411 129 102 95 0
4.6502 27.7966 -35.7229 0.822 -0.540 0.182 124 90 88 0
4.7765 28.0392 -35.5734 0.822 -0.540 0.182 120 81 82 0
6.1863 28.4535 -34.8679 0.755 -0.608 0.247 111 70 71 0
6.3296 28.6947 -34.7126 0.755 -0.608 0.247 108 66 68 0
5.8426 29.5206 -34.5496 0.738 -0.657 0.158 96 50 53 0
6.0236 29.7651 -34.3787 0.738 -0.657 0.158 96 50 50 0
5.8969 30.8584 -33.9677 0.751 -0.612 0.248 95 46 48 0
6.1816 31.3323 -33.6614 0.751 -0.612 0.248 99 47 49 0
7.5450 31.7000 -32.9929 0.935 -0.347 0.080 98 44 48 0
7.6914 32.1510 -32.7484 0.935 -0.347 0.080 103 43 48 0
7.7644 32.3758 -32.6265 0.935 -0.347 0.080 101 39 44 0
7.8372 32.6003 -32.5049 0.935 -0.347 0.080 102 39 44 0
7.9825 33.0479 -32.2622 0.935 -0.347 0.080 104 39 45 0
8.0549 33.2711 -32.1412 0.935 -0.347 0.080 103 38 44 0
8.1272 33.4939 -32.0204 0.935 -0.347 0.080 102 35 42 0
8.5869 34.8246 -31.2886 0.941 -0.336 0.031 104 31 40 0
8.8103 35.4839 -30.9276 0.941 -0.336 0.031 105 33 41 0
9.0042 35.7118 -30.7589 0.365 0.305 0.880 106 33 42 0
8.8117 35.9108 -30.7479 0.365 0.305 0.880 106 34 41 0
9.1223 36.1459 -30.5321 0.371 -0.735 0.568 105 35 41 0
8.6657 37.1791 -30.2707 0.509 -0.168 0.845 108 39 44 0
8.6184 37.3890 -30.2004 0.509 -0.168 0.845 106 37 42 0
9.2776 37.6397 -29.8465 0.511 -0.146 0.847 106 37 43 0
9.2336 37.8486 -29.7755 0.513 -0.133 0.848 105 35 43 0
9.1779 38.0569 -29.7090 0.513 -0.133 0.848 105 38 45 0
9.1223 38.2653 -29.6426 0.513 -0.133 0.848 110 43 50 0
8.8853 38.4647 -29.6483 0.518 -0.122 0.846 111 44 52 0
8.9606 38.6799 -29.5295 0.525 -0.127 0.842 114 47 55 0
8.6418 39.0882 -29.4784 0.519 -0.119 0.846 117 50 57 0
6.6939 39.4312 -30.0690 0.506 -0.131 0.852 120 51 56 0
6.6357 39.6439 -30.0017 0.506 -0.131 0.852 120 51 55 0
6.5842 41.3591 -29.3013 0.525 0.404 0.749 119 51 56 0
6.3973 41.5690 -29.2837 0.525 0.404 0.749 119 48 55 0
6.2100 41.7793 -29.2660 0.525 0.404 0.749 121 51 56 0
7.4602 42.0179 -28.6944 0.528 0.406 0.746 122 50 55 0
7.2748 42.2268 -28.6767 0.528 0.406 0.746 123 51 56 0
7.3497 42.4403 -28.5588 0.560 0.398 0.727 125 50 55 0
6.9025 42.6463 -28.6410 0.528 0.406 0.746 128 51 55 0
6.7156 42.8568 -28.6231 0.528 0.406 0.746 133 54 58 0
6.5282 43.0680 -28.6052 0.528 0.406 0.746 135 55 60 0
6.8384 43.2838 -28.3976 0.548 0.401 0.734 135 54 61 0
7.3900 43.4999 -28.0989 0.539 0.414 0.733 136 54 61 0
7.2037 43.7104 -28.0808 0.539 0.414 0.733 137 54 61 0
6.9702 43.9214 -28.0803 0.535 0.406 0.741 136 54 61 0
7.1499 44.1335 -27.9235 0.955 -0.004 0.298 136 53 62 0
4.9593 45.2074 -28.2989 0.598 0.428 0.678 140 62 69 0
5.7141 45.4148 -27.9272 0.957 0.050 0.286 141 63 71 0
5.6799 45.6286 -27.8504 0.957 0.050 0.286 141 66 73 0
5.6457 45.8424 -27.7736 0.957 0.050 0.286 141 66 73 0
4.2330 46.0771 -28.2078 0.598 0.428 0.678 143 71 78 0
4.0503 46.2959 -28.1849 0.598 0.428 0.678 145 74 82 0
3.8671 46.5153 -28.1619 0.598 0.428 0.678 146 76 84 0
1.4298 47.4424 -28.6920 0.582 0.436 0.687 144 79 85 0
0.8462 48.1203 -28.6275 0.582 0.436 0.687 137 73 79 0
-1.9638 48.8853 -29.3662 0.970 -0.065 0.234 123 59 66 0
-8.2922 49.5915 -31.4564 0.974 -0.119 0.195 111 45 53 0
4.2895 50.3646 -26.3870 0.978 -0.206 -0.031 98 31 41 0
4.4444 50.5696 -26.2426 0.978 -0.205 -0.041 96 29 38 0
4.4930 50.7797 -26.1361 0.978 -0.205 -0.041 95 28 37 0
4.4324 50.9957 -26.0683 0.978 -0.206 -0.031 97 30 39 0
6.1944 51.1056 -25.3576 0.938 0.164 0.304 101 34 43 0
6.1356 51.3184 -25.2905 0.938 0.164 0.304 101 34 43 0
6.0767 51.5313 -25.2234 0.938 0.164 0.304 102 35 44 0
6.0178 51.7443 -25.1562 0.938 0.164 0.304 92 28 36 0
5.9589 51.9574 -25.0890 0.938 0.164 0.304 87 25 32 0
5.8999 52.1706 -25.0217 0.938 0.164 0.304 85 24 29 0
4.4823 53.1119 -25.1613 0.957 0.050 0.286 85 22 30 0
4.4481 53.3257 -25.0844 0.957 0.050 0.286 86 24 31 0
4.4138 53.5396 -25.0076 0.957 0.050 0.286 85 23 31 0
2.7642 54.9504 -25.0376 0.876 0.482 -0.019 86 25 32 0
1.0369 55.7517 -25.3527 0.929 -0.187 0.318 85 25 32 0
3.8501 55.6994 -24.3137 0.650 -0.223 0.727 86 28 35 0
3.8312 55.9122 -24.2315 0.650 -0.223 0.727 84 29 35 0
1.0919 56.8249 -24.8815 0.929 -0.187 0.318 83 33 34 0
2.0282 56.9427 -24.4789 0.967 -0.032 0.252 84 34 35 0
1.1139 57.2531 -24.6935 0.929 -0.187 0.318 84 36 38 0
1.1248 57.4669 -24.5996 0.929 -0.187 0.318 86 39 41 0
1.1681 57.6771 -24.4951 0.591 0.649 0.478 90 45 48 0
0.8785 57.9240 -24.5007 0.589 0.653 0.476 97 53 55 0
0.6053 58.1699 -24.5005 0.589 0.653 0.476 93 50 52 0
0.3311 58.4168 -24.5003 0.589 0.653 0.476 90 51 51 0
0.0559 58.6646 -24.5001 0.589 0.653 0.476 97 59 59 0
-0.2205 58.9134 -24.4999 0.589 0.653 0.476 104 65 65 0
-4.2212 59.6096 -25.7165 0.680 -0.709 0.188 108 70 69 0
-4.1386 60.0461 -25.5021 0.697 -0.693 0.183 112 81 79 0
-4.0364 60.2562 -25.3754 0.687 -0.701 0.192 119 91 87 0
-4.8632 60.5838 -25.5497 0.715 -0.672 0.192 129 106 99 0
-4.7099 60.7881 -25.4061 0.715 -0.672 0.192 186 168 155 0
-4.5570 60.9918 -25.2630 0.715 -0.672 0.192 206 193 176 0
-9.0847 62.7361 -26.2384 0.684 -0.703 0.198 211 201 182 0
-8.9158 62.9427 -26.0880 0.684 -0.703 0.198 211 202 183 0
-11.8593 64.2968 -26.6298 0.954 -0.093 -0.285 213 204 187 0
-16.1076 75.4438 -23.5535 0.577 -0.278 0.768 207 195 183 0
-24.4015 93.2694 -19.1999 0.977 0.208 0.052 196 182 169 0
-24.0645 93.3988 -19.0184 0.973 0.203 -0.111 195 179 167 0
-22.6423 93.1647 -18.5803 0.976 0.201 0.078 196 180 166 0
-22.7023 93.4232 -18.4945 0.976 0.201 0.078 197 181 165 0
-22.7624 93.6817 -18.4086 0.976 0.201 0.078 197 181 166 0
-22.8225 93.9403 -18.3228 0.976 0.201 0.078 196 180 166 0
-22.8826 94.1990 -18.2369 0.976 0.201 0.078 194 178 162 0
-21.5170 93.9702 -17.8179 0.731 -0.328 0.599 194 176 161 0
-21.4988 94.1997 -17.7147 0.731 -0.328 0.599 192 174 158 0
-7.9559 -5.6922 -54.8433 0.354 -0.556 0.752 229 213 189 0
-7.8383 -5.3796 -54.6674 0.354 -0.556 0.752 231 214 190 0
-8.7931 -5.4696 -55.0674 0.361 -0.565 0.742 234 217 193 0
-8.6682 -5.1534 -54.8872 0.361 -0.565 0.742 231 215 190 0
-1.2734 26.3441 -38.8513 0.898 0.157 0.411 142 121 109 0
-1.3445 26.5713 -38.7828 0.898 0.157 0.411 132 105 98 0
4.7506 27.8833 -35.9195 0.822 -0.540 0.182 123 89 87 0
4.8768 28.1258 -35.7698 0.822 -0.540 0.182 119 80 81 0
6.2107 28.5291 -35.0943 0.760 -0.604 0.240 109 68 70 0
6.3536 28.7703 -34.9388 0.760 -0.604 0.240 106 64 66 0
6.2750 29.4259 -34.6933 0.739 -0.653 0.165 98 50 55 0
6.1416 29.8529 -34.5645 0.738 -0.657 0.158 96 50 51 0
5.1370 30.8469 -34.5281 0.757 -0.604 0.251 94 44 47 0
6.3131 31.4211 -33.8407 0.751 -0.612 0.248 98 46 48 0
6.5956 31.8917 -33.5359 0.751 -0.612 0.248 100 41 47 0
7.3155 32.1860 -33.1392 0.750 -0.612 0.252 101 40 45 0
7.8118 32.4547 -32.8380 0.935 -0.347 0.080 101 39 44 0
7.8846 32.6792 -32.7161 0.935 -0.347 0.080 104 39 45 0
7.9573 32.9032 -32.5944 0.935 -0.347 0.080 105 40 46 0
8.0298 33.1269 -32.4729 0.935 -0.347 0.080 104 39 45 0
8.1023 33.3501 -32.3517 0.935 -0.347 0.080 105 40 46 0
8.1746 33.5729 -32.2307 0.935 -0.347 0.080 106 40 46 0
10.0865 35.4446 -30.7192 0.369 0.327 0.870 100 31 38 0
8.8453 35.5622 -31.1407 0.941 -0.336 0.031 101 31 39 0
9.2401 35.8048 -30.8890 0.365 0.305 0.880 104 34 42 0
8.9935 35.9997 -30.9006 0.941 -0.336 0.031 106 35 43 0
9.2083 36.2278 -30.7234 0.367 -0.728 0.580 105 35 43 0
9.0033 36.8517 -30.5390 0.509 -0.168 0.845 105 35 41 0
8.9089 37.2708 -30.3988 0.509 -0.168 0.845 109 40 45 0
8.8616 37.4805 -30.3287 0.509 -0.168 0.845 106 36 43 0
9.5167 37.7302 -29.9752 0.511 -0.146 0.847 105 36 43 0
9.4711 37.9388 -29.9049 0.513 -0.133 0.848 106 36 44 0
9.1205 38.5541 -29.7795 0.518 -0.122 0.846 109 42 49 0
6.7945 38.8696 -30.5293 0.509 -0.147 0.848 112 47 53 0
6.9971 39.3087 -30.2680 0.506 -0.131 0.852 116 49 55 0
6.6337 39.5088 -30.3218 0.509 -0.147 0.848 115 48 54 0
6.0221 39.7004 -30.4733 0.537 -0.155 0.829 120 53 59 0
6.7510 41.4446 -29.4642 0.525 0.404 0.749 122 56 60 0
6.5645 41.6544 -29.4468 0.525 0.404 0.749 120 52 59 0
7.8987 42.3188 -28.6616 0.548 0.401 0.734 125 54 60 0
7.7195 42.5275 -28.6419 0.548 0.401 0.734 128 54 61 0
7.5398 42.7367 -28.6222 0.548 0.401 0.734 132 55 61 0
7.3597 42.9465 -28.6024 0.548 0.401 0.734 136 57 63 0
6.6941 43.1522 -28.7685 0.528 0.406 0.746 138 58 64 0
6.9981 43.3676 -28.5627 0.548 0.401 0.734 139 58 65 0
7.5492 43.5832 -28.2631 0.539 0.414 0.733 143 61 69 0
4.8805 44.2158 -29.0097 0.580 0.391 0.715 143 60 70 0
7.1889 44.4281 -28.0448 0.955 -0.004 0.298 144 63 74 0
7.1649 44.6397 -27.9651 0.955 -0.004 0.298 146 66 75 0
4.9181 45.5082 -28.4526 0.598 0.428 0.678 147 70 78 0
4.7370 45.7254 -28.4301 0.598 0.428 0.678 148 71 79 0
4.5554 45.9431 -28.4075 0.598 0.428 0.678 147 73 80 0
4.3734 46.1614 -28.3848 0.598 0.428 0.678 151 78 87 0
4.1909 46.3802 -28.3621 0.598 0.428 0.678 158 87 95 0
4.0080 46.5995 -28.3394 0.598 0.428 0.678 163 93 101 0
1.5776 47.5279 -28.8714 0.582 0.436 0.687 146 80 85 0
1.3839 47.7533 -28.8502 0.582 0.436 0.687 146 81 86 0
1.1896 47.9793 -28.8290 0.582 0.436 0.687 143 78 83 0
0.9949 48.2058 -28.8077 0.582 0.436 0.687 135 69 77 0
-8.2343 49.6869 -31.6867 0.974 -0.119 0.195 112 43 53 0
4.3012 50.4535 -26.6093 0.978 -0.206 -0.031 99 31 41 0
4.4537 50.6586 -26.4653 0.978 -0.205 -0.041 97 30 39 0
4.3966 50.8746 -26.3962 0.978 -0.206 -0.031 97 30 39 0
4.4442 51.0847 -26.2899 0.978 -0.206 -0.031 99 32 41 0
6.0671 51.2017 -25.6251 0.939 0.147 0.311 96 29 38 0
6.0111 51.4147 -25.5569 0.939 0.147 0.311 96 29 38 0
6.1279 51.6170 -25.4276 0.938 0.164 0.304 98 31 41 0
6.0690 51.8301 -25.3604 0.938 0.164 0.304 93 28 36 0
6.0101 52.0433 -25.2932 0.938 0.164 0.304 89 27 34 0
5.9511 52.2566 -25.2260 0.938 0.164 0.304 87 26 31 0
5.8921 52.4700 -25.1588 0.938 0.164 0.304 85 22 29 0
4.5389 53.1988 -25.3659 0.957 0.050 0.286 84 21 29 0
4.5047 53.4128 -25.2891 0.957 0.050 0.286 84 22 30 0
4.4705 53.6267 -25.2122 0.957 0.050 0.286 84 23 31 0
2.7045 55.0494 -25.2845 0.876 0.482 -0.019 83 22 29 0
0.4910 56.7664 -25.4029 0.926 -0.193 0.325 84 34 36 0
1.1779 56.9122 -25.0811 0.929 -0.187 0.318 83 33 34 0
2.0852 57.0323 -24.6865 0.967 -0.032 0.252 82 32 34 0
1.1998 57.3403 -24.8930 0.929 -0.187 0.318 85 37 38 0
1.2107 57.5542 -24.7990 0.929 -0.187 0.318 86 38 41 0
1.2360 57.7663 -24.7003 0.591 0.649 0.478 91 47 48 0
0.9456 58.0135 -24.7066 0.589 0.653 0.476 105 60 62 0
0.6725 58.2597 -24.7068 0.589 0.653 0.476 100 57 58 0
0.3984 58.5068 -24.7070 0.589 0.653 0.476 93 52 52 0
0.1232 58.7549 -24.7072 0.589 0.653 0.476 99 60 61 0
-0.1531 59.0039 -24.7074 0.589 0.653 0.476 103 64 65 0
-4.0035 60.1314 -25.6945 0.697 -0.693 0.183 111 81 78 0
-4.3887 60.4028 -25.7266 0.718 -0.669 0.195 118 90 87 0
-4.7303 60.6698 -25.7440 0.715 -0.672 0.192 128 105 98 0
-4.5772 60.8739 -25.6002 0.715 -0.672 0.192 183 165 152 0
-4.4245 61.0774 -25.4568 0.715 -0.672 0.192 208 194 177 0
-8.9383 62.8230 -26.4359 0.684 -0.703 0.198 210 202 183 0
-8.7696 63.0295 -26.2852 0.684 -0.703 0.198 211 202 184 0
-11.4794 63.8822 -26.9549 0.948 -0.119 -0.296 211 202 184 0
-11.3010 64.0904 -26.7998 0.954 -0.049 -0.294 212 203 186 0
-11.2545 64.3174 -26.6868 0.954 -0.049 -0.294 213 204 187 0
-15.8324 75.2672 -23.8239 0.577 -0.278 0.768 207 195 183 0
-15.8447 75.5059 -23.7284 0.577 -0.278 0.768 206 194 182 0
-15.8570 75.7445 -23.6328 0.577 -0.278 0.768 204 194 182 0
-22.7711 93.8219 -18.6622 0.976 0.201 0.078 196 180 165 0
-22.8312 94.0808 -18.5763 0.976 0.201 0.078 197 181 167 0
-22.8913 94.3397 -18.4903 0.976 0.201 0.078 197 181 165 0
-22.9515 94.5986 -18.4044 0.976 0.201 0.078 196 178 164 0
-23.0117 94.8577 -18.3184 0.976 0.201 0.078 196 177 163 0
20.4994 84.5272 -6.1517 0.619 0.475 0.626 183 161 147 0
14.3237 90.0705 -6.1660 0.992 0.121 -0.037 52 50 51 0
-8.3435 -5.2444 -55.1144 0.361 -0.565 0.742 234 218 195 0
-1.3668 26.4070 -39.1459 0.895 0.167 0.413 141 119 107 0
-1.2608 26.6594 -38.9993 0.898 0.157 0.411 134 106 100 0
4.3774 27.9052 -36.3241 0.827 -0.535 0.176 122 88 87 0
4.5027 28.1484 -36.1741 0.827 -0.535 0.176 118 78 79 0
6.3391 28.6186 -35.2757 0.760 -0.604 0.240 109 69 70 0
6.4817 28.8596 -35.1199 0.760 -0.604 0.240 105 63 65 0
6.6239 29.0999 -34.9646 0.760 -0.604 0.240 103 59 62 0
6.3939 29.5139 -34.8784 0.739 -0.653 0.165 98 51 54 0
6.4395 30.1840 -34.5792 0.738 -0.657 0.158 98 50 50 0
5.6764 30.3152 -34.8153 0.751 -0.604 0.267 98 50 50 0
5.2688 30.9366 -34.7096 0.757 -0.604 0.251 95 45 46 0
6.5858 31.7453 -33.8670 0.751 -0.612 0.248 101 42 46 0
6.7266 31.9801 -33.7146 0.751 -0.612 0.248 101 40 45 0
7.4468 32.2739 -33.3163 0.750 -0.612 0.252 102 42 44 0
7.8592 32.5337 -33.0497 0.935 -0.347 0.080 101 41 42 0
7.9320 32.7582 -32.9275 0.935 -0.347 0.080 104 42 44 0
8.0047 32.9823 -32.8056 0.935 -0.347 0.080 113 49 52 0
8.0772 33.2059 -32.6839 0.935 -0.347 0.080 109 44 48 0
8.1496 33.4292 -32.5624 0.935 -0.347 0.080 105 40 45 0
8.2219 33.6520 -32.4411 0.935 -0.347 0.080 105 40 46 0
8.8804 35.6405 -31.3539 0.941 -0.336 0.031 100 35 43 0
8.3807 35.8176 -31.4701 0.939 -0.342 0.027 102 36 45 0
9.0286 36.0782 -31.1134 0.941 -0.336 0.031 103 36 44 0
9.1025 36.2964 -30.9934 0.941 -0.336 0.031 105 38 46 0
9.1763 36.5142 -30.8737 0.941 -0.336 0.031 104 37 44 0
9.1985 37.1530 -30.5967 0.509 -0.168 0.845 105 37 45 0
8.1250 37.3006 -30.9442 0.365 0.305 0.880 106 39 46 0
7.9299 37.5033 -30.9335 0.365 0.305 0.880 106 40 44 0
9.5972 38.4444 -29.9016 0.513 -0.133 0.848 108 43 48 0
9.3552 38.6433 -29.9104 0.518 -0.122 0.846 111 46 52 0
8.3757 38.8081 -30.2148 0.506 -0.164 0.847 115 48 56 0
7.0397 38.9603 -30.6606 0.509 -0.147 0.848 116 49 58 0
7.2416 39.3987 -30.3993 0.506 -0.131 0.852 117 50 58 0
6.8792 39.5987 -30.4535 0.509 -0.147 0.848 118 51 59 0
5.1264 41.4882 -30.3280 0.563 0.242 0.790 129 63 69 0
4.9842 41.7022 -30.2923 0.563 0.242 0.790 129 62 69 0
8.2628 42.4059 -28.7454 0.551 0.399 0.733 125 56 61 0
8.0855 42.6142 -28.7254 0.551 0.399 0.733 127 55 62 0
7.6985 42.8205 -28.7864 0.548 0.401 0.734 134 59 66 0
7.5187 43.0303 -28.7668 0.548 0.401 0.734 141 63 72 0
7.3384 43.2405 -28.7472 0.548 0.401 0.734 142 63 73 0
7.1577 43.4514 -28.7275 0.548 0.401 0.734 141 62 72 0
5.0671 44.7316 -28.9871 0.541 0.371 0.755 150 71 81 0
6.5868 45.3628 -28.1418 0.527 0.449 0.722 151 75 85 0
4.8769 45.8095 -28.6065 0.598 0.428 0.678 151 75 85 0
4.6955 46.0272 -28.5842 0.598 0.428 0.678 151 75 85 0
4.5138 46.2455 -28.5617 0.598 0.428 0.678 156 80 90 0
4.3315 46.4644 -28.5393 0.598 0.428 0.678 160 86 95 0
4.1488 46.6838 -28.5168 0.598 0.428 0.678 164 92 99 0
5.3119 47.0876 -27.9032 0.259 0.428 0.866 158 88 93 0
5.0146 47.3088 -27.9236 0.259 0.428 0.866 144 78 81 0
4.6617 47.9613 -27.7840 0.257 0.435 0.863 137 69 75 0
4.4630 50.7477 -26.6884 0.978 -0.205 -0.041 97 30 39 0
4.4083 50.9637 -26.6184 0.978 -0.206 -0.031 94 28 37 0
4.4560 51.1740 -26.5119 0.978 -0.206 -0.031 93 28 36 0
6.0651 51.5004 -25.7606 0.939 0.147 0.311 92 26 34 0
6.1792 51.7029 -25.6320 0.938 0.164 0.304 91 26 35 0
6.1203 51.9161 -25.5648 0.938 0.164 0.304 91 28 36 0
6.0613 52.1294 -25.4976 0.938 0.164 0.304 92 29 37 0
6.0023 52.3427 -25.4304 0.938 0.164 0.304 93 30 38 0
5.9433 52.5562 -25.3632 0.938 0.164 0.304 88 26 34 0
4.9538 52.8370 -25.6228 0.619 0.183 0.764 85 22 30 0
4.8320 53.0569 -25.5768 0.619 0.183 0.764 84 20 28 0
4.5956 53.2858 -25.5707 0.957 0.050 0.286 82 21 28 0
4.5614 53.4998 -25.4938 0.957 0.050 0.286 80 21 27 0
4.5271 53.7138 -25.4169 0.957 0.050 0.286 81 22 28 0
4.0676 55.0207 -25.0429 0.971 0.078 0.227 80 20 29 0
3.4347 55.2900 -25.1711 0.970 0.064 0.236 80 22 30 0
3.3685 55.7209 -25.0153 0.970 0.064 0.236 84 26 33 0
1.2202 56.1413 -25.6583 0.929 -0.187 0.318 84 28 34 0
0.5795 56.8540 -25.6031 0.926 -0.193 0.325 83 34 37 0
1.2639 56.9995 -25.2808 0.929 -0.187 0.318 79 31 38 0
1.2748 57.2136 -25.1866 0.929 -0.187 0.318 79 31 37 0
0.2237 57.5418 -25.4498 0.923 -0.206 0.325 85 35 40 0
1.2966 57.6415 -24.9985 0.929 -0.187 0.318 86 37 41 0
1.3039 57.8555 -24.9057 0.591 0.649 0.478 91 46 45 0
1.0127 58.1031 -24.9127 0.589 0.653 0.476 99 56 54 0
0.7397 58.3495 -24.9133 0.589 0.653 0.476 97 56 54 0
0.4656 58.5969 -24.9139 0.589 0.653 0.476 93 53 51 0
0.1905 58.8452 -24.9145 0.589 0.653 0.476 98 58 57 0
-0.0858 59.0945 -24.9151 0.589 0.653 0.476 103 63 63 0
-3.8684 60.2166 -25.8867 0.697 -0.693 0.183 110 80 76 0
-4.2562 60.4886 -25.9204 0.718 -0.669 0.195 115 87 83 0
-4.5975 60.7558 -25.9383 0.715 -0.672 0.192 124 98 91 0
-4.4446 60.9597 -25.7942 0.715 -0.672 0.192 176 156 143 0
-4.2922 61.1630 -25.6506 0.715 -0.672 0.192 211 194 178 0
-4.1402 61.3658 -25.5073 0.715 -0.672 0.192 210 194 178 0
-8.7919 62.9099 -26.6332 0.684 -0.703 0.198 212 200 183 0
-8.6235 63.1162 -26.4822 0.684 -0.703 0.198 211 199 183 0
-22.7797 93.9624 -18.9161 0.976 0.201 0.078 193 179 166 0
-23.2814 94.3718 -18.9354 0.975 0.206 0.084 193 179 166 0
-16.7539 95.1112 -16.1338 0.737 -0.323 0.593 184 168 153 0
11.4555 89.5955 -7.6884 0.506 -0.617 0.602 177 158 142 0
11.5293 89.7447 -7.5975 0.506 -0.617 0.602 174 156 137 0
14.2944 89.4958 -6.6471 0.998 0.052 -0.030 173 154 137 0
14.3024 90.1875 -6.3532 0.992 0.121 -0.037 51 50 51 0
15.3675 90.4277 -5.8458 0.965 -0.131 -0.228 255 255 254 0
-7.8960 -5.0203 -55.1612 0.361 -0.565 0.742 233 218 195 0
-9.1701 -5.2259 -55.7367 0.354 -0.564 0.746 235 220 197 0
-1.2832 26.4952 -39.3628 0.895 0.167 0.413 140 119 107 0
-1.3567 26.7225 -39.2953 0.895 0.167 0.413 134 105 99 0
4.4758 27.9919 -36.5226 0.827 -0.535 0.176 120 86 85 0
4.6010 28.2350 -36.3723 0.827 -0.535 0.176 117 78 80 0
6.4674 28.7080 -35.4569 0.760 -0.604 0.240 110 70 72 0
6.6098 28.9489 -35.3009 0.760 -0.604 0.240 105 64 65 0
5.8127 30.4054 -34.9940 0.751 -0.604 0.267 97 49 49 0
4.7941 30.7344 -35.2465 0.748 -0.607 0.267 93 46 46 0
5.4005 31.0262 -34.8910 0.757 -0.604 0.251 95 45 46 0
6.7170 31.8338 -34.0459 0.751 -0.612 0.248 111 52 56 0
6.8575 32.0684 -33.8932 0.751 -0.612 0.248 104 44 49 0
7.9795 32.8372 -33.1391 0.935 -0.347 0.080 105 43 46 0
8.0521 33.0613 -33.0170 0.935 -0.347 0.080 115 51 55 0
8.1247 33.2850 -32.8950 0.935 -0.347 0.080 110 45 50 0
8.1971 33.5083 -32.7733 0.935 -0.347 0.080 105 40 46 0
8.9155 35.7189 -31.5674 0.941 -0.336 0.031 100 35 43 0
9.0637 36.1567 -31.3263 0.941 -0.336 0.031 103 36 45 0
9.1376 36.3750 -31.2061 0.941 -0.336 0.031 104 37 46 0
9.2114 36.5928 -31.0861 0.941 -0.336 0.031 103 36 45 0
9.2850 36.8103 -30.9664 0.941 -0.336 0.031 104 37 46 0
9.3585 37.0273 -30.8468 0.941 -0.336 0.031 106 39 48 0
8.5577 37.1904 -31.0856 0.365 0.305 0.880 106 39 47 0
8.3637 37.3924 -31.0751 0.365 0.305 0.880 105 38 45 0
8.1692 37.5949 -31.0645 0.365 0.305 0.880 106 39 44 0
7.9741 37.7981 -31.0539 0.365 0.305 0.880 108 43 47 0
9.6471 38.5243 -30.1062 0.518 -0.122 0.846 109 44 49 0
9.5893 38.7322 -30.0409 0.518 -0.122 0.846 112 47 53 0
8.6199 38.8979 -30.3433 0.506 -0.164 0.847 116 50 57 0
9.6122 39.3651 -29.7659 0.513 -0.133 0.848 123 56 65 0
7.4854 39.4884 -30.5303 0.506 -0.131 0.852 123 57 66 0
7.4276 39.7002 -30.4633 0.506 -0.131 0.852 125 59 67 0
6.4945 39.8796 -30.7460 0.537 -0.155 0.829 132 65 72 0
5.4533 41.3616 -30.5221 0.563 0.242 0.790 132 69 74 0
5.3117 41.5751 -30.4866 0.563 0.242 0.790 135 72 77 0
5.1698 41.7891 -30.4510 0.563 0.242 0.790 136 70 77 0
7.9522 42.2706 -29.1805 0.528 0.406 0.746 133 66 73 0
8.4198 42.4894 -28.9089 0.551 0.399 0.733 128 61 65 0
8.2428 42.6978 -28.8892 0.551 0.399 0.733 128 58 64 0
8.0653 42.9066 -28.8695 0.551 0.399 0.733 136 62 69 0
7.8873 43.1160 -28.8497 0.551 0.399 0.733 142 65 75 0
7.4975 43.3242 -28.9117 0.548 0.401 0.734 144 67 77 0
7.3171 43.5350 -28.8922 0.548 0.401 0.734 143 66 76 0
5.9632 45.8805 -28.4250 0.535 0.406 0.741 157 81 91 0
4.8355 46.1113 -28.7607 0.598 0.428 0.678 155 79 89 0
4.6540 46.3296 -28.7385 0.598 0.428 0.678 155 79 89 0
4.4720 46.5485 -28.7163 0.598 0.428 0.678 153 77 87 0
4.2895 46.7679 -28.6940 0.598 0.428 0.678 152 77 85 0
4.1066 46.9879 -28.6717 0.598 0.428 0.678 151 77 84 0
4.4201 51.0530 -26.8409 0.978 -0.206 -0.031 94 28 37 0
4.4678 51.2633 -26.7341 0.978 -0.206 -0.031 92 26 36 0
5.5243 51.4123 -26.2659 0.912 0.189 0.363 93 27 37 0
6.1192 51.5862 -25.9644 0.939 0.147 0.311 91 25 34 0
6.0768 51.7986 -25.8913 0.946 0.133 0.295 89 23 33 0
6.0250 52.0117 -25.8216 0.946 0.133 0.295 90 26 34 0
6.1126 52.2154 -25.7022 0.938 0.164 0.304 90 27 35 0
6.0536 52.4289 -25.6350 0.938 0.164 0.304 89 26 34 0
5.1308 52.9149 -25.7848 0.619 0.183 0.764 84 20 28 0
5.0092 53.1347 -25.7389 0.619 0.183 0.764 82 18 26 0
4.6523 53.3729 -25.7757 0.957 0.050 0.286 80 19 26 0
4.6181 53.5870 -25.6987 0.957 0.050 0.286 80 21 27 0
4.1097 55.1099 -25.2531 0.971 0.078 0.227 79 18 29 0
3.4800 55.3795 -25.3814 0.970 0.064 0.236 80 20 30 0
3.4469 55.5950 -25.3034 0.970 0.064 0.236 82 24 32 0
3.4137 55.8105 -25.2254 0.970 0.064 0.236 81 24 31 0
0.6679 56.9417 -25.8034 0.926 -0.193 0.325 83 32 37 0
1.3499 57.0868 -25.4806 0.929 -0.187 0.318 78 31 37 0
1.5373 57.2822 -25.3265 0.954 -0.023 0.299 77 31 36 0
0.3136 57.6295 -25.6500 0.923 -0.206 0.325 82 34 39 0
1.3825 57.7288 -25.1979 0.929 -0.187 0.318 87 38 42 0
1.3518 57.9471 -25.1179 0.589 0.653 0.476 92 46 46 0
1.0799 58.1927 -25.1189 0.589 0.653 0.476 95 52 50 0
0.8070 58.4394 -25.1199 0.589 0.653 0.476 94 53 51 0
0.5329 58.6870 -25.1208 0.589 0.653 0.476 93 53 51 0
0.2578 58.9355 -25.1218 0.589 0.653 0.476 98 58 58 0
-0.0183 59.1851 -25.1229 0.589 0.653 0.476 104 65 65 0
-3.7821 60.3080 -26.0950 0.687 -0.701 0.192 109 78 75 0
-4.1237 60.5743 -26.1141 0.718 -0.669 0.195 115 86 82 0
-3.9728 60.7781 -25.9704 0.718 -0.669 0.195 124 98 90 0
-4.3121 61.0454 -25.9881 0.715 -0.672 0.192 172 150 138 0
-4.1598 61.2486 -25.8442 0.715 -0.672 0.192 210 193 177 0
-4.0081 61.4512 -25.7007 0.715 -0.672 0.192 209 193 177 0
-8.6456 62.9968 -26.8304 0.684 -0.703 0.198 210 198 182 0
-3.0888 71.7974 -20.9947 0.589 -0.256 0.766 207 197 182 0
-11.0673 88.3572 -17.0893 0.983 0.180 0.032 192 180 166 0
-19.3746 96.1956 -16.9798 0.580 0.567 0.585 184 168 153 0
11.6611 89.6224 -7.8334 0.506 -0.617 0.602 177 158 142 0
11.7345 89.7714 -7.7426 0.506 -0.617 0.602 174 156 137 0
15.3397 90.5472 -6.0324 0.965 -0.131 -0.228 255 255 254 0
0.0964 3.5356 -48.7850 0.899 0.344 0.271 235 223 209 0
1.3865 4.2063 -48.0045 0.894 0.357 0.272 235 223 209 0
1.2857 4.4197 -47.9536 0.894 0.357 0.272 235 223 208 0
-1.1996 26.5834 -39.5798 0.895 0.167 0.413 141 119 107 0
-1.2731 26.8107 -39.5124 0.895 0.167 0.413 135 107 101 0
4.9320 30.8252 -35.4264 0.748 -0.607 0.267 93 45 46 0
5.5322 31.1158 -35.0723 0.757 -0.604 0.251 94 44 45 0
6.7074 31.6872 -34.3780 0.751 -0.612 0.248 101 45 48 0
6.8481 31.9223 -34.2247 0.751 -0.612 0.248 112 53 57 0
6.9884 32.1567 -34.0718 0.751 -0.612 0.248 104 45 49 0
7.7092 32.4494 -33.6703 0.750 -0.612 0.252 100 40 44 0
8.1994 32.9333 -33.2773 0.755 -0.605 0.254 102 41 44 0
9.4300 33.2682 -32.6611 0.907 -0.417 0.060 104 41 45 0
9.5241 33.4915 -32.5308 0.907 -0.417 0.060 105 40 46 0
9.6180 33.7142 -32.4007 0.907 -0.417 0.060 105 40 46 0
8.9506 35.7975 -31.7811 0.941 -0.336 0.031 101 36 44 0
8.4507 35.9754 -31.8992 0.939 -0.342 0.027 100 35 43 0
9.0989 36.2353 -31.5395 0.941 -0.336 0.031 100 33 42 0
9.2466 36.6715 -31.2988 0.941 -0.336 0.031 102 35 44 0
9.3202 36.8890 -31.1788 0.941 -0.336 0.031 104 37 46 0
9.3937 37.1061 -31.0590 0.941 -0.336 0.031 106 39 48 0
8.7953 37.2820 -31.2159 0.365 0.305 0.880 108 41 49 0
8.6019 37.4839 -31.2056 0.365 0.305 0.880 106 40 46 0
6.8569 37.5981 -31.8311 0.418 -0.228 0.879 105 40 45 0
6.8167 37.8125 -31.7564 0.418 -0.228 0.879 108 43 47 0
8.3479 38.1104 -31.0398 0.502 -0.160 0.850 109 44 48 0
8.9609 38.5678 -30.6106 0.506 -0.164 0.847 111 46 50 0
8.9122 38.7776 -30.5410 0.506 -0.164 0.847 112 47 52 0
8.8635 38.9875 -30.4714 0.506 -0.164 0.847 115 49 56 0
8.8148 39.1975 -30.4017 0.506 -0.164 0.847 118 51 60 0
9.8486 39.4531 -29.8950 0.513 -0.133 0.848 121 54 63 0
7.7286 39.5778 -30.6609 0.506 -0.131 0.852 123 56 65 0
7.0747 39.9815 -30.7434 0.519 -0.129 0.845 126 60 67 0
5.9393 41.4556 -30.5610 0.384 -0.747 0.543 133 72 77 0
6.0278 41.6735 -30.4350 0.533 -0.138 0.835 134 73 78 0
7.0647 41.9101 -29.9351 0.525 0.404 0.749 137 74 80 0
7.3712 42.1294 -29.7245 0.400 -0.713 0.576 138 74 80 0
8.1159 42.3546 -29.3421 0.528 0.406 0.746 137 72 78 0
7.6968 42.5601 -29.4174 0.400 -0.713 0.576 133 67 71 0
8.3998 42.7812 -29.0528 0.551 0.399 0.733 132 64 69 0
7.5620 42.9828 -29.2914 0.528 0.406 0.746 140 69 75 0
7.3765 43.1933 -29.2744 0.528 0.406 0.746 147 72 82 0
5.3418 44.4697 -29.5224 0.580 0.391 0.715 163 89 96 0
7.3782 44.6777 -28.6486 0.955 -0.004 0.298 161 89 96 0
7.0954 44.8908 -28.6681 0.539 0.414 0.733 160 89 97 0
7.1012 45.3145 -28.4874 0.527 0.449 0.722 166 93 102 0
6.9014 45.5284 -28.4744 0.527 0.449 0.722 166 93 102 0
6.8377 46.1649 -28.2310 0.533 0.434 0.726 156 78 89 0
6.6418 46.3802 -28.2160 0.533 0.434 0.726 153 74 85 0
6.4454 46.5960 -28.2009 0.533 0.434 0.726 149 70 81 0
4.2475 47.0720 -28.8490 0.598 0.428 0.678 146 69 77 0
4.0644 47.2925 -28.8268 0.598 0.428 0.678 144 69 76 0
5.8274 47.6735 -27.9858 0.257 0.435 0.863 133 62 68 0
6.4682 50.6053 -26.5038 0.938 0.136 0.318 101 31 42 0
6.4140 50.8182 -26.4350 0.938 0.136 0.318 98 30 41 0
4.4319 51.1424 -27.0637 0.978 -0.206 -0.031 93 26 37 0
4.4796 51.3528 -26.9567 0.978 -0.206 -0.031 89 24 34 0
4.5272 51.5629 -26.8499 0.978 -0.206 -0.031 89 25 35 0
5.6266 51.7064 -26.3650 0.967 0.045 0.251 88 24 34 0
6.1172 51.8854 -26.1002 0.939 0.147 0.311 88 22 32 0
6.0768 52.0978 -26.0264 0.946 0.133 0.295 92 29 37 0
6.1639 52.3016 -25.9069 0.938 0.164 0.304 95 33 40 0
6.1049 52.5152 -25.8398 0.938 0.164 0.304 89 29 36 0
6.0459 52.7289 -25.7726 0.938 0.164 0.304 85 24 31 0
5.1862 53.2125 -25.9008 0.619 0.183 0.764 80 19 26 0
4.7091 53.4600 -25.9807 0.957 0.050 0.286 80 20 27 0
3.5254 55.4690 -25.5918 0.970 0.064 0.236 79 18 29 0
3.4922 55.6846 -25.5138 0.970 0.064 0.236 79 21 30 0
3.4590 55.9002 -25.4358 0.970 0.064 0.236 80 24 32 0
3.4259 56.1158 -25.3578 0.970 0.064 0.236 80 26 34 0
3.3927 56.3314 -25.2798 0.970 0.064 0.236 80 27 33 0
1.6666 56.7197 -25.7827 0.954 -0.023 0.299 81 28 34 0
