ply
format ascii 1.0
element vertex 861
property float x
property float y
property float z
property float nx
property float ny
property float nz
property uchar diffuse_red
property uchar diffuse_green
property uchar diffuse_blue
property uchar class
end_header
5.6681 33.0882 -33.6380 0.964 0.253 -0.077 105 57 57 0
5.1300 35.8260 -31.9151 0.857 0.247 0.453 99 36 39 0
4.9229 36.8011 -31.3069 0.960 0.274 -0.060 105 39 43 0
4.7066 37.1830 -31.1167 0.915 0.182 0.361 107 39 43 0
4.3741 37.3614 -31.1101 0.813 0.196 0.548 110 38 42 0
4.7025 37.5777 -30.8423 0.780 0.151 0.608 113 39 43 0
4.6311 37.7710 -30.7325 0.843 0.121 0.524 114 40 45 0
4.5267 37.9626 -30.6356 0.954 -0.034 0.299 117 44 47 0
4.4943 38.1581 -30.5104 0.954 -0.034 0.299 117 46 47 0
4.4181 38.3514 -30.4023 0.974 -0.039 0.223 113 42 42 0
4.2520 38.5404 -30.3292 0.746 -0.028 0.665 110 39 38 0
4.2779 38.7388 -30.1813 0.695 -0.379 0.611 110 39 37 0
4.1339 38.9293 -30.0993 0.698 -0.295 0.653 117 44 41 0
4.0764 39.1238 -29.9837 0.765 -0.463 0.447 118 45 40 0
4.1370 39.3232 -29.8227 0.695 -0.284 0.660 121 46 41 0
3.5249 40.4816 -29.2303 0.951 0.018 0.309 119 44 39 0
3.4398 40.8724 -28.9873 0.944 0.142 0.298 120 45 40 0
2.6333 42.2312 -28.3238 0.760 -0.222 0.611 121 47 39 0
2.4783 42.4255 -28.2429 0.601 -0.739 0.304 116 42 36 0
2.5363 42.6231 -28.0842 0.576 -0.699 0.423 119 45 41 0
2.5875 42.8202 -27.9282 0.726 -0.670 0.151 120 47 45 0
2.6890 43.0175 -27.7542 0.775 -0.551 0.308 115 44 42 0
2.5240 43.2121 -27.6768 0.931 -0.056 0.360 114 41 41 0
2.3928 43.7993 -27.3128 0.946 -0.113 -0.303 110 40 43 0
2.4925 43.9953 -27.1404 0.849 -0.260 -0.459 107 39 42 0
2.2506 44.1907 -27.0897 0.881 0.291 0.374 106 39 41 0
1.3547 44.5844 -27.1326 0.418 -0.714 0.562 107 37 42 0
1.6505 44.7799 -26.8909 0.255 -0.678 0.689 110 39 45 0
1.6813 44.9760 -26.7429 0.268 -0.636 0.724 113 41 48 0
1.7296 45.1716 -26.5890 0.268 -0.636 0.724 115 42 49 0
1.7778 45.3669 -26.4353 0.268 -0.636 0.724 115 40 48 0
1.6771 45.5635 -26.3337 0.576 -0.366 0.731 115 40 47 0
1.5715 45.7603 -26.2335 0.601 -0.119 0.790 119 43 50 0
1.3791 46.5451 -25.7533 0.275 -0.243 0.930 129 50 57 0
1.3154 47.3266 -25.2295 0.670 -0.355 0.652 118 37 45 0
1.1099 47.7215 -25.0263 0.980 -0.176 0.098 120 45 53 0
0.9140 48.7005 -24.4115 0.941 0.275 0.195 119 42 52 0
0.5890 49.4902 -23.9748 0.835 0.377 0.402 111 34 44 0
0.6138 49.6832 -23.8311 0.898 -0.052 0.437 111 33 44 0
0.5158 51.6211 -22.5111 0.575 0.633 0.518 105 23 31 0
0.1276 52.0303 -22.3629 0.986 0.117 -0.118 107 28 34 0
-0.2682 52.6350 -22.0807 0.974 -0.081 0.213 102 27 32 0
-0.0734 52.8145 -21.8860 0.948 -0.056 0.313 102 27 32 0
-0.0350 53.0043 -21.7397 0.705 -0.671 0.229 101 27 32 0
0.1080 53.1862 -21.5617 0.678 -0.710 0.190 103 28 33 0
0.1162 53.3775 -21.4251 0.568 -0.637 0.521 102 27 32 0
0.3769 53.5496 -21.2122 0.665 -0.696 0.273 101 26 32 0
0.8240 53.7065 -20.9438 0.886 -0.384 -0.259 102 27 34 0
0.9600 53.8861 -20.7698 0.992 -0.114 -0.050 102 27 34 0
-0.3587 54.5651 -20.7635 0.773 0.033 0.633 102 29 35 0
-0.5610 54.9655 -20.5554 0.552 0.356 0.754 119 53 57 0
-0.7922 55.1773 -20.4894 0.540 0.359 0.761 116 55 58 0
-1.1181 55.3982 -20.4507 0.445 0.448 0.775 92 32 36 0
-1.4197 55.6177 -20.4044 0.445 0.448 0.775 87 28 32 0
-1.6141 55.8280 -20.3264 0.524 0.567 0.636 87 29 32 0
-1.5908 56.0184 -20.1850 0.477 -0.241 0.845 85 30 33 0
-1.7419 57.3777 -19.2884 0.410 -0.213 0.887 84 44 44 0
-1.9975 57.5963 -19.2263 0.985 -0.067 0.156 86 46 47 0
-0.5581 58.2012 -18.2923 0.286 0.627 0.725 94 62 61 0
-3.7638 59.5284 -18.5028 0.119 0.651 0.750 174 156 140 0
-2.8007 60.5607 -17.4391 0.708 0.541 0.454 212 201 180 0
-11.0850 74.5116 -10.6278 0.029 0.549 0.835 209 197 178 0
-14.2607 75.4214 -11.1195 0.027 0.546 0.837 209 197 179 0
-7.1515 76.4280 -7.8912 0.442 -0.352 0.825 206 195 174 0
-7.2957 76.6490 -7.7878 0.367 -0.495 0.788 206 195 174 0
-7.5341 76.8937 -7.7014 0.617 -0.280 0.735 206 195 174 0
-7.8201 77.1509 -7.6232 0.734 -0.274 0.621 207 194 175 0
-7.9112 77.3597 -7.5096 0.837 -0.043 0.545 208 195 177 0
-7.9777 77.5624 -7.3914 0.837 -0.043 0.545 209 196 179 0
-8.0475 77.7661 -7.2739 0.819 0.492 0.297 209 196 179 0
-8.3110 78.0192 -7.1905 0.577 0.793 0.195 210 196 179 0
-8.1423 78.1619 -7.0308 0.979 0.194 0.057 209 196 179 0
-8.1883 78.3595 -6.9090 0.982 0.186 0.015 210 197 179 0
-8.5857 78.6483 -6.8482 0.979 0.197 -0.044 211 197 177 0
-8.3338 78.7686 -6.6747 0.696 0.560 0.449 212 197 177 0
-8.3608 78.9612 -6.5496 0.821 -0.060 0.568 212 197 176 0
-8.3869 79.1535 -6.4244 0.840 -0.133 0.526 213 198 177 0
-8.3927 79.3404 -6.2958 0.916 -0.025 0.400 213 197 178 0
-8.3990 79.5273 -6.1674 0.919 -0.104 0.380 212 199 178 0
-8.4287 79.7203 -6.0430 0.919 -0.104 0.380 207 195 173 0
-8.3116 79.8737 -5.8942 0.751 -0.476 0.457 201 189 167 0
-8.2629 80.0452 -5.7570 0.752 -0.260 0.606 199 186 164 0
-9.7729 81.5715 -5.2262 0.349 0.178 0.920 199 184 161 0
-9.8297 81.7732 -5.1054 0.786 0.495 0.370 198 183 160 0
6.2986 85.2611 3.0607 0.976 -0.215 0.033 182 160 144 0
6.3325 85.4065 3.1744 0.943 -0.319 -0.097 180 158 141 0
6.3580 85.5546 3.2870 0.982 -0.182 0.047 115 102 92 0
6.3803 85.7037 3.3992 0.982 -0.182 0.047 50 49 50 0
6.4955 85.8197 3.5212 0.975 -0.224 0.005 246 246 245 0
6.5282 85.9646 3.6341 0.975 -0.224 0.005 255 255 255 0
12.1943 24.3870 -37.6875 0.720 -0.497 0.485 234 226 208 0
12.0064 24.7469 -37.5029 0.633 -0.585 0.507 235 226 209 0
11.9275 24.9296 -37.4032 0.582 -0.245 0.775 236 227 210 0
11.4393 25.0426 -37.4988 0.743 0.594 0.308 236 227 210 0
11.1532 25.1913 -37.4970 0.722 0.594 0.355 236 227 210 0
6.6267 29.7078 -35.9552 0.602 0.792 -0.101 228 220 201 0
7.3365 29.9954 -35.5001 0.636 0.769 -0.064 227 219 200 0
5.4034 32.7827 -34.2410 0.963 0.252 -0.099 109 64 62 0
5.5489 32.9968 -34.0392 0.996 0.041 -0.083 106 59 59 0
5.6732 33.2082 -33.8467 0.943 0.329 -0.041 103 54 55 0
5.8420 34.0197 -33.2186 0.519 0.834 -0.188 96 45 42 0
5.1869 36.1494 -31.9626 0.777 0.244 0.580 104 41 44 0
5.2121 36.3489 -31.8140 0.633 0.418 0.651 103 42 44 0
4.9306 36.7261 -31.6508 0.972 0.009 0.235 103 40 44 0
4.5052 37.4919 -31.2670 0.704 0.235 0.670 109 39 43 0
4.6859 38.0941 -30.7810 0.957 0.286 0.041 117 47 49 0
4.6231 38.2879 -30.6678 0.957 0.286 0.041 116 47 48 0
4.5434 38.4810 -30.5612 0.959 0.280 0.047 111 41 41 0
4.4208 38.6722 -30.4713 0.746 -0.020 0.665 110 39 39 0
4.3948 38.8680 -30.3436 0.749 -0.304 0.589 114 42 42 0
4.1275 39.0532 -30.3096 0.758 -0.500 0.419 118 45 43 0
4.1420 39.2509 -30.1660 0.715 -0.528 0.458 119 45 42 0
3.5509 40.6080 -29.4278 0.914 -0.099 0.394 119 42 39 0
2.7886 42.7539 -28.1988 0.588 -0.691 0.420 113 39 37 0
2.7374 42.9496 -28.0802 0.750 -0.625 0.215 112 39 39 0
2.8380 43.1466 -27.9063 0.769 -0.555 0.318 110 38 39 0
2.5609 43.3404 -27.8698 0.822 0.068 0.565 109 37 38 0
2.4083 43.5356 -27.7878 0.818 0.120 0.563 108 38 39 0
2.2406 43.7311 -27.7110 0.943 0.106 0.315 108 38 40 0
2.1686 43.9272 -27.5995 0.936 -0.086 -0.341 109 40 43 0
2.3736 44.1236 -27.3888 0.849 -0.262 -0.459 110 43 46 0
2.1823 44.3195 -27.3201 0.914 0.239 0.329 110 44 46 0
1.9639 44.5159 -27.2608 0.697 0.064 0.715 106 39 42 0
1.6616 44.7132 -27.2308 0.411 -0.705 0.578 109 42 46 0
1.7994 45.3008 -26.7704 0.211 -0.497 0.842 114 40 47 0
1.7678 45.4969 -26.6445 0.216 -0.504 0.836 116 40 49 0
2.0876 45.6887 -26.3959 0.411 -0.627 0.662 115 40 47 0
1.7908 46.6678 -25.8169 0.278 -0.359 0.891 139 59 68 0
1.6625 47.4488 -25.3163 0.362 -0.382 0.850 122 41 50 0
1.2141 47.8502 -25.1957 0.935 -0.242 0.260 125 47 57 0
0.9270 48.8324 -24.6112 0.937 0.291 0.193 121 46 56 0
0.6049 49.6226 -24.1734 0.884 0.237 0.403 111 33 44 0
0.6458 49.8149 -24.0242 0.880 -0.170 0.443 112 32 43 0
0.3016 51.5752 -22.9156 0.453 0.884 0.116 107 21 30 0
-0.0512 52.1766 -22.6209 0.997 -0.028 0.076 103 22 29 0
-0.0594 52.3703 -22.4883 0.999 -0.045 0.000 101 22 29 0
-0.2537 52.5763 -22.4136 0.799 -0.364 0.479 100 23 29 0
0.2014 53.5066 -21.5999 0.365 -0.913 0.184 101 26 31 0
0.5334 53.6729 -21.3648 0.359 -0.911 0.202 101 26 31 0
0.7355 53.8482 -21.1699 0.814 -0.578 0.058 101 26 33 0
0.6257 54.0475 -21.0697 0.440 0.715 0.543 103 28 35 0
-0.2639 54.6936 -20.9357 0.828 0.478 0.292 104 31 36 0
-0.5675 55.1029 -20.7579 0.722 0.381 0.577 108 41 45 0
-0.7157 55.3078 -20.6675 0.562 0.526 0.639 104 42 45 0
-1.3179 55.7464 -20.5759 0.536 0.547 0.643 86 27 31 0
-1.4013 56.1389 -20.3311 0.803 0.295 0.518 84 29 32 0
-1.4390 57.4849 -19.4027 0.410 -0.213 0.887 83 41 42 0
-1.9369 57.7294 -19.4097 0.988 -0.070 0.134 86 45 47 0
-1.8243 57.9090 -19.2438 0.833 0.469 0.294 87 46 50 0
-1.7502 58.2834 -18.9553 0.264 0.780 0.567 88 56 57 0
-2.7272 59.3537 -18.5557 0.125 0.627 0.769 125 101 92 0
-3.5906 59.6498 -18.6572 0.124 0.632 0.765 161 141 127 0
-4.5113 59.9553 -18.7726 0.124 0.648 0.752 208 193 174 0
-2.9099 60.7166 -17.6673 0.818 0.564 -0.113 211 200 182 0
-9.9009 74.4011 -10.5916 0.025 0.512 0.858 210 197 178 0
-7.8945 75.8294 -8.8748 0.754 -0.407 -0.516 208 196 176 0
-7.4903 75.9193 -8.6674 0.698 -0.694 -0.175 209 198 176 0
-7.2321 76.0432 -8.4884 0.713 -0.673 -0.196 208 197 179 0
-6.9672 76.1646 -8.3087 0.737 -0.650 -0.187 208 197 178 0
-8.2013 77.9598 -7.4938 0.815 0.520 0.257 209 194 178 0
-8.6699 78.2662 -7.4470 0.623 0.780 0.050 209 193 177 0
-8.6325 78.4432 -7.3097 0.817 0.519 0.253 209 195 179 0
-8.3060 79.1021 -6.7320 0.662 -0.506 0.553 211 196 177 0
-8.0518 79.2201 -6.5585 0.581 -0.457 0.674 211 196 177 0
-8.0882 79.4147 -6.4353 0.614 -0.452 0.647 212 196 178 0
-8.2399 79.6402 -6.3318 0.900 -0.168 0.403 211 197 178 0
-8.2607 79.8307 -6.2059 0.900 -0.168 0.403 210 197 177 0
-8.1430 79.9837 -6.0568 0.751 -0.476 0.457 206 194 172 0
-8.0941 80.1549 -5.9195 0.752 -0.260 0.606 203 190 168 0
-7.9472 80.2990 -5.7662 0.839 0.156 0.522 201 187 165 0
-9.3004 81.4115 -5.4715 0.308 0.478 0.822 200 183 162 0
-9.6074 81.6829 -5.3914 0.445 0.270 0.854 199 183 162 0
-9.6752 81.8876 -5.2724 0.530 0.545 0.649 199 182 161 0
-8.5620 81.9416 -4.8366 0.412 0.871 0.268 199 181 161 0
-9.7151 82.4551 -4.8896 0.355 0.849 0.392 197 180 159 0
-11.8604 83.8203 -4.7014 0.655 -0.753 -0.062 194 179 157 0
6.3276 85.3928 2.9023 0.978 -0.207 0.026 182 161 144 0
6.3351 85.5474 3.0132 0.941 -0.316 -0.122 181 160 143 0
6.3885 85.6857 3.1291 0.982 -0.182 0.048 115 104 95 0
6.4106 85.8349 3.2413 0.982 -0.182 0.048 49 50 50 0
6.5263 85.9505 3.3636 0.975 -0.224 0.005 246 247 245 0
6.5298 86.1058 3.4736 0.982 -0.183 -0.039 255 255 255 0
12.5164 24.9437 -37.4663 0.740 -0.577 0.347 236 227 209 0
12.1458 25.0757 -37.5073 0.757 -0.355 0.549 236 227 210 0
6.3583 29.7916 -36.2881 0.559 0.701 0.442 228 220 201 0
7.2395 30.0999 -35.7549 0.617 0.777 0.126 226 218 199 0
5.9579 30.7511 -35.7602 0.201 0.798 0.569 219 203 184 0
5.1022 31.6650 -35.4283 0.891 -0.308 0.332 116 85 80 0
5.3447 32.8969 -34.4782 0.962 0.254 -0.101 105 61 59 0
5.4499 33.1072 -34.2930 0.964 0.092 -0.250 104 57 57 0
5.5533 33.3169 -34.1090 0.947 0.271 -0.171 101 52 54 0
6.1508 33.5708 -33.7160 0.771 0.563 -0.297 100 48 51 0
6.1229 33.9654 -33.4497 0.625 0.742 -0.243 96 45 46 0
5.3614 36.4805 -31.9624 0.634 0.402 0.660 102 42 44 0
5.0984 36.6612 -31.9306 0.778 0.300 0.552 103 43 45 0
4.9755 36.8512 -31.8417 0.972 0.009 0.235 108 45 48 0
4.8848 37.4388 -31.4629 0.791 -0.095 0.604 105 38 43 0
4.7546 37.6290 -31.3766 0.820 0.119 0.559 109 39 43 0
4.9981 37.8396 -31.1414 0.901 0.290 0.323 110 39 42 0
4.7243 38.2193 -30.9740 0.784 0.521 0.337 116 47 49 0
4.4140 38.7958 -30.6820 0.913 -0.188 0.363 109 41 40 0
4.4722 38.9954 -30.5213 0.943 -0.054 0.328 112 41 41 0
4.2590 39.3801 -30.3286 0.908 -0.382 0.174 120 47 45 0
4.3356 39.5799 -30.1611 0.933 -0.116 0.342 125 51 45 0
3.5662 40.7342 -29.6296 0.918 -0.103 0.384 120 41 42 0
3.6869 41.1308 -29.3084 0.945 0.108 0.310 124 46 44 0
2.8362 43.2744 -28.1134 0.962 -0.271 0.017 110 38 41 0
2.6653 43.4692 -28.0385 0.887 0.154 0.436 108 38 39 0
1.9712 43.8589 -28.0155 0.604 0.602 0.522 108 40 42 0
1.8496 44.0555 -27.9215 0.815 -0.468 -0.343 109 41 43 0
2.3603 44.2524 -27.5998 0.853 -0.260 -0.452 112 46 48 0
2.0915 44.4487 -27.5591 0.738 -0.399 0.545 112 46 48 0
1.9891 44.6452 -27.4583 0.736 -0.433 0.520 111 45 47 0
2.6308 45.8115 -26.4105 0.530 -0.643 0.553 115 40 48 0
2.0189 46.4044 -26.2155 0.565 -0.420 0.711 119 42 51 0
2.0004 46.5995 -26.0856 0.565 -0.420 0.711 125 46 57 0
2.1423 46.7911 -25.9003 0.345 -0.462 0.817 127 47 56 0
1.9634 47.5717 -25.4180 0.348 -0.379 0.858 122 42 51 0
1.3761 47.9771 -25.3456 0.681 0.101 0.725 127 47 59 0
0.9278 48.9649 -24.8151 0.937 0.291 0.193 124 51 61 0
0.8428 49.1627 -24.7072 0.960 0.075 0.271 127 54 64 0
0.8029 49.3587 -24.5843 0.811 0.267 0.520 124 51 60 0
0.8505 49.9388 -24.1609 0.928 -0.067 0.367 113 32 44 0
1.6999 50.0919 -23.7479 0.785 -0.480 0.391 114 32 44 0
0.0070 52.5011 -22.6700 0.949 0.254 -0.186 103 23 30 0
-0.2849 52.7140 -22.6260 0.981 0.171 0.093 104 25 32 0
-0.4223 52.9169 -22.5334 0.964 0.199 0.177 103 26 33 0
0.5821 54.1863 -21.2828 0.426 0.719 0.549 104 29 36 0
0.4570 54.3873 -21.1870 0.338 0.758 0.558 106 31 37 0
-0.2982 54.8331 -21.1467 0.833 0.480 0.277 101 28 32 0
-0.5584 55.0473 -21.0904 0.833 0.503 0.233 100 28 32 0
-0.6602 55.2482 -20.9863 0.836 0.497 0.234 102 34 38 0
-0.6821 55.4421 -20.8584 0.610 0.527 0.592 97 34 37 0
-1.4268 56.2797 -20.5399 0.775 0.367 0.514 84 28 31 0
-0.6275 56.3941 -20.1720 0.406 -0.419 0.812 82 30 33 0
-2.0418 57.6883 -19.7748 0.836 0.498 0.230 83 41 43 0
-1.9113 57.8664 -19.6031 0.986 -0.072 0.149 86 44 46 0
-1.8049 58.0465 -19.4386 0.867 0.467 0.171 86 46 48 0
-3.3123 59.7582 -18.7825 0.136 0.648 0.749 149 129 116 0
-4.2831 60.0706 -18.9132 0.106 0.668 0.737 205 188 171 0
-3.8742 60.9850 -18.1256 0.867 0.490 0.089 212 200 184 0
-3.0876 61.0733 -17.7806 0.699 0.682 0.213 213 201 185 0
-14.0036 75.8809 -11.3400 0.032 0.512 0.858 208 194 177 0
-16.8530 76.7359 -11.7670 0.039 0.544 0.838 211 195 179 0
-8.4618 75.9315 -9.3095 0.664 -0.697 -0.271 207 195 176 0
-8.1475 76.0441 -9.1175 0.788 -0.374 -0.490 205 195 174 0
-7.3530 76.0393 -8.8348 0.715 -0.671 -0.196 206 196 175 0
-7.1739 76.1821 -8.6703 0.715 -0.671 -0.196 206 195 176 0
-6.8622 76.2917 -8.4813 0.736 -0.651 -0.187 205 194 176 0
-8.2438 78.1256 -7.6943 0.815 0.520 0.257 208 192 177 0
-7.9641 79.3520 -6.7348 0.367 -0.834 0.412 209 195 176 0
-7.8127 79.4963 -6.5792 0.407 -0.839 0.360 210 195 178 0
-8.1882 79.7819 -6.5143 0.904 -0.158 0.397 211 197 179 0
-7.9429 79.9004 -6.3430 0.704 -0.175 0.688 209 196 177 0
-7.7399 80.0297 -6.1794 0.679 -0.526 0.512 207 195 173 0
-7.7421 80.2143 -6.0509 0.710 -0.305 0.635 208 195 172 0
-7.8613 80.4309 -5.9421 0.832 0.159 0.531 206 193 170 0
-8.2773 80.7296 -5.8827 0.213 0.123 0.969 201 189 166 0
-8.4726 80.9681 -5.7859 0.220 0.100 0.970 199 185 163 0
-8.3942 81.1308 -5.6438 0.368 0.308 0.877 199 184 163 0
-8.7372 81.5957 -5.4417 0.490 -0.274 0.827 201 182 163 0
-7.8691 81.5344 -5.1721 0.866 -0.463 -0.189 200 181 163 0
-7.8283 81.7058 -5.0373 0.862 -0.462 -0.210 200 180 163 0
-11.8761 83.9860 -4.8977 0.639 -0.767 -0.061 194 179 158 0
6.3338 85.5326 2.7411 0.971 -0.238 -0.011 182 161 142 0
6.3605 85.6805 2.8543 0.949 -0.300 -0.093 182 161 144 0
6.4204 85.8165 2.9711 0.982 -0.182 0.048 117 105 97 0
6.4425 85.9656 3.0835 0.982 -0.182 0.048 50 50 51 0
6.5272 86.0922 3.2027 0.976 -0.207 -0.067 246 247 245 0
6.5653 86.2352 3.3165 0.976 -0.207 -0.067 255 255 255 0
7.3165 30.2257 -35.9326 0.491 0.697 0.523 227 218 199 0
5.2755 30.9944 -36.1336 0.170 0.806 0.567 158 135 122 0
5.0269 32.9868 -34.8271 0.875 0.287 -0.390 105 60 59 0
5.4897 33.2310 -34.4882 0.857 -0.003 -0.516 103 56 56 0
5.6046 33.4416 -34.2989 0.857 -0.003 -0.516 101 52 53 0
5.7652 33.6558 -34.0905 0.870 0.011 -0.493 101 49 51 0
6.2839 33.9008 -33.7308 0.613 0.789 -0.038 99 48 49 0
6.2717 34.0980 -33.5970 0.599 0.800 -0.042 97 46 45 0
6.9087 34.3501 -33.1894 0.522 0.816 -0.249 96 45 44 0
5.4572 36.6086 -32.1324 0.634 0.402 0.660 102 42 42 0
5.1895 36.7892 -32.1028 0.851 0.174 0.496 102 42 42 0
4.8562 37.7576 -31.5448 0.857 0.125 0.500 108 39 42 0
5.0867 37.9672 -31.3143 0.724 0.602 0.337 107 39 41 0
4.4799 39.1198 -30.7263 0.877 -0.452 0.163 111 41 41 0
4.2647 39.3078 -30.6725 0.902 -0.431 -0.037 115 43 43 0
4.3176 39.5070 -30.5138 0.881 -0.469 -0.066 118 46 43 0
4.1293 40.0904 -30.1730 0.736 0.480 0.477 137 61 56 0
3.8611 41.2611 -29.4496 0.951 0.111 0.288 130 51 52 0
3.0385 42.6195 -28.7956 0.603 0.066 0.795 117 42 38 0
2.9590 43.2073 -28.4124 0.787 -0.513 0.343 115 42 44 0
2.8385 43.4024 -28.3193 0.951 -0.306 0.038 114 42 46 0
2.9485 43.5990 -28.1416 0.957 -0.283 0.067 112 40 43 0
2.3928 43.7926 -28.2073 0.605 0.591 0.534 110 41 42 0
2.1314 43.9884 -28.1648 0.608 0.590 0.532 111 44 45 0
1.6518 44.1849 -28.2009 0.808 -0.492 -0.323 112 43 46 0
1.5865 44.3822 -28.0863 0.470 -0.182 0.863 111 43 47 0
2.2391 44.5777 -27.7127 0.561 -0.613 0.557 111 45 48 0
2.1929 44.7739 -27.5919 0.681 -0.421 0.600 112 46 48 0
2.8339 45.1608 -27.0884 0.968 -0.117 -0.224 112 44 47 0
2.5045 45.7481 -26.7961 0.749 0.662 -0.027 113 40 46 0
3.1102 45.9343 -26.4461 0.899 -0.211 -0.383 115 41 49 0
2.2702 46.3356 -26.4692 0.572 -0.425 0.701 122 45 56 0
2.2419 46.5306 -26.3428 0.605 -0.338 0.721 125 47 59 0
2.2377 46.7251 -26.2079 0.604 -0.346 0.718 124 46 58 0
2.2379 46.9194 -26.0717 0.587 -0.418 0.694 124 43 53 0
2.2256 47.1138 -25.9399 0.584 -0.412 0.700 125 44 53 0
2.1851 47.3088 -25.8179 0.602 -0.440 0.666 124 42 52 0
2.1794 47.6966 -25.5481 0.602 -0.333 0.726 124 46 55 0
2.3332 47.8856 -25.3599 0.746 0.057 0.663 127 50 59 0
0.9901 49.0952 -24.9988 0.912 0.257 0.320 125 54 62 0
0.9230 49.2924 -24.8849 0.946 0.125 0.299 128 57 65 0
0.8804 49.4885 -24.7629 0.945 0.139 0.297 129 57 66 0
0.7809 49.6871 -24.6597 0.945 0.140 0.297 125 50 60 0
0.7901 49.8809 -24.5205 0.956 0.090 0.280 121 43 53 0
1.7110 50.0314 -24.0813 0.841 -0.466 0.276 116 35 47 0
2.0128 50.2091 -23.8473 0.872 -0.437 0.222 115 33 43 0
2.0823 50.3974 -23.6901 0.759 -0.223 0.612 114 33 43 0
-0.6575 55.1932 -21.3215 0.869 0.466 0.167 99 28 32 0
-1.3459 56.6028 -20.5829 0.967 -0.007 0.253 83 31 35 0
-2.0955 57.8340 -19.9915 0.869 0.461 0.179 83 41 42 0
-2.1603 58.0335 -19.8752 0.905 0.355 0.233 84 44 44 0
-1.8409 58.1903 -19.6495 0.867 0.467 0.171 87 48 47 0
-4.0348 60.1831 -19.0478 0.138 0.659 0.740 193 175 161 0
-3.7799 61.1159 -18.3016 0.916 0.402 0.013 212 200 184 0
-3.3505 61.2510 -18.0512 0.635 0.740 0.222 213 201 185 0
-3.6777 61.4869 -18.0045 0.519 0.746 0.418 215 203 187 0
-8.5429 76.1055 -9.5207 0.757 -0.612 -0.228 208 196 177 0
-8.2074 76.2128 -9.3239 0.786 -0.377 -0.489 206 196 174 0
-7.4600 76.2187 -9.0489 0.659 -0.739 -0.137 205 195 173 0
-6.9475 76.2799 -8.8203 0.608 -0.794 0.022 205 194 175 0
-7.0697 76.4958 -8.7132 0.798 -0.537 -0.274 204 193 175 0
-6.1314 76.4492 -8.4058 0.703 -0.685 -0.192 204 193 175 0
-12.0918 79.6553 -8.3187 0.732 -0.601 -0.320 208 192 177 0
-10.8661 79.5259 -7.9652 0.753 -0.442 -0.488 208 192 177 0
-7.6504 79.6079 -6.7422 0.410 -0.835 0.368 207 194 178 0
-7.6954 79.8044 -6.6207 0.704 -0.175 0.688 207 194 177 0
-7.7605 80.0064 -6.5028 0.704 -0.175 0.688 207 195 175 0
-7.5994 80.1467 -6.3460 0.644 -0.432 0.631 207 195 173 0
-7.6062 80.3324 -6.2183 0.615 -0.101 0.782 207 195 173 0
-7.5393 80.4977 -6.0782 0.237 0.099 0.966 207 195 172 0
-7.8426 80.7653 -6.0005 0.237 0.121 0.964 207 195 172 0
-8.1411 81.0323 -5.9216 0.194 0.020 0.981 203 190 168 0
-8.4853 81.3128 -5.8498 0.182 0.039 0.982 199 184 163 0
-8.4514 81.6719 -5.5858 0.490 -0.274 0.827 201 182 162 0
-7.6880 81.6390 -5.3321 0.825 -0.554 -0.107 200 180 163 0
-7.7804 81.8483 -5.2189 0.868 -0.479 -0.131 197 178 161 0
-7.4583 81.9387 -5.0388 0.862 -0.467 -0.196 196 177 160 0
-7.3561 82.0915 -4.8946 0.858 -0.474 -0.199 196 178 160 0
-12.3162 83.7108 -5.5573 0.507 0.644 0.572 195 178 158 0
-13.0505 84.1133 -5.5413 0.508 0.542 0.670 194 179 156 0
-13.0828 84.3124 -5.4135 0.453 -0.834 0.315 193 179 158 0
-11.7661 84.1150 -5.0747 0.245 -0.945 0.215 194 179 158 0
-11.4732 84.2160 -4.8976 0.261 -0.944 0.204 194 179 158 0
6.3643 85.6640 2.5825 0.971 -0.238 -0.011 182 161 141 0
6.3869 85.8134 2.6954 0.949 -0.300 -0.093 180 160 142 0
6.4523 85.9473 2.8130 0.982 -0.182 0.048 116 104 95 0
6.4744 86.0965 2.9256 0.982 -0.182 0.048 51 50 51 0
6.5450 86.2280 3.0434 0.976 -0.207 -0.067 247 247 244 0
6.6021 86.3641 3.1595 0.976 -0.218 -0.000 254 255 254 0
7.3588 30.3474 -36.1260 0.528 0.404 0.747 227 218 199 0
6.0232 30.9951 -36.1589 0.245 0.830 0.500 208 189 173 0
5.3390 31.1207 -36.3205 0.171 0.806 0.566 156 133 120 0
6.0143 31.9993 -35.4577 0.709 -0.658 -0.255 116 85 82 0
5.8500 32.7844 -34.9668 0.515 0.767 0.382 104 63 64 0
5.5053 35.3472 -33.2945 0.758 0.551 -0.349 94 37 41 0
5.5678 35.5504 -33.1292 0.425 0.893 0.151 94 35 39 0
5.2905 35.7287 -33.1053 0.338 0.874 0.348 95 36 40 0
5.2310 36.5182 -32.5731 0.569 0.210 0.795 100 40 42 0
5.4966 36.7331 -32.3254 0.660 0.196 0.725 100 40 40 0
4.9166 37.8841 -31.7296 0.851 0.101 0.515 106 39 42 0
4.8564 38.2757 -31.4768 0.693 0.599 0.400 106 40 41 0
4.6441 38.6599 -31.2847 0.888 0.369 0.273 109 42 44 0
4.5939 38.8548 -31.1662 0.943 -0.318 0.098 109 41 42 0
4.6352 39.2506 -30.8735 0.863 -0.461 0.206 113 43 43 0
4.3814 39.4371 -30.8352 0.891 -0.452 -0.039 115 43 43 0
4.4916 39.6383 -30.6539 0.891 -0.452 -0.039 119 46 45 0
4.1946 41.3951 -29.5297 0.604 -0.128 0.787 129 49 51 0
3.1218 42.7481 -28.9719 0.686 0.170 0.707 117 42 40 0
2.8882 42.9418 -28.9212 0.841 0.010 0.541 116 41 40 0
2.8597 43.1381 -28.7940 0.850 0.055 0.525 115 40 42 0
2.9195 43.3349 -28.6340 0.830 -0.409 0.379 116 42 46 0
2.8671 43.5308 -28.5158 0.978 -0.176 0.115 116 43 48 0
2.8772 43.7269 -28.3745 0.981 -0.135 0.137 116 42 47 0
1.8401 44.5117 -28.2023 0.496 -0.226 0.838 113 44 50 0
2.5012 44.7061 -27.8247 0.579 -0.554 0.599 112 45 51 0
2.3802 44.9024 -27.7311 0.740 -0.385 0.551 111 45 49 0
2.8081 45.2900 -27.3030 0.978 -0.148 -0.150 112 45 50 0
2.8614 45.4842 -27.1473 0.978 -0.148 -0.150 110 42 47 0
2.3253 45.8802 -27.0651 0.764 0.644 -0.033 114 43 49 0
2.2303 46.6612 -26.5519 0.841 -0.352 0.410 123 46 59 0
2.3604 46.8530 -26.3699 0.857 -0.301 0.419 124 46 60 0
2.3635 47.0471 -26.2326 0.845 -0.447 0.294 126 46 57 0
2.4123 47.2399 -26.0795 0.845 -0.447 0.294 128 49 58 0
2.4610 47.4324 -25.9267 0.845 -0.447 0.294 127 48 57 0
2.4090 47.8208 -25.6731 0.877 -0.292 0.381 126 51 59 0
1.2651 48.6340 -25.5200 0.857 -0.058 0.512 128 58 66 0
1.0056 49.2275 -25.1983 0.916 0.254 0.311 126 57 66 0
0.9743 49.4233 -25.0723 0.943 0.125 0.309 127 56 66 0
0.9212 49.6199 -24.9538 0.945 0.139 0.297 127 55 65 0
0.8281 50.0126 -24.7122 0.988 0.148 -0.034 121 43 51 0
1.8751 50.1560 -24.2296 0.866 -0.416 0.276 117 37 46 0
2.1143 50.3363 -24.0158 0.877 -0.428 0.216 119 37 45 0
2.1093 50.5283 -23.8829 0.790 -0.194 0.581 117 34 44 0
1.5680 51.3251 -23.5214 0.803 0.175 -0.569 112 26 36 0
0.4630 52.3553 -23.2018 0.434 0.764 0.477 109 24 32 0
-0.8331 55.5388 -21.4413 0.854 0.496 0.157 97 29 34 0
-1.3190 56.3542 -21.0465 0.868 0.456 0.195 85 29 32 0
-1.8633 58.3330 -19.8569 0.845 0.466 0.264 87 48 47 0
-3.8210 60.2995 -19.1915 0.138 0.659 0.740 180 161 148 0
-3.8911 61.2742 -18.5333 0.920 0.392 0.015 212 200 184 0
-3.3752 61.3974 -18.2586 0.660 0.738 0.141 212 200 184 0
-3.7430 61.6393 -18.2231 0.635 0.740 0.222 214 202 186 0
-8.2549 76.3789 -9.5284 0.786 -0.377 -0.489 208 195 178 0
-7.2950 80.4021 -6.3555 0.359 -0.449 0.818 207 193 175 0
-7.2734 80.5795 -6.2232 0.336 0.033 0.941 206 193 174 0
-7.3925 80.7959 -6.1148 0.237 0.121 0.964 207 194 174 0
-7.6212 81.0431 -6.0248 0.194 0.020 0.981 209 194 175 0
-7.9753 81.3261 -5.9555 0.201 0.018 0.979 203 187 168 0
-8.1848 81.5691 -5.8615 0.197 0.020 0.980 199 182 164 0
-8.1622 81.7466 -5.7287 0.497 -0.318 0.807 198 180 163 0
-8.1871 81.9375 -5.6039 0.481 -0.357 0.801 197 178 161 0
-7.7296 81.9900 -5.4001 0.868 -0.479 -0.131 196 178 160 0
-7.6729 82.1565 -5.2626 0.962 -0.010 0.274 196 177 160 0
-7.2381 82.2132 -5.0641 0.863 -0.471 -0.185 195 178 160 0
-7.3951 82.4408 -4.9617 0.934 -0.356 0.026 195 179 158 0
-10.1161 84.5300 -4.4889 0.384 -0.911 0.149 198 181 161 0
-9.8294 84.6282 -4.3154 0.625 -0.769 -0.136 199 182 162 0
6.3582 85.8085 2.4196 0.949 -0.300 -0.093 181 160 143 0
6.4133 85.9464 2.5364 0.949 -0.300 -0.093 178 159 142 0
6.4842 86.0783 2.6548 0.982 -0.182 0.048 114 102 92 0
6.5063 86.2274 2.7675 0.982 -0.182 0.048 51 50 51 0
6.5607 86.3648 2.8837 0.978 -0.201 -0.055 247 247 244 0
6.5966 86.5085 2.9976 0.978 -0.201 -0.055 254 255 254 0
6.6750 86.6366 3.1161 0.973 -0.231 -0.007 254 255 255 0
11.6314 3.4001 -53.7736 0.619 -0.699 -0.358 231 219 204 0
12.4855 3.9257 -53.0907 0.590 -0.770 -0.245 230 218 203 0
13.9308 17.2335 -43.2150 0.377 -0.826 0.420 232 223 206 0
6.0703 31.1189 -36.3521 0.252 0.839 0.481 204 186 170 0
5.4388 31.2510 -36.4914 0.179 0.818 0.546 153 130 117 0
6.5278 31.7712 -35.7261 0.937 -0.323 0.133 132 105 96 0
6.3450 33.1511 -34.8243 0.950 0.255 0.178 103 62 61 0
6.0869 33.3264 -34.7960 0.800 0.410 0.438 104 59 59 0
6.0386 33.5215 -34.6767 0.658 0.254 0.709 105 57 57 0
5.9016 33.7087 -34.5956 0.653 0.255 0.714 104 55 56 0
5.7940 33.8987 -34.5017 0.651 0.269 0.710 102 50 54 0
5.6930 34.0895 -34.4048 0.667 0.253 0.700 100 48 52 0
5.5425 34.2763 -34.3289 0.667 0.253 0.700 97 45 48 0
4.8818 34.6219 -34.3289 0.285 -0.256 0.924 91 39 41 0
5.7628 35.4877 -33.3973 0.414 0.886 0.206 97 38 43 0
5.6966 35.6811 -33.2858 0.420 0.885 0.200 95 36 42 0
5.2355 35.8467 -33.3390 0.340 0.877 0.341 95 36 42 0
5.4432 36.6541 -32.6957 0.584 0.228 0.779 100 40 42 0
5.6227 36.8631 -32.4830 0.661 0.225 0.716 100 40 41 0
5.0066 38.0121 -31.9025 0.907 0.216 0.360 105 40 42 0
4.6906 38.7860 -31.4751 0.926 0.254 0.281 105 37 40 0
4.6558 38.9817 -31.3505 0.943 -0.318 0.098 109 39 42 0
4.6274 39.3746 -31.0850 0.820 -0.545 0.176 116 45 47 0
4.6387 39.5719 -30.9423 0.807 -0.578 0.122 117 45 46 0
4.7473 39.7726 -30.7615 0.793 -0.587 0.164 120 45 46 0
4.4595 40.1552 -30.5985 0.596 0.476 0.647 132 50 53 0
3.8933 40.9244 -30.2664 0.809 0.135 0.572 127 39 43 0
4.1076 41.3229 -29.9078 0.746 -0.657 0.112 126 40 47 0
4.3268 41.7196 -29.5488 0.524 -0.103 0.845 125 45 47 0
4.2132 41.9127 -29.4549 0.524 -0.103 0.845 126 47 48 0
3.8936 42.1024 -29.4391 0.710 0.155 0.687 123 44 45 0
3.4884 42.6840 -29.1796 0.705 0.197 0.682 120 44 46 0
3.3077 42.8779 -29.1098 0.705 0.216 0.676 120 44 45 0
3.0569 43.0715 -29.0660 0.884 0.077 0.461 117 42 43 0
2.9283 43.2668 -28.9760 0.895 0.120 0.429 115 41 42 0
2.9158 43.4631 -28.8428 0.913 0.111 0.392 115 40 45 0
2.7856 43.6587 -28.7533 0.980 -0.095 0.176 117 42 49 0
2.8821 43.8553 -28.5798 0.981 -0.142 0.131 117 43 48 0
2.3536 44.4436 -28.3608 0.399 0.043 0.916 114 44 49 0
2.5488 45.0309 -27.8767 0.737 -0.459 0.497 114 47 54 0
2.7640 45.4197 -27.5246 0.797 -0.592 -0.122 108 42 49 0
2.9254 45.6128 -27.3298 0.975 0.024 -0.222 111 44 51 0
2.9540 45.8069 -27.1830 0.975 0.024 -0.222 114 45 53 0
2.4883 46.0079 -27.2129 0.781 0.602 -0.162 115 47 53 0
2.3250 46.7898 -26.7238 0.932 0.074 -0.355 120 45 58 0
2.5306 46.9796 -26.5150 0.923 -0.157 -0.351 126 51 63 0
2.6280 47.1713 -26.3447 0.923 -0.157 -0.351 128 52 63 0
2.7068 47.3629 -26.1811 0.941 0.116 -0.319 127 51 60 0
2.6204 47.5587 -26.0754 0.925 0.381 -0.004 130 54 62 0
1.3581 48.7631 -25.6934 0.824 0.188 0.534 132 63 71 0
1.2411 48.9620 -25.5967 0.828 0.197 0.525 128 61 70 0
1.0603 49.1637 -25.5214 0.804 0.403 0.437 126 58 67 0
0.9807 49.5562 -25.2751 0.956 0.242 0.166 123 50 61 0
0.9474 49.7521 -25.1498 0.914 0.331 0.236 121 47 57 0
0.8188 50.1467 -24.9199 0.990 0.112 -0.084 121 43 51 0
0.7665 50.3435 -24.8009 0.919 0.390 -0.055 118 38 47 0
2.1759 50.4656 -24.1974 0.938 -0.333 0.092 116 36 43 0
2.1486 50.6588 -24.0718 0.937 -0.217 0.272 115 33 42 0
1.3772 52.2378 -23.2464 0.787 0.385 -0.482 110 19 30 0
0.3252 52.4997 -23.4490 0.338 0.739 0.582 109 21 31 0
-0.7427 55.4761 -21.7512 0.823 0.515 0.240 99 26 34 0
-0.8782 55.6809 -21.6571 0.852 0.485 0.194 96 28 34 0
-1.2380 56.2926 -21.3598 0.871 0.449 0.200 86 27 31 0
-1.3461 56.4957 -21.2569 0.868 0.456 0.195 85 28 31 0
-0.7474 58.1568 -19.8705 0.319 0.645 0.694 84 44 43 0
-0.4005 58.6869 -19.3708 0.834 0.288 0.470 88 54 54 0
-3.6670 60.4233 -19.3515 0.232 0.642 0.730 170 150 139 0
-4.3047 60.6984 -19.3926 0.228 0.630 0.743 210 193 179 0
-3.4778 61.5547 -18.4875 0.640 0.753 0.154 212 200 184 0
-7.5028 79.6941 -7.2285 -0.054 -0.645 0.762 205 192 175 0
-7.2250 79.8033 -7.0498 -0.044 -0.662 0.748 205 192 175 0
-6.7868 80.0509 -6.7150 0.043 -0.788 0.614 208 193 175 0
-6.5576 80.5358 -6.2903 0.308 0.253 0.917 207 192 175 0
-6.9497 80.8277 -6.2293 0.314 0.246 0.917 208 193 175 0
-7.5621 81.1825 -6.2052 0.605 0.020 0.796 210 195 177 0
-7.4908 81.3457 -6.0643 0.260 -0.033 0.965 209 193 177 0
-7.7231 81.5948 -5.9747 0.475 -0.183 0.861 206 189 173 0
-7.8247 81.8072 -5.8630 0.567 -0.299 0.767 203 186 170 0
-7.9717 82.0327 -5.7586 0.550 -0.300 0.780 198 181 164 0
-8.0025 82.2250 -5.6349 0.571 -0.303 0.763 196 179 162 0
-7.8517 82.3646 -5.4814 0.697 -0.086 0.711 197 180 163 0
-7.5968 82.4735 -5.3113 0.933 -0.359 -0.011 198 181 163 0
-7.5438 82.6405 -5.1746 0.928 -0.373 0.002 198 182 162 0
-7.3772 82.7739 -5.0197 0.778 -0.623 0.089 197 182 161 0
-10.0125 84.6587 -4.6643 0.631 -0.768 -0.110 197 183 162 0
-9.5607 84.7064 -4.4648 0.831 -0.280 -0.480 198 182 162 0
-24.5991 89.6754 -6.4999 0.965 -0.246 0.090 196 177 161 0
-24.2056 89.7588 -6.2968 0.901 -0.378 0.215 196 177 162 0
-20.4087 90.5698 -4.3326 0.485 0.805 -0.340 190 175 154 0
-21.4060 91.0883 -4.3348 0.510 0.790 -0.340 190 175 154 0
6.3847 85.9417 2.2602 0.949 -0.300 -0.093 178 159 143 0
6.4398 86.0795 2.3772 0.949 -0.300 -0.093 176 157 141 0
6.5147 86.2099 2.4963 0.981 -0.188 0.044 114 102 92 0
6.5381 86.3586 2.6093 0.981 -0.188 0.044 51 50 51 0
6.6179 86.4867 2.7285 0.977 -0.207 -0.048 247 247 244 0
6.6540 86.6302 2.8426 0.977 -0.207 -0.048 254 255 254 0
6.6521 86.7874 2.9523 0.966 -0.259 0.009 254 255 255 0
7.3047 30.5748 -36.5760 0.569 0.439 0.696 227 219 200 0
6.0579 31.2362 -36.5722 0.249 0.829 0.501 197 179 164 0
6.5971 31.8971 -35.9083 0.937 -0.323 0.133 129 104 95 0
6.3860 32.4756 -35.5797 0.452 0.752 0.480 114 79 77 0
6.2493 32.6621 -35.4992 0.957 0.289 0.015 111 76 74 0
6.1805 33.2552 -35.1078 0.939 -0.204 0.278 105 64 62 0
6.0842 35.0382 -33.8903 0.557 -0.343 0.756 92 37 41 0
5.6193 35.2009 -33.9479 0.473 -0.541 0.696 93 36 42 0
5.1476 35.3645 -34.0074 0.035 -0.768 0.639 94 36 42 0
5.7083 35.6050 -33.6309 0.048 -0.738 0.673 95 37 44 0
6.3552 35.8497 -33.2197 0.129 -0.761 0.636 97 38 44 0
5.1976 35.9661 -33.5660 0.188 0.700 0.689 96 37 44 0
4.7166 38.9113 -31.6739 0.926 0.254 0.281 107 39 42 0
5.1342 39.3231 -31.2301 0.520 -0.832 0.192 115 43 46 0
4.7777 39.5051 -31.2340 0.940 -0.279 0.197 115 45 47 0
4.7825 39.7020 -31.0939 0.861 -0.508 0.010 117 44 47 0
4.8244 39.9000 -30.9392 0.911 -0.329 0.250 119 43 46 0
4.1806 40.6649 -30.6397 0.610 0.465 0.642 129 42 47 0
4.0831 40.8588 -30.5394 0.813 0.137 0.566 127 41 43 0
3.8554 41.2464 -30.3513 0.949 -0.092 0.303 125 37 46 0
4.1485 41.4500 -30.0998 0.798 -0.602 -0.013 126 39 48 0
4.0992 42.0369 -29.7055 0.597 -0.025 0.802 125 44 48 0
4.0557 42.2318 -29.5846 0.605 -0.033 0.795 123 43 46 0
4.3514 42.4319 -29.3346 0.375 0.164 0.912 125 46 51 0
4.1168 42.6237 -29.2866 0.310 0.160 0.937 125 47 52 0
3.0642 43.1996 -29.2710 0.952 0.024 0.305 118 44 45 0
3.0001 43.3956 -29.1571 0.939 0.141 0.314 118 43 45 0
2.9667 43.5918 -29.0315 0.934 0.148 0.324 118 43 48 0
2.8976 43.7878 -28.9193 0.926 0.078 0.368 120 45 50 0
3.0752 43.9844 -28.7155 0.979 -0.199 0.033 120 46 50 0
2.9166 44.1800 -28.6366 0.789 -0.591 0.166 118 47 51 0
2.8116 44.3760 -28.5377 0.743 -0.447 0.498 113 44 48 0
2.5389 44.5726 -28.5004 0.353 0.072 0.933 118 48 53 0
2.5366 44.7687 -28.3634 0.442 0.062 0.895 116 46 54 0
2.8923 44.9626 -28.0956 0.767 -0.307 0.563 113 44 52 0
2.7968 45.1586 -27.9931 0.742 -0.361 0.565 113 46 53 0
3.0264 45.9354 -27.3623 0.962 -0.273 -0.009 118 51 58 0
2.4359 46.1388 -27.4377 0.971 0.227 -0.079 117 50 58 0
2.3653 46.9195 -26.9151 0.912 -0.194 -0.362 124 52 64 0
2.5299 47.1102 -26.7202 0.915 -0.186 -0.358 133 61 72 0
2.6370 47.3015 -26.5461 0.915 -0.186 -0.358 133 61 70 0
2.7438 47.4924 -26.3725 0.915 -0.186 -0.358 127 56 64 0
2.6831 47.6876 -26.2577 0.837 0.538 -0.095 134 62 69 0
2.3352 48.0852 -26.1070 0.479 0.447 0.755 142 74 81 0
2.2274 48.2823 -26.0082 0.498 0.447 0.742 143 76 83 0
1.7458 48.6869 -25.9020 0.838 0.407 0.364 137 68 76 0
1.5860 48.8871 -25.8204 0.830 0.412 0.376 137 68 76 0
1.3394 49.0910 -25.7683 0.905 0.336 0.260 133 64 72 0
0.9800 49.6896 -25.4805 0.940 0.329 0.091 122 50 59 0
0.9281 49.8865 -25.3613 0.939 0.330 0.101 121 46 56 0
0.8177 50.0862 -25.2618 0.942 0.331 0.060 120 43 53 0
0.6905 50.2868 -25.1678 0.910 0.411 -0.059 120 42 52 0
1.1301 52.3884 -23.5282 0.790 0.378 -0.483 113 20 32 0
0.4527 52.6265 -23.6114 0.384 0.699 0.604 110 21 33 0
-0.5431 55.4035 -22.0279 0.772 0.600 0.209 98 22 32 0
-0.7659 55.6162 -21.9608 0.885 0.128 0.447 98 26 34 0
-0.5477 58.6535 -19.7454 0.894 -0.158 0.418 86 50 51 0
-0.5032 58.8381 -19.5992 0.884 -0.107 0.454 88 54 54 0
-4.0445 60.8088 -19.5237 0.251 0.606 0.755 207 189 176 0
-3.9333 61.7607 -18.8136 0.604 0.757 0.249 212 200 184 0
-7.6135 79.8796 -7.4401 -0.123 -0.487 0.865 205 192 175 0
-6.7929 79.8408 -7.1640 -0.092 -0.489 0.867 205 192 176 0
-5.3462 79.6280 -6.7785 -0.134 -0.623 0.770 206 192 175 0
-5.2570 79.7847 -6.6354 -0.120 -0.615 0.779 208 192 176 0
-7.0554 81.3783 -6.1804 0.260 -0.033 0.965 207 193 176 0
-7.4033 81.6601 -6.1110 0.488 -0.176 0.855 210 194 179 0
-7.5141 81.8748 -6.0011 0.507 -0.386 0.771 209 193 178 0
-7.6639 82.1009 -5.8976 0.505 -0.352 0.788 204 188 172 0
-7.6897 82.2915 -5.7732 0.483 -0.286 0.828 201 185 169 0
-7.6297 82.4570 -5.6347 0.667 -0.100 0.738 200 183 167 0
-7.3913 82.5701 -5.4670 0.939 -0.342 -0.036 200 183 167 0
-7.4117 82.7584 -5.3422 0.764 -0.638 0.094 199 184 165 0
-7.3685 82.9278 -5.2072 0.767 -0.639 0.063 199 184 163 0
-7.1284 83.0387 -5.0405 0.961 -0.276 -0.026 198 183 162 0
-9.6561 84.8950 -4.6705 0.814 -0.333 -0.476 195 180 161 0
-24.9564 89.9629 -6.7669 0.799 0.197 -0.569 195 177 162 0
-23.9955 89.8713 -6.4759 0.910 -0.363 0.200 195 176 162 0
-20.9956 90.7345 -4.7599 0.487 0.826 -0.283 190 175 156 0
-22.8634 91.9350 -4.6069 0.631 0.646 -0.429 190 175 156 0
6.4557 86.0591 2.1060 0.971 -0.238 -0.011 178 159 143 0
6.4697 86.2115 2.2182 0.945 -0.316 -0.079 177 158 141 0
6.5468 86.3411 2.3378 0.981 -0.188 0.044 115 103 94 0
6.5655 86.4914 2.4504 0.984 -0.166 0.064 50 50 51 0
6.6187 86.6291 2.5668 0.979 -0.201 -0.045 247 247 244 0
6.7009 86.7559 2.6864 0.964 -0.266 -0.010 254 255 254 0
6.7715 86.8867 2.8044 0.961 -0.276 -0.031 254 255 255 0
7.4372 30.7074 -36.7292 0.566 0.448 0.692 229 221 201 0
6.0840 31.3580 -36.7753 0.242 0.816 0.524 192 175 159 0
6.7033 32.0268 -36.0742 0.922 -0.364 0.134 130 106 96 0
6.2804 32.7846 -35.6986 0.974 0.211 -0.082 112 77 75 0
6.4892 33.0046 -35.4661 0.985 -0.022 -0.174 112 72 72 0
6.1699 33.1741 -35.4657 0.998 -0.053 -0.034 108 67 68 0
6.2773 35.1740 -34.0189 0.576 -0.345 0.741 92 39 43 0
5.3800 36.1009 -33.7009 0.114 0.652 0.750 97 37 45 0
4.5862 37.0450 -33.3323 0.451 0.886 0.105 99 36 41 0
4.2590 37.2250 -33.3275 0.452 0.886 0.103 102 38 42 0
4.0076 37.8099 -33.0096 0.851 0.256 -0.459 105 38 40 0
4.8102 39.0398 -31.8457 0.800 0.056 0.597 109 41 43 0
5.3885 39.4574 -31.3366 0.520 -0.832 0.192 113 42 45 0
4.8531 39.6326 -31.4127 0.940 -0.279 0.197 114 42 46 0
5.3018 39.8459 -31.0956 0.564 0.447 0.695 117 43 47 0
5.2052 40.0383 -30.9963 0.471 0.582 0.663 120 43 47 0
4.2389 40.7924 -30.8255 0.662 0.406 0.630 130 43 50 0
4.1399 40.9864 -30.7259 0.729 0.455 0.511 127 40 45 0
3.7505 41.3703 -30.6008 0.970 0.142 0.199 126 38 49 0
3.6567 41.5652 -30.4986 0.952 0.193 0.239 127 40 50 0
3.9836 41.7690 -30.2336 0.859 0.508 0.061 127 41 50 0
4.1835 41.9691 -30.0184 0.823 -0.506 -0.257 128 43 51 0
4.3714 42.1682 -29.8084 0.823 -0.506 -0.257 127 45 51 0
3.9708 42.3572 -29.8245 0.831 -0.506 -0.232 124 43 47 0
4.4410 42.5597 -29.5071 0.955 0.126 0.268 125 45 50 0
4.3245 42.9481 -29.2772 0.760 0.265 0.593 123 44 48 0
3.0990 43.5246 -29.3279 0.946 0.157 0.285 119 46 46 0
3.0939 43.7209 -29.1917 0.957 0.174 0.231 119 44 47 0
3.5018 43.9181 -28.9011 0.612 -0.448 0.652 122 47 52 0
3.5382 44.1135 -28.7501 0.433 -0.309 0.847 124 50 54 0
3.4461 44.3086 -28.6472 0.427 -0.305 0.851 121 50 54 0
2.8687 44.7008 -28.5862 0.362 0.056 0.930 121 51 57 0
3.0552 45.0908 -28.2425 0.779 -0.245 0.578 117 48 56 0
3.0027 45.2863 -28.1245 0.625 -0.463 0.629 118 49 57 0
2.8106 45.4832 -28.0574 0.829 0.528 0.183 117 50 57 0
2.9113 45.6772 -27.8835 0.687 -0.535 0.492 115 49 56 0
2.9535 45.8715 -27.7311 0.687 -0.535 0.492 121 56 62 0
3.0995 46.0639 -27.5414 0.862 -0.323 0.392 124 57 64 0
2.3033 47.0518 -27.1429 0.887 -0.254 -0.386 130 63 72 0
2.5709 47.4340 -26.7744 0.888 -0.055 -0.457 139 71 78 0
2.6296 47.6263 -26.6173 0.917 -0.186 -0.352 138 69 77 0
2.5412 47.8226 -26.5121 0.839 0.540 -0.074 143 75 81 0
2.4669 48.2122 -26.2657 0.479 0.447 0.755 145 81 87 0
2.4012 48.4080 -26.1524 0.497 0.459 0.736 146 83 88 0
2.3903 48.6018 -26.0201 0.561 0.725 0.400 145 81 86 0
1.8947 49.0076 -25.9192 0.747 0.659 -0.084 141 75 82 0
1.7265 49.2082 -25.8407 0.747 0.659 -0.084 137 69 76 0
1.4767 49.4126 -25.7899 0.659 0.739 0.140 132 62 70 0
1.2489 49.6167 -25.7311 0.624 0.761 0.178 127 56 64 0
1.0146 50.2106 -25.4006 0.970 0.203 0.136 118 41 51 0
0.9570 50.4077 -25.2834 0.970 0.203 0.136 117 39 49 0
1.6761 50.5647 -24.9052 0.895 0.246 -0.373 114 34 46 0
1.2124 50.9757 -24.7888 0.766 0.612 -0.197 114 30 40 0
0.7360 51.1958 -24.8112 0.990 0.001 -0.141 112 26 37 0
0.8852 52.5397 -23.8104 0.790 0.378 -0.483 113 20 33 0
0.5058 52.7584 -23.7978 0.384 0.699 0.604 111 22 35 0
-0.5402 55.5411 -22.2297 0.785 0.580 0.216 98 22 32 0
-0.7060 56.5182 -21.6041 0.750 -0.661 0.018 87 26 31 0
-0.4613 56.6856 -21.3952 0.827 -0.519 -0.217 86 27 31 0
-1.3579 58.3133 -20.5840 0.248 0.571 0.783 81 40 40 0
-3.7908 60.9197 -19.6562 0.238 0.580 0.779 201 183 171 0
-4.3862 61.9676 -19.1407 0.789 0.609 0.082 212 200 184 0
-5.6306 79.8595 -7.0179 -0.111 -0.462 0.880 205 191 176 0
-3.9635 79.5804 -6.5936 -0.120 -0.616 0.779 207 190 175 0
-4.5593 79.9251 -6.5729 -0.028 -0.598 0.801 209 192 176 0
-7.1876 81.5718 -6.3931 0.480 -0.404 0.778 206 193 176 0
-7.2236 81.7649 -6.2706 0.480 -0.404 0.778 207 194 178 0
-7.2880 81.9663 -6.1529 0.488 -0.397 0.777 206 194 178 0
-7.4092 82.1840 -6.0448 0.492 -0.303 0.816 206 192 176 0
-7.4618 82.3821 -5.9251 0.468 -0.303 0.830 205 189 174 0
-7.4745 82.5685 -5.7987 0.630 -0.107 0.769 199 183 168 0
-7.5007 82.7588 -5.6746 0.936 -0.253 0.245 198 182 167 0
-7.3918 82.9092 -5.5282 0.972 -0.164 0.167 198 182 166 0
-7.3326 83.0739 -5.3904 0.974 -0.190 0.121 198 183 164 0
-9.7011 85.0687 -4.8689 0.814 -0.333 -0.476 195 180 161 0
-25.3710 91.2955 -6.3221 0.883 -0.121 -0.454 194 176 162 0
-24.0684 91.2908 -5.8405 0.906 -0.345 0.245 192 176 160 0
-22.3397 91.5416 -5.0205 0.459 0.875 -0.152 191 175 158 0
-23.6158 92.3573 -4.9218 0.675 0.602 -0.428 190 175 157 0
-22.7945 92.2895 -4.6638 0.706 0.409 -0.578 189 174 156 0
6.5321 86.1747 1.9524 0.981 -0.188 0.044 179 160 143 0
6.5005 86.3433 2.0593 0.945 -0.316 -0.079 177 158 142 0
6.5799 86.4720 2.1793 0.984 -0.166 0.064 114 102 92 0
6.5979 86.6226 2.2919 0.984 -0.166 0.064 50 49 50 0
6.6693 86.7536 2.4107 0.967 -0.245 -0.072 247 247 244 0
6.7062 86.8968 2.5252 0.974 -0.226 -0.007 254 255 254 0
6.7678 87.0308 2.6424 0.974 -0.226 -0.014 254 255 255 0
23.8622 3.2228 -50.2211 0.262 -0.380 0.887 232 219 202 0
7.8163 29.4679 -37.7558 0.806 0.309 -0.504 234 225 208 0
6.7249 30.7425 -37.2674 0.947 -0.212 -0.242 228 220 199 0
6.0677 31.4752 -36.9977 0.220 0.803 0.553 191 176 158 0
6.8509 32.1608 -36.2215 0.895 -0.434 0.102 132 108 98 0
6.4407 32.9196 -35.8410 0.493 0.759 0.424 111 77 73 0
6.4684 33.1221 -35.6880 0.968 0.134 -0.214 112 74 72 0
6.1321 33.2905 -35.6955 0.899 -0.386 -0.209 110 69 68 0
5.9223 35.2678 -34.3820 0.601 -0.655 0.458 94 41 44 0
6.0971 36.0740 -33.7489 0.162 -0.006 0.987 95 37 44 0
5.1686 37.2032 -33.3017 0.116 -0.511 0.852 100 38 42 0
4.5639 37.5659 -33.2730 0.045 0.218 0.975 104 38 42 0
3.8131 37.9243 -33.3020 0.874 0.189 -0.448 105 37 41 0
5.3241 38.5957 -32.2630 0.585 0.384 0.714 108 42 45 0
4.9233 39.1690 -32.0096 0.800 0.056 0.597 109 43 46 0
5.4975 39.5857 -31.5010 0.484 -0.823 0.298 112 42 45 0
5.0236 39.7637 -31.5533 0.896 -0.212 0.391 115 43 46 0
5.4614 39.9760 -31.2398 0.481 0.412 0.774 113 41 44 0
5.2834 40.1654 -31.1731 0.467 0.553 0.690 118 42 47 0
4.3106 40.9203 -31.0062 0.668 0.404 0.625 126 39 47 0
4.1282 41.1122 -30.9394 0.563 0.525 0.639 126 39 46 0
3.8875 42.0903 -30.3410 0.727 -0.188 -0.660 131 45 54 0
4.3615 42.2945 -30.0196 0.733 -0.173 -0.658 129 45 52 0
3.9926 42.4845 -30.0240 0.831 -0.506 -0.232 127 45 51 0
4.4788 42.6867 -29.6994 0.967 0.098 0.237 127 47 51 0
4.3344 43.0751 -29.4801 0.859 0.339 0.385 126 48 50 0
3.0975 43.6531 -29.5367 0.838 0.231 0.494 120 46 47 0
3.1228 43.8495 -29.3889 0.960 0.156 0.232 119 44 48 0
3.4962 44.0464 -29.1104 0.690 -0.534 0.489 124 49 53 0
3.6304 44.2418 -28.9225 0.624 -0.482 0.615 124 51 57 0
3.1827 44.8286 -28.6771 0.440 0.719 0.538 120 51 56 0
2.8435 45.0261 -28.6652 0.628 0.698 0.344 120 50 57 0
3.0253 45.2203 -28.4603 0.908 0.419 0.007 120 53 60 0
2.9280 45.4165 -28.3587 0.828 0.531 0.181 126 58 66 0
2.7761 45.6134 -28.2769 0.829 0.528 0.183 127 60 67 0
2.9163 45.8069 -28.0881 0.755 -0.575 -0.314 128 61 68 0
3.1555 45.9984 -27.8637 0.755 -0.575 -0.314 128 61 68 0
3.2314 46.1915 -27.6992 0.867 -0.480 -0.132 130 64 72 0
2.2339 47.1845 -27.3739 0.877 -0.257 -0.407 146 81 89 0
2.3527 47.9595 -26.7837 0.858 0.503 -0.102 158 96 101 0
2.3552 48.3475 -26.5097 0.617 0.393 0.682 151 90 95 0
2.5235 48.5353 -26.3144 0.497 0.459 0.736 148 89 92 0
1.8829 48.9465 -26.2649 0.708 0.689 0.155 157 96 99 0
1.6747 49.1488 -26.2004 0.706 0.691 0.157 153 89 93 0
1.4113 49.5485 -26.0177 0.661 0.738 0.138 140 69 76 0
0.7208 51.3314 -25.0212 0.993 -0.118 -0.003 115 25 40 0
0.5812 51.5337 -24.9311 0.868 -0.062 -0.493 112 24 39 0
0.6933 51.7209 -24.7573 0.868 -0.062 -0.493 112 24 38 0
0.7932 52.2951 -24.3156 0.803 0.175 -0.569 116 24 38 0
0.7586 52.8764 -23.9193 0.399 0.653 0.643 110 19 34 0
-0.9937 56.3001 -22.1654 0.444 0.208 0.872 90 26 31 0
-1.0902 56.5024 -22.0591 0.539 0.248 0.805 87 25 30 0
-1.0317 56.6893 -21.9056 0.859 0.201 0.472 86 25 32 0
-0.5074 57.0204 -21.4760 0.871 -0.441 -0.219 85 28 33 0
-0.0839 57.1677 -21.2136 0.836 0.397 0.380 83 28 33 0
-0.7597 57.4297 -21.2823 0.417 0.237 0.877 82 29 34 0
-1.0129 57.6484 -21.2233 0.415 0.239 0.878 82 31 35 0
-1.9765 58.7163 -20.8325 0.375 0.423 0.825 85 43 44 0
-3.6032 61.0390 -19.8067 0.219 0.571 0.791 194 176 163 0
-3.7395 61.8298 -19.3010 0.669 0.356 0.653 210 200 183 0
-4.2607 79.6350 -6.9602 -0.104 -0.491 0.865 206 189 176 0
-2.8359 79.4193 -6.5781 -0.127 -0.587 0.799 207 189 174 0
-4.2237 80.3430 -6.4478 0.329 -0.135 0.935 208 191 175 0
-5.7910 80.9661 -6.5965 0.354 0.675 0.647 206 191 175 0
-6.3907 81.3180 -6.5734 0.338 -0.080 0.938 205 192 175 0
-6.5542 81.5468 -6.4736 0.361 -0.071 0.930 204 192 176 0
-6.9940 81.8552 -6.4213 0.469 -0.401 0.787 204 192 176 0
-7.0326 82.0489 -6.2994 0.469 -0.401 0.787 204 192 176 0
-7.1273 82.2589 -6.1870 0.492 -0.303 0.816 205 191 176 0
-7.1644 82.4521 -6.0648 0.442 -0.307 0.843 205 191 176 0
-7.0802 82.6098 -5.9223 0.464 -0.089 0.882 205 190 175 0
-7.4293 82.8947 -5.8525 0.529 -0.070 0.845 201 186 171 0
-7.3215 83.0453 -5.7061 0.987 0.044 0.152 199 183 167 0
-7.6567 83.3271 -5.6333 0.518 0.126 0.846 197 181 165 0
-25.9980 91.6735 -6.6301 0.884 -0.039 -0.465 191 176 161 0
-25.4719 91.7120 -6.4058 0.900 -0.232 -0.370 191 175 160 0
-24.7860 91.6980 -6.1587 0.878 -0.246 -0.411 191 175 158 0
-23.9468 92.2397 -5.4628 0.477 0.860 -0.180 188 173 155 0
-24.0877 92.6898 -5.1987 0.675 0.602 -0.428 189 173 157 0
2.9043 85.9890 0.1986 0.635 0.760 -0.138 185 167 148 0
3.2082 86.6983 0.8118 0.561 -0.619 0.550 184 167 145 0
6.5643 86.3061 1.7934 0.981 -0.188 0.044 181 159 141 0
6.5313 86.4753 1.9002 0.945 -0.316 -0.079 179 158 140 0
6.5870 86.6124 2.0176 0.945 -0.316 -0.079 114 102 92 0
6.6304 86.7538 2.1334 0.984 -0.166 0.064 51 50 50 0
6.6915 86.8885 2.2511 0.967 -0.245 -0.072 247 247 246 0
6.7156 87.0364 2.3643 0.970 -0.243 -0.010 254 255 255 0
6.7357 87.1856 2.4768 0.971 -0.239 0.008 254 255 255 0
6.5473 30.6385 -37.7060 0.951 -0.183 -0.251 229 221 201 0
6.8167 30.8711 -37.4404 1.000 -0.012 0.018 228 220 199 0
6.5091 32.0439 -36.7300 0.787 -0.608 -0.100 139 118 104 0
6.9620 32.2909 -36.3851 0.920 -0.365 0.147 132 107 97 0
6.4075 33.0361 -36.0691 0.969 -0.108 -0.222 111 78 73 0
6.5929 33.2535 -35.8460 0.961 -0.162 -0.222 113 75 72 0
6.0665 33.4046 -35.9380 0.820 -0.537 -0.199 113 73 71 0
6.3461 33.6302 -35.6736 0.912 -0.322 0.254 111 67 66 0
6.7361 34.2619 -35.0814 0.327 -0.122 0.937 108 60 60 0
6.5314 34.4433 -35.0308 0.445 -0.269 0.854 114 66 66 0
6.4924 34.6387 -34.9077 0.440 -0.269 0.857 110 62 62 0
6.3046 34.8223 -34.8492 0.323 -0.120 0.939 99 50 50 0
6.0128 34.9981 -34.8354 0.293 -0.078 0.953 96 46 47 0
6.0661 35.4000 -34.5320 0.660 -0.643 0.389 96 43 46 0
6.0697 35.5989 -34.3906 0.468 -0.829 0.306 95 42 47 0
6.3180 36.0130 -34.0050 0.732 -0.574 0.367 93 40 46 0
6.6739 36.2351 -33.7143 0.845 -0.218 0.488 95 39 45 0
6.1272 36.3955 -33.8075 0.252 0.047 0.967 96 36 43 0
5.9246 36.5800 -33.7539 0.254 0.048 0.966 96 35 43 0
5.9437 37.3716 -33.1888 0.570 -0.253 0.782 102 38 43 0
5.9890 37.5714 -33.0310 0.702 0.008 0.712 103 39 43 0
5.0363 37.7159 -33.2885 0.050 0.204 0.978 103 37 42 0
5.1630 38.5145 -32.6779 0.857 0.057 0.513 104 38 42 0
5.2521 38.7161 -32.5022 0.702 -0.371 0.608 105 40 44 0
6.1854 39.7362 -31.4313 0.413 -0.877 0.246 111 42 45 0
4.5190 41.0519 -31.1328 0.791 0.604 0.091 126 39 47 0
3.3894 42.0115 -30.8827 0.774 0.202 -0.600 131 44 53 0
3.8555 42.2168 -30.5621 0.736 -0.178 -0.653 131 45 54 0
4.1186 42.4174 -30.3215 0.739 -0.179 -0.649 133 47 55 0
4.0264 42.6121 -30.2191 0.829 -0.511 -0.226 133 49 56 0
4.3742 42.8122 -29.9469 0.963 0.025 0.269 134 52 57 0
3.5354 43.9792 -29.4409 0.749 -0.638 0.180 124 48 53 0
3.6740 44.1749 -29.2507 0.698 -0.525 0.488 125 50 55 0
3.4233 44.7612 -28.9321 0.457 0.735 0.501 121 52 57 0
3.2023 44.9577 -28.8770 0.438 0.725 0.531 122 53 58 0
2.9406 45.1550 -28.8367 0.560 0.723 0.404 125 55 63 0
2.9831 45.3502 -28.6831 0.913 0.409 0.007 126 59 66 0
3.0635 45.5448 -28.5157 0.733 0.552 0.397 129 62 69 0
2.7461 45.7438 -28.4952 0.970 0.066 0.232 131 64 71 0
2.9316 45.9366 -28.2893 0.755 -0.575 -0.314 131 64 71 0
3.1675 46.1280 -28.0655 0.755 -0.571 -0.323 129 63 70 0
3.2737 46.3206 -27.8897 0.759 -0.591 -0.275 129 64 72 0
2.1677 47.3175 -27.6043 0.877 -0.252 -0.410 160 97 105 0
2.2434 48.0946 -27.0282 0.859 0.504 -0.093 165 104 109 0
2.3073 48.4809 -26.7318 0.587 -0.027 0.809 155 96 100 0
1.8061 49.0821 -26.4973 0.706 0.691 0.157 159 100 102 0
1.5936 49.2851 -26.4344 0.706 0.691 0.157 159 97 100 0
1.3300 50.0744 -25.9776 0.782 0.613 0.113 126 53 62 0
0.7017 51.4675 -25.2328 0.997 -0.036 -0.073 114 24 41 0
0.4495 51.6768 -25.1805 0.868 -0.062 -0.493 111 23 39 0
0.5173 51.8669 -25.0209 0.862 -0.011 -0.507 109 22 38 0
0.4895 52.2568 -24.7567 0.802 0.161 -0.575 112 23 39 0
0.5681 52.4454 -24.5941 0.802 0.161 -0.575 115 22 38 0
0.8675 52.6185 -24.3591 0.881 0.064 -0.469 116 21 37 0
0.9058 52.8088 -24.2107 0.891 0.111 -0.441 114 21 36 0
1.0378 52.9921 -24.0317 0.394 0.514 0.762 110 20 35 0
1.0720 53.1819 -23.8850 0.497 0.311 0.810 108 20 34 0
0.6660 53.4042 -23.8815 0.567 0.011 0.823 108 21 34 0
0.5292 53.6072 -23.7900 0.567 0.011 0.823 107 22 35 0
-0.2301 56.1728 -22.2685 0.704 -0.040 0.709 92 26 33 0
-0.3327 56.3747 -22.1650 0.665 -0.208 0.718 90 26 31 0
-0.8035 56.6132 -22.1745 0.471 0.233 0.851 86 24 30 0
-0.5614 56.9731 -21.8295 0.946 -0.218 0.239 87 26 33 0
-0.3744 57.1455 -21.6375 0.950 -0.208 0.231 86 28 34 0
-0.1039 57.3083 -21.4207 0.823 0.442 0.356 85 28 34 0
-0.2677 57.5165 -21.3358 0.695 0.548 0.466 84 30 34 0
-0.7864 57.7636 -21.3574 0.492 0.474 0.730 83 31 35 0
-0.7982 57.9563 -21.2260 0.675 0.461 0.576 84 34 37 0
-1.0102 58.1713 -21.1544 0.701 0.387 0.600 82 33 36 0
