ply
format ascii 1.0
element vertex 848
property float x
property float y
property float z
property float nx
property float ny
property float nz
property uchar diffuse_red
property uchar diffuse_green
property uchar diffuse_blue
property uchar class
end_header
5.2161 42.1105 -26.8635 0.675 -0.020 0.738 131 56 43 0
5.1934 42.3254 -26.7903 0.733 0.315 0.603 126 51 39 0
5.1116 42.5438 -26.7358 0.594 -0.504 0.627 124 49 38 0
5.0253 48.5193 -24.5159 0.576 0.779 0.248 106 37 42 0
2.2449 52.7252 -23.8759 0.382 -0.922 0.070 86 27 33 0
3.7073 53.5896 -23.0545 0.504 0.823 0.261 84 27 30 0
-6.7193 60.2337 -24.0906 0.155 0.844 0.513 215 194 185 0
-10.7287 61.6994 -24.8990 0.174 0.817 0.549 211 198 183 0
-2.7905 72.1762 -18.2626 0.470 0.115 0.875 209 199 179 0
-21.3767 87.8447 -18.6698 0.341 0.724 0.599 199 187 171 0
-22.7261 88.5809 -18.8505 0.401 0.719 0.568 199 187 171 0
-23.7321 89.1975 -18.9597 0.386 0.732 0.561 199 187 171 0
-18.3717 89.2217 -17.1321 0.116 -0.674 0.729 200 181 164 0
-15.3621 88.5720 -16.3557 0.927 0.263 0.267 199 181 161 0
-16.3127 99.9735 -12.3866 0.962 0.167 -0.216 181 164 139 0
-16.3471 100.2280 -12.3025 0.934 0.180 -0.310 181 165 139 0
-16.3660 100.4755 -12.2157 0.934 0.180 -0.310 181 164 140 0
9.7897 90.7621 -6.9991 0.416 0.150 0.897 176 156 138 0
19.5432 -6.3168 -40.4620 0.974 -0.227 -0.002 255 255 255 0
19.5306 -6.1218 -40.3929 0.971 -0.240 -0.002 135 135 136 0
19.5857 -5.9001 -40.2906 0.971 -0.240 -0.002 71 63 58 0
19.6506 -5.6748 -40.1836 0.984 -0.177 0.009 232 212 192 0
19.6552 -5.4735 -40.1062 0.983 -0.183 0.015 234 213 194 0
-3.7027 23.8779 -37.0275 0.860 0.465 0.211 232 224 205 0
-1.9213 27.5026 -35.0545 0.931 -0.026 0.365 102 59 61 0
2.3379 27.9985 -33.4138 0.703 -0.645 0.298 101 56 59 0
6.3955 33.3999 -29.9948 0.398 -0.515 0.759 114 43 44 0
9.2991 35.3300 -28.2768 0.793 -0.385 0.472 118 41 38 0
9.8602 36.1596 -27.7729 0.860 -0.510 -0.008 115 40 33 0
6.7208 37.6615 -28.2790 0.821 -0.554 0.139 117 49 42 0
6.6782 38.0868 -28.1334 0.810 0.413 0.416 112 45 39 0
6.4262 38.3047 -28.1374 0.828 0.422 0.370 110 42 37 0
6.2819 38.5209 -28.1053 0.822 0.406 0.400 110 43 40 0
5.3022 42.3994 -26.9793 0.731 0.284 0.621 122 50 38 0
5.3640 42.6094 -26.8791 0.656 -0.572 0.493 118 45 36 0
6.1105 47.8538 -24.6495 0.365 0.909 -0.203 103 36 43 0
4.8527 49.0488 -24.6289 0.909 0.115 0.400 105 36 40 0
4.6591 49.2837 -24.6065 0.962 0.060 0.266 102 33 37 0
4.6248 49.5008 -24.5364 0.881 -0.397 -0.256 102 33 38 0
3.7036 53.0379 -23.5190 0.829 -0.105 0.549 85 26 32 0
-6.5039 60.2941 -24.2712 0.155 0.845 0.511 213 191 183 0
-8.3587 60.8773 -24.6847 0.160 0.850 0.502 212 193 182 0
-10.5156 61.7627 -25.0876 0.171 0.811 0.559 210 198 182 0
-3.2632 72.4195 -18.5991 0.376 0.169 0.911 207 199 178 0
-2.6458 73.5658 -17.9567 0.653 0.735 0.185 207 195 179 0
-20.2306 88.8075 -18.2202 0.041 -0.779 0.626 200 186 169 0
16.4816 88.1986 -5.9172 0.759 -0.596 -0.262 173 155 135 0
19.5513 -6.2798 -40.6760 0.974 -0.227 -0.002 255 255 255 0
19.5394 -6.0844 -40.6065 0.971 -0.240 -0.002 135 135 136 0
19.5946 -5.8626 -40.5040 0.971 -0.240 -0.002 72 63 58 0
19.6594 -5.6372 -40.3968 0.984 -0.177 0.009 232 213 193 0
19.6799 -5.4295 -40.3115 0.983 -0.184 0.015 235 214 194 0
-2.4493 23.3666 -37.0657 0.992 0.028 -0.122 234 226 207 0
-2.4449 23.5995 -36.9764 0.992 0.028 -0.122 233 224 205 0
-2.6112 23.8165 -36.9518 0.984 0.118 -0.135 234 223 205 0
3.3379 28.7940 -33.0333 0.921 -0.327 0.212 99 49 50 0
6.2676 34.7551 -29.7814 0.747 -0.441 0.498 119 43 42 0
9.4900 35.1948 -28.5088 0.786 -0.305 0.537 113 37 36 0
9.5181 35.4028 -28.4208 0.770 -0.327 0.547 114 37 35 0
9.4131 35.6107 -28.3785 0.741 -0.403 0.537 114 38 36 0
7.7415 36.8762 -28.4760 0.813 -0.556 0.173 107 35 32 0
7.7782 37.0865 -28.3842 0.830 -0.531 0.168 109 39 36 0
7.8883 37.2956 -28.2677 0.830 -0.531 0.168 114 45 41 0
6.8217 38.1598 -28.3085 0.830 0.338 0.443 109 39 39 0
6.5975 38.3772 -28.3036 0.801 0.417 0.429 107 37 37 0
5.5800 42.6769 -27.0334 0.656 -0.454 0.603 121 46 41 0
5.6202 44.3785 -26.3786 0.928 0.039 0.371 130 56 56 0
5.3905 44.6087 -26.3708 0.938 -0.007 0.347 129 55 53 0
4.5903 51.5092 -24.0463 0.897 0.185 0.401 88 27 32 0
3.8346 53.1080 -23.7037 0.829 -0.105 0.549 85 26 32 0
3.6757 53.5593 -23.5882 0.553 -0.561 0.615 88 29 35 0
6.5733 53.7557 -22.5189 0.752 0.166 0.638 83 31 34 0
-8.3730 60.9826 -24.9307 0.156 0.862 0.483 211 193 182 0
-9.8791 61.5068 -25.2506 0.174 0.864 0.473 211 196 181 0
-12.9718 62.3447 -25.9973 0.132 0.858 0.497 210 197 181 0
-8.1692 61.6446 -24.6113 0.894 0.102 0.437 211 199 183 0
0.5379 70.5668 -18.2594 0.612 0.698 0.371 209 199 182 0
-2.0138 71.9463 -18.6163 0.514 0.222 0.829 207 199 180 0
-6.6950 75.3411 -18.9455 0.826 0.534 -0.182 205 193 177 0
-21.9438 93.0878 -17.4985 0.672 0.740 -0.044 194 177 161 0
-22.6558 93.8714 -17.4479 0.682 0.731 -0.028 192 173 158 0
-13.9255 93.7291 -14.5026 0.428 0.865 0.261 187 171 146 0
15.0646 83.6111 -8.3556 0.681 -0.731 -0.047 185 167 145 0
10.5430 91.0088 -7.1222 0.329 0.058 0.943 173 155 133 0
19.5794 -6.2348 -40.8804 0.977 -0.212 -0.020 255 255 255 0
19.5493 -6.0466 -40.8199 0.978 -0.210 -0.004 135 135 136 0
19.5968 -5.8277 -40.7210 0.978 -0.210 -0.004 71 62 57 0
19.6601 -5.6027 -40.6143 0.988 -0.156 -0.004 230 211 191 0
19.6760 -5.3967 -40.5312 0.985 -0.170 -0.010 233 212 193 0
-2.5222 22.9647 -37.5163 0.962 -0.080 -0.262 235 227 208 0
-2.4788 23.6673 -37.2365 0.992 0.028 -0.122 233 223 205 0
-3.8808 24.2409 -37.5050 0.855 0.148 0.497 232 221 203 0
6.3719 34.6158 -30.0515 0.743 -0.417 0.523 113 37 37 0
6.3805 34.8298 -29.9678 0.757 -0.416 0.504 112 37 38 0
6.4327 35.0439 -29.8691 0.757 -0.416 0.504 112 36 37 0
6.7071 35.2585 -29.6934 0.787 -0.310 0.533 111 35 35 0
6.9957 37.1716 -28.8727 0.858 -0.102 0.504 107 39 39 0
6.9178 37.3850 -28.8192 0.773 0.119 0.623 111 45 42 0
6.6594 37.6016 -28.8269 0.729 0.179 0.660 110 45 43 0
6.7463 37.8127 -28.7173 0.768 0.132 0.627 110 44 42 0
6.9470 38.0211 -28.5694 0.778 -0.371 0.507 109 42 41 0
6.9086 38.2341 -28.5024 0.709 -0.284 0.646 108 38 39 0
8.9300 41.1030 -26.7226 0.376 -0.402 0.835 115 44 37 0
8.9035 41.3120 -26.6530 0.397 -0.332 0.856 115 45 38 0
5.8408 42.7416 -27.1729 0.880 0.215 0.423 121 45 43 0
5.6949 44.4546 -26.5778 0.845 0.055 0.532 133 59 60 0
5.4918 44.6828 -26.5620 0.925 0.008 0.379 133 59 58 0
4.9637 51.1220 -24.3180 0.946 -0.323 0.013 88 26 31 0
4.8195 51.5662 -24.2004 0.740 0.076 0.669 90 29 34 0
3.9833 53.1755 -23.8830 0.822 -0.109 0.559 85 26 32 0
-8.1366 61.0400 -25.1086 0.158 0.863 0.480 211 192 181 0
-10.1892 61.6708 -25.5804 0.157 0.862 0.482 209 194 179 0
-8.4297 73.4380 -20.5378 0.624 0.523 0.581 208 199 182 0
8.7529 74.1719 -14.3221 0.954 0.270 0.130 202 190 176 0
-22.8959 92.8383 -18.2273 0.772 0.567 -0.289 197 181 165 0
12.4658 85.4298 -8.7963 0.496 0.662 0.562 186 165 146 0
12.1544 85.7595 -8.7797 0.544 0.573 0.613 186 165 146 0
11.1068 86.4201 -8.8928 0.410 0.454 0.791 186 165 146 0
10.1562 87.4296 -8.8410 0.789 0.344 0.510 186 166 144 0
9.7709 87.7992 -8.8349 0.475 0.538 0.696 184 166 142 0
5.4405 92.7997 -8.4473 0.842 -0.017 -0.539 174 157 133 0
12.0609 89.8105 -7.2854 0.212 0.090 0.973 175 159 134 0
19.5825 -6.1998 -41.0975 0.977 -0.212 -0.020 255 255 255 0
19.5553 -6.0102 -41.0355 0.974 -0.228 -0.014 135 135 136 0
19.6037 -5.7908 -40.9359 0.978 -0.210 -0.004 71 63 58 0
19.6649 -5.5666 -40.8301 0.988 -0.156 -0.004 231 211 192 0
19.6801 -5.3606 -40.7472 0.985 -0.170 -0.010 233 214 194 0
-3.2437 22.9638 -38.0422 0.832 0.554 0.008 235 227 208 0
0.2141 24.6739 -36.1949 0.972 0.232 0.037 232 221 203 0
6.5777 29.9755 -31.9830 0.828 0.180 0.530 106 55 54 0
7.4100 31.9339 -30.9552 0.710 0.055 0.702 102 43 46 0
7.8280 32.7954 -30.4851 0.772 -0.495 0.399 101 39 44 0
7.0521 35.7589 -29.6378 0.684 -0.543 0.487 107 32 36 0
7.0828 35.9714 -29.5470 0.962 -0.271 0.025 106 32 35 0
7.0383 36.8216 -29.2419 0.908 0.335 0.254 103 32 36 0
6.9490 37.0351 -29.1925 0.992 0.105 0.072 102 34 37 0
6.3170 42.7930 -27.2417 0.867 0.289 0.406 120 42 42 0
6.2795 43.0076 -27.1738 0.868 0.321 0.378 118 42 42 0
6.3581 43.2148 -27.0684 0.829 -0.371 0.417 117 41 41 0
6.1834 43.6507 -26.9648 0.916 0.088 0.391 119 43 41 0
5.8064 44.3150 -26.8455 0.885 0.097 0.455 121 46 49 0
5.9281 44.5187 -26.7264 0.921 0.067 0.384 125 51 54 0
6.7656 45.5105 -26.0612 0.929 0.036 0.368 118 43 48 0
5.7437 46.0215 -26.2240 0.294 0.470 0.832 116 42 49 0
6.6627 47.8369 -25.2200 0.345 0.938 -0.035 109 44 50 0
5.6588 50.4838 -24.5713 0.792 0.306 -0.528 90 24 31 0
5.3404 51.1599 -24.4271 0.982 -0.055 0.183 89 27 32 0
4.8802 51.6455 -24.4041 0.733 0.027 0.679 91 30 35 0
-3.8724 56.2365 -25.7176 -0.141 0.184 0.973 82 31 35 0
-7.8813 61.0935 -25.2808 0.159 0.864 0.477 211 194 183 0
-9.8925 61.7176 -25.7450 0.159 0.863 0.480 208 194 179 0
-12.2750 62.4215 -26.3083 0.134 0.855 0.501 209 196 180 0
-12.7038 62.9893 -26.2434 0.242 0.460 0.855 212 200 185 0
-18.1111 79.2892 -21.9792 0.981 -0.144 -0.131 205 193 177 0
8.7564 74.2722 -14.5261 0.951 0.277 0.135 202 190 176 0
-18.4960 86.0917 -19.5486 0.454 0.106 0.884 198 186 170 0
-18.6149 86.3806 -19.4811 0.449 0.084 0.890 197 185 169 0
-23.1649 93.0780 -18.5388 0.788 0.543 -0.290 198 182 167 0
0.8958 89.8494 -11.3876 0.774 0.059 0.631 185 167 146 0
12.3907 85.3793 -9.0748 0.405 0.590 0.699 185 166 148 0
11.3902 86.2089 -9.1101 0.414 0.517 0.749 187 166 148 0
10.9175 86.6138 -9.1219 0.431 0.525 0.734 186 165 148 0
9.8285 87.6883 -9.0955 0.745 0.309 0.591 186 166 145 0
9.6083 87.9838 -9.0607 0.650 0.468 0.599 184 166 142 0
9.4203 88.2653 -9.0200 0.776 0.376 0.507 182 163 139 0
18.9390 88.7431 -5.5292 0.774 -0.588 -0.236 255 255 255 0
19.5856 -6.1646 -41.3149 0.977 -0.212 -0.020 255 255 255 0
19.5632 -5.9731 -41.2505 0.978 -0.210 -0.004 135 135 136 0
19.6107 -5.7539 -41.1512 0.978 -0.210 -0.004 72 63 58 0
19.6698 -5.5303 -41.0463 0.988 -0.156 -0.004 231 211 192 0
19.6772 -5.3273 -40.9671 0.986 -0.168 0.009 233 214 194 0
-2.9186 23.0670 -38.1662 0.595 0.742 0.309 235 227 208 0
-0.3314 26.7545 -35.8701 0.348 -0.935 0.064 117 83 81 0
8.4949 33.3044 -30.3111 0.720 -0.651 0.238 108 41 45 0
8.8385 33.5215 -30.1090 0.819 -0.529 0.223 109 39 43 0
8.0816 33.7192 -30.2993 0.311 -0.573 0.759 126 53 58 0
8.0381 34.1415 -30.1553 0.765 -0.203 0.611 113 37 41 0
8.0920 34.3535 -30.0565 0.312 -0.166 0.935 113 35 40 0
7.0889 35.4075 -30.0100 0.798 -0.511 0.319 110 35 40 0
7.1502 35.6204 -29.9083 0.787 -0.574 0.226 107 32 36 0
7.3636 35.8326 -29.7536 0.790 -0.517 0.329 105 32 35 0
7.2556 36.6822 -29.4710 0.928 0.303 0.216 104 36 38 0
7.0624 36.8965 -29.4578 0.907 0.335 0.256 104 35 38 0
7.4882 39.6405 -28.2739 0.656 -0.307 0.690 115 40 44 0
7.7167 39.8433 -28.1175 0.476 -0.142 0.868 116 41 44 0
6.2868 42.8749 -27.4745 0.988 0.102 0.116 121 43 43 0
6.2775 43.5128 -27.2373 0.975 0.136 0.176 121 43 43 0
6.2074 43.7299 -27.1799 0.916 0.100 0.388 123 46 46 0
6.1469 44.5837 -26.8791 0.950 -0.105 0.294 123 47 51 0
6.9102 45.5801 -26.2362 0.933 0.020 0.359 121 46 51 0
4.7596 46.8344 -26.5158 0.803 0.500 -0.324 119 51 54 0
5.4011 48.0522 -25.8320 0.309 0.940 -0.143 107 40 47 0
5.3118 48.4874 -25.6991 0.387 0.885 -0.258 104 37 44 0
4.1358 49.0443 -25.9007 0.388 0.890 -0.240 101 36 42 0
5.3334 51.0356 -24.7306 0.810 -0.051 0.584 93 29 35 0
5.3570 51.2447 -24.6434 0.981 -0.046 0.190 89 27 32 0
4.6223 52.6208 -24.3816 0.691 0.710 0.136 87 26 33 0
4.2955 53.3081 -24.2368 0.922 -0.106 0.372 87 28 34 0
1.9844 54.3010 -24.6711 -0.011 0.329 0.944 83 25 31 0
1.0279 54.8852 -24.7855 -0.040 0.356 0.934 83 27 32 0
-7.6640 61.1541 -25.4630 0.159 0.864 0.477 212 196 184 0
-9.6304 61.7708 -25.9186 0.160 0.864 0.478 209 196 181 0
-5.7242 61.4688 -24.6655 -0.001 0.270 0.963 211 199 183 0
-12.3131 63.0181 -26.3870 0.247 0.458 0.854 212 200 184 0
-12.6409 63.5675 -26.2945 0.087 0.579 0.811 213 201 185 0
-15.7792 76.4986 -22.5160 0.119 0.070 0.990 207 198 181 0
-17.1990 78.3923 -22.2987 0.824 -0.566 0.034 207 195 179 0
-18.1269 79.4164 -22.2372 0.981 -0.144 -0.131 205 193 177 0
-17.3064 85.3083 -19.7281 0.523 0.094 0.847 199 187 171 0
-17.4569 85.6063 -19.6684 0.523 0.094 0.847 199 187 171 0
-17.4349 85.8437 -19.5711 0.437 0.150 0.887 199 187 171 0
-23.2965 95.0411 -18.1538 0.668 0.741 -0.074 192 176 161 0
-14.9933 93.6153 -15.7858 0.877 -0.172 0.449 188 173 151 0
-15.3599 94.0072 -15.7663 0.921 -0.062 0.385 188 173 150 0
-15.4216 94.2725 -15.6878 0.775 -0.047 0.630 187 172 149 0
-11.6246 92.9137 -14.8715 0.438 0.844 0.309 186 171 148 0
-15.8146 95.1574 -15.4916 0.206 0.503 0.839 187 170 147 0
0.7448 90.2448 -11.5494 0.808 0.028 0.589 184 166 144 0
13.6738 84.7268 -9.1059 0.521 0.661 0.540 184 166 146 0
12.6297 85.3802 -9.2248 0.414 0.584 0.698 186 166 148 0
11.7489 85.9643 -9.3128 0.368 0.595 0.714 185 167 147 0
8.0286 89.2127 -9.3896 0.366 0.175 0.914 181 162 141 0
18.8459 88.8954 -5.7238 0.905 -0.386 -0.177 255 255 255 0
19.5332 -6.1516 -41.5606 0.961 -0.273 -0.039 255 255 255 0
19.5669 -5.9375 -41.4680 0.967 -0.253 -0.010 136 136 136 0
19.6177 -5.7169 -41.3669 0.978 -0.210 -0.004 70 62 57 0
19.6766 -5.4933 -41.2618 0.978 -0.209 -0.023 228 210 190 0
19.6882 -5.2884 -41.1804 0.985 -0.170 -0.010 231 213 192 0
3.4659 2.3796 -43.9994 0.619 -0.245 0.747 234 218 191 0
-3.0250 23.3620 -38.3687 0.686 0.688 0.237 235 227 208 0
0.3561 26.8751 -35.8528 0.377 -0.926 0.026 117 82 81 0
8.0313 33.3671 -30.7010 0.597 -0.308 0.741 111 40 46 0
8.2707 33.5831 -30.5353 0.694 -0.169 0.700 111 38 43 0
8.2493 33.7941 -30.4632 0.694 -0.169 0.700 113 36 42 0
8.1680 34.2156 -30.3328 0.765 -0.174 0.620 113 35 40 0
8.2446 34.4278 -30.2258 0.861 -0.008 0.509 113 34 39 0
8.6510 35.4835 -29.6844 0.527 0.503 0.685 110 35 39 0
8.4424 35.6938 -29.6785 0.527 0.503 0.685 104 31 37 0
7.3729 36.7560 -29.6543 0.827 -0.444 0.345 104 35 39 0
7.1129 36.9712 -29.6647 0.933 0.283 0.223 104 35 40 0
7.6789 39.4999 -28.5114 0.682 -0.211 0.700 117 41 47 0
7.5917 39.7139 -28.4613 0.641 -0.381 0.666 116 41 47 0
6.4363 42.7335 -27.7289 0.995 -0.087 -0.056 132 56 52 0
6.5457 42.9391 -27.6129 0.986 -0.114 -0.119 123 46 44 0
6.1180 44.0297 -27.3520 0.608 0.380 0.697 130 51 55 0
5.4681 51.1050 -24.9115 0.810 -0.051 0.584 94 29 34 0
5.4011 51.3259 -24.8517 0.981 -0.046 0.190 91 30 33 0
5.4724 51.5286 -24.7502 0.912 0.157 0.379 88 28 31 0
4.5670 52.7172 -24.6205 0.707 0.702 0.087 86 25 32 0
1.6382 54.6637 -24.9174 0.011 0.403 0.915 82 25 31 0
-7.4173 61.2089 -25.6366 0.151 0.859 0.490 211 196 184 0
-9.4568 61.8412 -26.1161 0.151 0.859 0.490 209 197 181 0
-5.8347 61.5925 -24.9346 0.021 0.288 0.957 209 198 180 0
-12.6404 63.1909 -26.7279 0.228 0.581 0.781 209 200 180 0
-16.9919 78.4509 -22.5029 0.833 -0.551 0.037 205 195 179 0
-17.0723 78.7216 -22.4290 0.826 -0.564 0.005 204 194 179 0
-18.4104 79.3777 -22.6527 0.858 -0.514 -0.005 204 194 178 0
-18.1814 79.5558 -22.5048 0.982 -0.132 -0.136 204 194 178 0
8.1092 74.8945 -15.0064 0.939 0.342 -0.029 201 190 172 0
-17.2649 86.1551 -19.6924 0.436 0.160 0.885 198 186 170 0
-18.5316 86.8538 -19.8748 0.261 0.207 0.943 197 185 169 0
-16.1976 90.6252 -17.6301 0.981 -0.111 0.160 194 180 166 0
-22.9136 93.7577 -18.8130 0.588 0.777 -0.224 193 181 167 0
-23.3653 95.2059 -18.4257 0.737 0.674 -0.055 193 179 166 0
-24.6206 95.9678 -18.5803 0.731 0.679 0.059 193 180 167 0
-24.2778 96.0843 -18.4156 0.821 0.405 -0.402 194 181 168 0
-12.8003 92.1262 -15.8676 0.439 0.326 0.837 187 175 157 0
-13.0493 92.4645 -15.8277 0.266 0.565 0.781 186 175 155 0
-14.1596 93.1610 -15.9558 0.268 0.571 0.776 186 173 152 0
-15.9081 94.3678 -16.1162 0.957 -0.166 0.239 187 172 149 0
-18.2359 95.5863 -16.4761 0.943 -0.267 0.198 187 172 149 0
0.8806 90.3029 -11.7384 0.808 0.028 0.589 185 167 147 0
13.5760 84.8762 -9.3156 0.490 0.673 0.555 185 167 147 0
12.8460 85.3909 -9.3784 0.475 0.680 0.559 186 166 147 0
12.2332 85.8557 -9.4189 0.396 0.608 0.688 185 165 146 0
8.0346 89.1244 -9.6640 0.321 -0.333 0.887 182 165 142 0
13.9050 89.2481 -7.5503 0.081 -0.005 0.997 175 157 132 0
13.3358 90.0900 -7.4332 0.026 -0.179 0.983 176 156 131 0
19.5742 -5.9005 -41.6840 0.967 -0.253 -0.010 135 135 136 0
19.6247 -5.6798 -41.5828 0.978 -0.210 -0.004 70 63 57 0
19.6873 -5.4547 -41.4757 0.976 -0.219 -0.015 228 211 191 0
19.7383 -5.2343 -41.3744 0.976 -0.219 -0.015 230 214 192 0
0.2965 25.1202 -36.8055 0.964 0.265 -0.015 230 219 201 0
6.5411 28.8910 -33.1701 0.499 -0.061 0.865 100 54 56 0
6.3156 29.0944 -33.1732 0.441 -0.355 0.824 97 51 52 0
6.0884 30.3803 -32.7683 0.995 -0.045 -0.087 100 45 49 0
7.9210 33.4371 -30.9654 0.994 -0.021 0.105 108 38 42 0
8.3252 34.2900 -30.5003 0.771 -0.173 0.613 114 35 40 0
8.2832 34.5008 -30.4357 0.890 0.002 0.456 114 35 40 0
8.1504 34.7110 -30.4034 0.972 -0.148 0.183 112 33 39 0
8.3694 34.9238 -30.2455 0.928 -0.152 -0.341 112 34 40 0
8.4427 35.5566 -29.9807 0.996 -0.037 -0.083 106 32 38 0
8.4713 35.9778 -29.8116 0.544 0.263 0.797 102 32 39 0
8.6780 36.1874 -29.6593 0.372 -0.654 0.659 104 34 40 0
8.8180 36.3965 -29.5307 0.372 -0.654 0.659 107 38 43 0
7.3937 36.8308 -29.8714 0.760 -0.601 0.248 103 34 39 0
9.6126 38.4725 -28.4657 0.587 -0.097 0.804 104 37 42 0
9.1122 39.5282 -28.2445 0.347 -0.933 0.097 116 41 48 0
6.5159 43.0211 -27.8460 0.988 -0.115 -0.107 129 50 49 0
6.3221 44.0963 -27.5089 0.645 0.391 0.657 126 45 52 0
6.1491 44.3215 -27.4852 0.636 0.402 0.658 127 48 54 0
5.4679 51.1919 -25.1334 0.816 -0.028 0.577 93 29 34 0
5.0945 51.8795 -25.0062 0.893 -0.040 0.448 86 27 30 0
4.3300 53.4816 -24.6724 0.904 -0.152 0.399 82 21 28 0
4.4351 53.6796 -24.5604 0.561 -0.827 0.033 81 20 27 0
3.6859 54.0072 -24.7022 0.696 0.717 -0.033 84 23 30 0
3.3368 54.2758 -24.7245 0.694 0.720 -0.031 84 24 31 0
8.1449 53.7422 -23.2225 0.668 -0.039 0.743 84 25 31 0
7.9535 53.9792 -23.2009 0.440 -0.616 0.654 83 24 30 0
-0.3365 56.6154 -25.1428 0.131 0.740 0.660 83 35 35 0
-0.3883 56.8457 -25.0742 0.759 0.285 -0.586 83 38 36 0
-7.1067 61.2510 -25.7917 0.146 0.848 0.509 212 196 184 0
-12.2031 63.2100 -26.8578 0.229 0.579 0.783 208 199 177 0
-11.1885 63.4844 -26.3948 0.101 0.624 0.775 211 200 179 0
-11.9384 63.8793 -26.5114 0.073 0.589 0.805 212 203 182 0
-13.0693 74.0207 -23.0845 0.734 0.020 0.679 211 199 187 0
-14.6501 74.9483 -23.2944 0.210 -0.249 0.945 210 196 185 0
-19.9784 78.2196 -23.9473 0.555 -0.798 0.234 210 195 180 0
-17.0711 78.5961 -22.7753 0.834 -0.551 0.016 204 195 180 0
-16.9375 78.8019 -22.6503 0.834 -0.551 0.016 203 194 179 0
-16.3556 78.8695 -22.4186 0.917 -0.339 0.211 202 193 178 0
-9.6411 79.1405 -19.9376 0.798 -0.473 -0.374 199 189 177 0
-9.1290 79.6705 -19.5562 0.901 -0.289 -0.325 199 189 177 0
-6.8057 79.1324 -18.9362 0.739 -0.466 -0.486 200 191 176 0
-24.4475 95.0124 -19.1926 0.682 0.680 -0.269 192 179 165 0
-24.4756 95.7917 -18.9084 0.691 0.722 0.005 192 179 166 0
-24.4714 96.3018 -18.7145 0.797 0.317 -0.513 191 179 167 0
-15.9362 94.2708 -16.4573 0.223 0.469 0.855 188 173 152 0
-17.5546 95.1903 -16.6836 0.063 0.224 0.973 187 172 151 0
-19.5057 104.8580 -13.7260 0.268 0.387 0.882 176 161 135 0
19.5430 -6.0796 -41.9956 0.962 -0.268 -0.044 255 255 255 0
19.5816 -5.8634 -41.9002 0.967 -0.253 -0.010 135 135 136 0
19.7013 -5.4147 -41.6881 0.973 -0.229 -0.005 228 211 191 0
19.7538 -5.1936 -41.5860 0.973 -0.229 -0.005 230 214 192 0
-5.2611 -3.3375 -49.8011 0.057 -0.857 0.512 230 215 191 0
-7.1091 8.2302 -46.0922 0.608 -0.727 0.319 234 226 207 0
0.2376 24.9576 -37.1580 0.964 0.263 0.040 231 220 202 0
0.1736 25.6374 -36.9241 0.996 0.092 0.008 225 211 194 0
6.1855 29.1572 -33.4523 0.965 -0.105 0.240 96 50 51 0
6.1458 29.3716 -33.3855 0.970 -0.135 0.202 97 51 50 0
5.8591 30.0076 -33.2476 0.775 -0.469 0.425 101 50 53 0
6.2113 30.2405 -33.0341 0.958 0.172 -0.231 99 47 51 0
6.4269 30.8977 -32.7092 0.889 -0.455 0.046 99 43 49 0
6.5489 31.1180 -32.5825 0.380 -0.208 0.901 101 45 52 0
6.5992 31.7657 -32.3200 0.631 0.436 0.641 101 45 48 0
8.3349 34.3627 -30.7208 0.928 0.288 0.235 115 37 43 0
8.3488 34.5742 -30.6360 0.960 0.227 0.163 114 36 42 0
8.8718 36.2601 -29.8130 0.498 -0.712 0.495 107 36 44 0
9.1373 36.4681 -29.6399 0.372 -0.654 0.659 108 37 45 0
7.5910 36.9038 -30.0265 0.676 -0.560 0.478 106 37 42 0
6.8855 37.1249 -30.1945 1.000 -0.025 0.008 103 34 39 0
10.1169 38.5346 -28.5105 0.764 -0.127 0.632 107 42 46 0
9.8660 40.2000 -27.9711 0.358 -0.545 0.759 118 42 52 0
6.8943 40.9562 -28.7448 0.589 0.803 -0.093 114 43 48 0
6.5004 43.1024 -28.0748 0.988 -0.115 -0.107 129 49 51 0
-2.1234 47.5194 -29.4809 -0.071 0.551 0.831 126 56 62 0
-0.8898 48.9768 -28.4910 0.339 0.929 -0.150 115 48 56 0
5.2681 49.1745 -26.2214 0.279 0.955 0.101 103 33 43 0
2.1870 50.3998 -26.8570 0.631 0.675 -0.381 95 26 38 0
5.4652 52.5533 -24.8755 0.639 -0.363 -0.678 84 23 28 0
4.3811 53.5635 -24.8805 0.920 -0.087 0.382 83 23 28 0
8.7294 53.5321 -23.3425 0.964 -0.233 0.125 83 24 30 0
8.2751 53.8091 -23.3998 0.726 -0.116 0.678 83 25 31 0
0.6700 56.3202 -25.1624 0.223 0.833 0.507 83 34 34 0
-6.9438 61.3216 -25.9878 0.145 0.851 0.504 211 194 182 0
-11.9309 63.2620 -27.0327 0.229 0.575 0.785 209 198 176 0
-10.5188 63.4531 -26.4572 0.101 0.624 0.775 211 200 178 0
-3.4039 62.6640 -24.2192 0.477 -0.352 0.805 212 204 185 0
-19.5806 78.4765 -24.0147 0.555 -0.798 0.234 209 195 182 0
-16.9176 78.6709 -22.9922 0.779 -0.606 0.159 203 194 179 0
-16.7757 78.8740 -22.8649 0.793 -0.575 0.201 203 194 179 0
-16.2939 78.9718 -22.6563 0.910 -0.354 0.216 202 193 178 0
-4.1821 81.7219 -17.3009 0.741 0.502 -0.446 198 186 173 0
-4.0158 81.8847 -17.1802 0.769 0.404 -0.496 197 185 172 0
-15.9942 91.0463 -17.9905 0.957 0.288 0.022 192 180 164 0
-15.8015 91.2118 -17.8593 0.824 0.564 -0.049 192 180 165 0
-11.9677 91.8045 -16.2691 0.062 -0.608 0.792 193 181 168 0
-13.8102 93.2755 -16.3704 0.129 0.373 0.919 190 177 160 0
-15.6269 94.2733 -16.6412 0.031 0.224 0.974 191 176 159 0
-16.5267 94.8920 -16.7283 0.042 0.231 0.972 190 175 157 0
-23.5813 98.3650 -17.9314 0.151 0.493 0.857 188 171 154 0
-23.1499 99.9530 -17.1781 0.699 0.306 0.646 185 166 150 0
-23.1920 100.2241 -17.0907 0.711 0.321 0.625 186 167 149 0
-16.0882 103.1141 -13.4676 0.545 0.450 0.707 175 158 133 0
-18.8495 104.6836 -13.8592 0.269 0.392 0.880 175 159 133 0
19.5522 -6.0419 -42.2115 0.967 -0.255 -0.021 255 255 255 0
19.5889 -5.8262 -42.1169 0.967 -0.253 -0.010 135 135 136 0
19.7330 -5.3677 -41.8920 0.962 -0.273 0.004 228 211 191 0
19.7289 -5.1687 -41.8183 0.976 -0.216 0.003 230 214 192 0
1.2629 -2.7300 -47.5189 0.782 -0.299 0.547 232 218 191 0
1.8920 -2.3018 -47.1316 0.912 -0.153 0.381 231 217 190 0
1.6169 24.9197 -36.9484 0.972 0.032 -0.235 232 221 203 0
6.0051 29.2176 -33.7514 0.903 -0.418 -0.096 98 52 52 0
5.9172 29.6472 -33.6207 0.906 0.368 -0.208 99 51 51 0
6.4097 29.8881 -33.3530 0.671 0.192 0.716 98 49 51 0
8.2739 30.6166 -32.4094 0.988 -0.021 0.156 96 44 47 0
6.2683 30.7465 -33.0795 0.876 -0.482 -0.027 96 43 46 0
6.3983 30.9678 -32.9493 0.630 -0.765 0.135 100 45 50 0
6.5259 31.8352 -32.5760 0.642 0.436 0.630 100 42 48 0
8.2990 34.4351 -30.9581 0.814 0.464 0.349 114 37 45 0
8.2193 34.6460 -30.9070 0.828 0.445 0.342 112 36 43 0
8.5851 35.9143 -30.2968 0.862 0.085 0.499 106 34 38 0
9.4429 36.7484 -29.6742 0.696 -0.165 0.699 110 39 45 0
7.8143 36.9763 -30.1721 0.697 -0.559 0.450 110 39 45 0
6.9348 37.2000 -30.4030 1.000 -0.019 0.012 104 34 40 0
10.0864 38.6101 -28.7402 0.639 -0.142 0.756 110 45 49 0
10.1944 38.8144 -28.6243 0.643 -0.097 0.759 110 45 49 0
7.1330 41.6599 -28.6473 0.965 0.218 0.143 114 42 46 0
6.1966 41.9217 -28.8842 0.887 -0.175 0.427 116 43 47 0
6.4781 42.1198 -28.7085 0.892 -0.211 0.401 118 43 46 0
6.5366 43.1806 -28.2868 0.997 -0.075 -0.014 129 49 54 0
6.5537 43.3921 -28.2008 0.997 -0.075 -0.014 130 48 54 0
6.4266 43.8260 -28.0825 0.893 -0.206 0.400 129 43 50 0
6.4378 44.0379 -27.9984 0.893 -0.206 0.400 126 42 50 0
6.4490 44.2497 -27.9144 0.893 -0.206 0.400 128 46 53 0
6.4336 44.4634 -27.8392 0.893 -0.195 0.406 129 48 55 0
5.7883 45.1526 -27.8103 0.652 0.376 -0.659 133 52 58 0
4.3833 46.5610 -27.7822 0.559 0.662 -0.498 129 56 63 0
3.5481 49.8902 -26.8242 0.761 0.604 -0.237 97 26 40 0
6.0562 52.3456 -24.9973 0.913 0.117 -0.391 83 20 28 0
5.4868 52.8506 -25.0108 0.641 -0.369 -0.673 83 22 28 0
8.3496 53.6779 -23.6717 0.958 -0.262 0.119 80 23 29 0
-0.9809 57.1374 -25.7108 0.758 0.271 -0.593 82 36 37 0
-6.7352 61.3832 -26.1706 0.145 0.856 0.497 210 191 181 0
-2.9099 71.8449 -20.8474 0.989 -0.058 -0.134 208 196 184 0
-14.4044 76.5703 -23.1844 0.825 -0.316 -0.468 206 194 181 0
-18.2500 78.2027 -23.9468 0.547 -0.543 0.637 206 194 180 0
-18.6416 78.5694 -23.9487 0.538 -0.821 0.193 207 195 181 0
-16.7432 78.9856 -23.1107 0.809 -0.578 0.108 202 193 178 0
-16.0317 91.1910 -18.2455 0.957 0.288 0.022 191 179 163 0
-16.0718 91.4490 -18.1624 0.828 0.558 -0.060 191 179 163 0
-16.2307 91.9969 -18.0125 0.764 0.638 -0.099 190 178 162 0
-16.6774 92.4188 -18.0132 0.742 0.647 -0.179 191 179 163 0
-10.8277 91.6945 -16.1892 0.100 -0.580 0.809 192 179 167 0
-14.6499 93.9954 -16.6907 0.041 0.221 0.974 191 177 162 0
-15.1464 94.4435 -16.6995 0.055 0.218 0.974 191 177 162 0
-23.2149 100.8811 -17.1613 0.969 0.003 0.246 185 167 147 0
11.8305 87.5161 -9.6424 0.062 -0.213 0.975 177 164 142 0
-12.9500 101.5088 -13.2432 0.426 0.614 0.665 177 160 135 0
-19.1034 105.1920 -14.0586 0.247 0.398 0.883 175 158 132 0
11.3578 91.3959 -8.3464 0.794 -0.509 -0.333 173 155 133 0
19.5279 -6.0173 -42.4447 0.945 -0.328 -0.013 255 255 255 0
19.5963 -5.7890 -42.3338 0.967 -0.253 -0.010 135 135 136 0
18.0608 -5.1709 -42.6542 0.954 -0.289 0.078 233 215 193 0
2.0774 -2.8929 -47.5596 0.965 -0.259 0.052 234 218 193 0
1.7637 -2.7587 -47.6220 0.937 -0.126 0.324 233 217 192 0
2.0388 -2.4403 -47.4025 0.901 -0.193 0.389 231 217 191 0
1.9914 -2.2227 -47.3374 0.912 -0.153 0.381 229 215 188 0
6.1456 29.2954 -33.9293 0.937 -0.345 -0.055 99 52 52 0
5.8818 29.7161 -33.8655 0.796 0.409 -0.446 97 48 49 0
5.5571 30.5713 -33.6595 0.907 0.172 -0.384 95 43 46 0
7.0190 31.2782 -32.8650 0.789 0.125 0.602 101 44 50 0
6.9580 32.1356 -32.5630 0.742 -0.084 0.665 104 44 48 0
8.4733 34.0866 -31.2792 0.850 -0.527 0.020 107 36 40 0
8.3961 34.5089 -31.1475 0.825 0.436 0.361 111 36 44 0
8.3036 34.7197 -31.1012 0.822 0.438 0.365 107 32 40 0
8.6848 35.7771 -30.5641 0.663 -0.727 0.180 107 34 39 0
8.8831 35.9872 -30.4132 0.643 -0.745 0.177 107 34 39 0
9.7384 36.8192 -29.7903 0.742 0.216 0.635 109 38 46 0
-8.5108 49.7402 -31.4915 0.890 0.442 0.113 116 46 56 0
5.4977 52.7251 -25.3099 0.907 -0.400 0.127 81 17 26 0
5.5722 52.9266 -25.2069 0.907 -0.400 0.127 80 18 26 0
7.7000 53.6585 -24.1627 0.845 0.535 0.003 80 22 27 0
-6.6728 61.4734 -26.3950 0.138 0.868 0.476 207 189 178 0
-10.7454 63.7131 -27.0179 0.259 0.900 0.351 211 200 181 0
-3.5186 72.5744 -21.0624 0.999 0.017 -0.036 207 196 183 0
-18.7443 78.7230 -24.2320 0.462 -0.876 0.135 206 194 180 0
18.4621 69.7466 -14.2012 0.239 0.848 0.473 200 190 179 0
-2.8510 81.2533 -17.5422 0.812 -0.508 -0.288 198 186 174 0
-11.8692 92.7230 -16.4617 0.178 0.390 0.904 191 177 164 0
-15.0241 94.7634 -16.8289 0.124 0.345 0.930 193 178 163 0
-21.1810 97.6235 -17.9693 0.163 0.501 0.850 194 178 163 0
17.1275 88.8409 -7.4677 0.634 -0.771 -0.066 175 154 134 0
19.6037 -5.7517 -42.5510 0.967 -0.253 -0.010 135 135 136 0
19.6620 -5.5275 -42.4451 0.971 -0.239 -0.012 70 63 58 0
18.0690 -5.1320 -42.8738 0.958 -0.271 0.091 234 216 195 0
1.8469 -2.9174 -47.9242 0.937 -0.126 0.324 234 218 194 0
1.8477 -2.6842 -47.8358 0.937 -0.126 0.324 233 217 192 0
1.3053 -2.6197 -48.0082 0.831 -0.406 0.381 231 216 190 0
5.6879 28.6874 -34.5834 0.747 -0.618 0.246 104 57 64 0
6.1725 29.1501 -34.2326 0.957 -0.286 0.050 99 51 54 0
6.1860 29.3679 -34.1454 0.965 -0.259 0.051 99 50 51 0
5.5312 30.6419 -33.9014 0.873 0.246 -0.420 97 44 47 0
6.4747 30.8976 -33.4624 0.499 -0.823 0.270 97 43 47 0
6.7419 31.1239 -33.2798 0.494 -0.822 0.283 97 41 47 0
7.1411 31.3540 -33.0480 0.461 -0.830 0.313 101 44 50 0
7.3784 31.5770 -32.8776 0.463 -0.831 0.309 105 45 52 0
7.0350 31.9950 -32.8442 0.949 0.315 0.015 103 43 48 0
7.2167 32.2151 -32.6950 0.865 0.402 0.299 102 41 46 0
6.8358 32.6343 -32.6748 0.935 -0.150 0.320 101 39 44 0
6.6844 32.8458 -32.6498 0.972 0.089 0.216 103 39 45 0
8.6204 34.1610 -31.4501 0.578 -0.738 0.348 106 34 40 0
8.3807 34.3698 -31.4581 0.932 0.268 0.245 108 34 42 0
10.3419 34.5991 -30.6596 0.947 0.310 0.089 109 34 44 0
11.3106 34.8142 -30.2267 0.665 0.560 0.494 107 32 41 0
11.5200 35.2276 -29.9945 0.816 0.450 0.364 104 32 39 0
9.5859 36.2674 -30.3034 0.947 -0.282 0.154 108 34 42 0
9.7589 36.4753 -30.1620 0.792 -0.390 0.470 105 33 42 0
9.8579 36.8917 -29.9687 0.757 0.317 0.571 110 37 48 0
8.1322 38.8137 -29.8685 0.923 0.029 -0.384 116 51 55 0
8.6996 39.4284 -29.4302 0.333 -0.891 -0.309 122 55 60 0
10.6875 40.3944 -28.3436 0.980 0.058 0.190 127 58 66 0
10.8054 40.5953 -28.2248 0.827 0.413 0.380 127 59 66 0
5.5283 41.2571 -29.8899 0.724 0.686 0.072 121 53 60 0
6.0255 41.8766 -29.4753 0.930 -0.367 0.022 120 50 59 0
5.4187 44.0599 -28.8702 0.728 0.269 -0.630 137 54 62 0
5.1439 44.5099 -28.7998 0.690 0.395 -0.607 139 58 64 0
6.6844 45.0323 -28.0432 0.953 0.302 0.014 139 58 65 0
-8.3709 49.8204 -31.6974 0.954 0.258 0.154 117 45 56 0
8.9768 48.5882 -25.8671 0.578 -0.805 0.132 108 34 48 0
9.3717 48.7504 -25.6625 0.530 -0.835 -0.148 106 30 46 0
4.6347 52.7241 -25.8796 0.211 0.442 0.872 86 22 32 0
7.6257 53.7578 -24.4033 0.840 0.542 0.004 79 23 26 0
-6.3993 61.5219 -26.5586 0.147 0.873 0.465 206 187 176 0
-9.0436 63.2286 -26.8732 0.211 0.850 0.482 210 198 181 0
-10.9301 63.8585 -27.3198 0.238 0.863 0.447 211 200 182 0
-14.8021 65.6522 -28.0471 0.856 0.482 -0.186 213 205 186 0
-2.9133 71.6150 -21.4782 0.920 0.333 0.208 210 198 184 0
-2.9932 75.2064 -20.1496 0.835 -0.476 -0.277 203 193 179 0
-1.7297 75.4751 -19.5895 0.860 -0.316 -0.400 202 193 178 0
-9.3871 82.7866 -19.6048 0.475 0.880 -0.022 198 186 172 0
-10.6790 83.4764 -19.8129 0.500 0.853 -0.146 196 186 173 0
-2.5006 81.4623 -17.6061 0.802 -0.509 -0.313 194 184 170 0
-2.3497 81.6278 -17.4888 0.802 -0.509 -0.313 193 184 169 0
-21.1892 98.5159 -17.9425 -0.197 -0.112 0.974 192 176 165 0
-16.2544 104.0903 -14.0443 -0.005 0.070 0.998 173 157 133 0
-17.4102 104.8944 -14.1598 -0.034 -0.076 0.996 173 156 132 0
17.1975 88.9133 -7.6404 0.634 -0.771 -0.066 174 153 134 0
19.6103 -5.7147 -42.7690 0.963 -0.267 -0.012 135 135 135 0
19.6683 -5.4904 -42.6630 0.971 -0.239 -0.012 70 63 57 0
18.0664 -5.0970 -43.0991 0.951 -0.284 0.119 234 216 196 0
1.7038 -2.6809 -48.1597 0.820 -0.227 -0.526 231 216 193 0
-4.8022 24.8201 -40.1355 0.975 -0.028 -0.219 232 219 199 0
5.8226 28.7655 -34.7643 0.773 -0.582 0.254 109 60 66 0
6.1840 29.2210 -34.4601 0.882 -0.399 0.251 101 51 54 0
5.6942 29.8488 -34.4015 0.897 0.299 -0.325 96 46 47 0
8.0316 30.1761 -33.4244 0.736 0.225 -0.639 96 46 47 0
5.2677 30.4843 -34.3170 0.866 0.271 -0.421 96 41 46 0
6.9312 31.2025 -33.4380 0.594 -0.798 0.098 99 40 46 0
7.8326 31.8774 -32.8537 0.999 -0.015 0.041 102 42 48 0
9.3680 34.4527 -31.3192 0.968 -0.012 -0.252 108 37 45 0
7.9828 35.0766 -31.5890 0.959 -0.269 -0.094 103 32 40 0
11.2988 35.2985 -30.2944 0.774 0.282 0.568 103 32 40 0
9.6105 36.3408 -30.5167 0.882 -0.461 -0.096 109 38 46 0
9.9204 36.5475 -30.3254 0.793 -0.373 0.481 107 36 44 0
9.9941 36.9639 -30.1410 0.800 -0.372 0.471 109 37 46 0
10.7229 40.4688 -28.5495 0.980 0.058 0.190 128 63 67 0
5.3560 41.3453 -30.1776 0.814 0.554 -0.172 126 63 70 0
6.0614 41.9548 -29.6896 0.930 -0.367 0.022 122 57 65 0
6.6195 43.6302 -28.8523 0.862 0.004 0.507 138 57 64 0
6.2447 44.0828 -28.8179 0.562 -0.815 -0.138 137 58 66 0
4.2947 47.9045 -28.0847 0.052 0.795 0.604 127 51 60 0
4.2278 48.1276 -28.0248 0.088 0.772 0.630 122 49 60 0
8.4665 49.1456 -26.0922 0.516 0.321 0.794 102 28 44 0
4.8355 52.7843 -26.0420 0.133 0.381 0.915 82 21 30 0
-11.1535 63.0505 -27.9975 0.145 0.878 0.456 208 194 181 0
-12.6859 63.6037 -28.3478 0.160 0.878 0.451 207 195 181 0
-14.9471 65.7945 -28.3450 0.856 0.482 -0.186 213 202 184 0
-15.1125 66.0775 -28.2984 0.851 0.492 -0.185 214 203 186 0
-3.0054 75.3206 -20.3826 0.835 -0.476 -0.277 204 191 178 0
-2.6638 76.1027 -19.9621 0.918 -0.195 -0.345 203 191 177 0
13.3959 71.5714 -15.8121 0.807 0.570 -0.156 202 190 177 0
-11.7627 90.1171 -17.9847 0.498 -0.710 0.498 192 177 164 0
-15.2056 93.1808 -18.0831 0.406 0.866 0.291 189 175 164 0
-17.0115 94.1688 -18.3689 0.406 0.869 0.283 188 175 162 0
-15.0778 93.6091 -17.8745 0.737 0.631 0.240 188 176 161 0
-18.1728 97.3497 -17.5901 -0.215 -0.210 0.954 187 177 162 0
-21.3143 100.2112 -17.6549 -0.142 -0.001 0.990 189 172 158 0
-20.5832 102.8705 -16.3824 0.058 -0.499 0.865 177 163 144 0
-12.9308 102.1410 -13.8643 -0.013 0.066 0.998 173 155 133 0
-14.4934 103.3715 -13.9695 -0.008 0.067 0.998 172 156 133 0
16.4949 89.3702 -7.9499 0.699 -0.702 -0.134 170 151 133 0
25.5713 4.6142 -36.9070 0.581 0.798 0.159 232 217 194 0
5.9633 28.8438 -34.9428 0.815 -0.575 0.070 104 56 62 0
5.6517 29.9180 -34.6509 0.894 0.336 -0.295 97 47 48 0
6.9949 31.0608 -33.7252 0.530 -0.596 0.603 98 42 48 0
7.1939 31.2836 -33.5678 0.714 -0.583 0.388 103 44 50 0
10.0837 34.9498 -31.1195 0.766 0.263 0.587 105 35 43 0
9.7764 35.1575 -31.1538 0.724 0.314 0.614 102 32 40 0
9.8677 36.8305 -30.4874 0.933 -0.353 0.071 107 36 44 0
9.5486 37.0433 -30.5241 0.981 0.176 0.086 108 38 46 0
7.6329 37.7055 -30.9772 0.198 0.853 0.483 113 42 50 0
8.5004 37.9011 -30.5846 0.404 -0.864 -0.300 112 42 50 0
8.5135 39.1664 -30.1011 0.923 0.237 -0.304 124 59 65 0
10.9680 40.5343 -28.6821 0.586 -0.473 0.658 130 68 72 0
5.6179 41.1972 -30.3964 0.467 -0.880 -0.091 134 72 77 0
6.1518 42.0300 -29.8852 0.913 -0.407 0.034 128 65 71 0
7.2587 43.6674 -28.8593 0.948 -0.086 0.307 139 58 66 0
6.9404 43.9017 -28.8875 0.896 0.302 0.325 139 59 68 0
6.7159 44.1304 -28.8835 0.829 0.166 0.533 139 61 69 0
3.6531 45.0066 -29.6769 -0.070 -0.329 0.942 145 68 77 0
10.9621 47.3040 -26.1233 0.820 -0.071 0.568 126 48 58 0
10.8976 47.5150 -26.0672 0.822 -0.102 0.561 122 47 59 0
10.8089 47.9333 -25.9415 0.571 -0.087 0.816 115 38 50 0
10.8405 48.3385 -25.7766 0.271 0.426 0.863 113 37 49 0
10.1244 48.6242 -25.9315 0.287 0.233 0.929 106 31 43 0
8.4528 49.4396 -26.2370 0.229 0.122 0.966 100 28 42 0
4.9353 53.0729 -26.1545 0.099 0.240 0.966 80 20 29 0
-12.5640 63.6869 -28.5666 0.160 0.881 0.445 208 195 180 0
-5.0899 62.3863 -26.3134 0.872 0.230 0.432 209 196 180 0
-4.6150 62.5172 -26.0895 0.889 -0.003 0.457 211 198 182 0
-15.4884 65.7753 -28.8507 0.796 0.600 -0.080 212 200 184 0
-15.9994 66.1344 -28.9025 0.798 0.587 -0.138 212 200 184 0
-2.9710 75.4205 -20.6044 0.823 -0.511 -0.249 204 192 179 0
-2.7481 75.7958 -20.3805 0.830 -0.503 -0.241 202 190 178 0
-2.5873 75.9672 -20.2566 0.802 -0.540 -0.255 202 190 177 0
-15.0646 92.0498 -18.7554 0.647 -0.557 0.521 191 175 161 0
-14.9765 92.2550 -18.6454 0.647 -0.557 0.521 190 174 161 0
-14.4432 92.2782 -18.4407 0.402 0.074 0.913 192 176 163 0
-15.2599 92.8524 -18.5235 0.374 0.058 0.926 191 175 165 0
-15.3642 93.1365 -18.4544 0.368 0.039 0.929 190 176 165 0
-14.9384 96.3231 -17.0925 -0.219 -0.226 0.949 185 176 161 0
-20.6456 103.0412 -16.6472 0.683 0.396 0.614 177 162 146 0
-21.6033 104.4862 -16.4523 0.925 0.096 0.367 177 161 144 0
-12.1319 102.1230 -13.8676 -0.006 -0.016 1.000 173 155 133 0
17.2907 89.0815 -7.9945 0.778 -0.602 -0.180 168 150 135 0
19.4419 -6.1163 -43.4532 0.939 -0.344 -0.018 255 255 255 0
19.8053 -4.9648 -42.8831 0.973 -0.230 -0.014 231 213 197 0
-14.2736 -0.4460 -53.7644 -0.100 -0.685 0.721 235 223 207 0
6.0334 28.9181 -35.1487 0.815 -0.575 0.070 102 55 62 0
6.2203 29.1463 -34.9933 0.697 -0.678 0.233 100 51 57 0
6.0787 30.0096 -34.7189 0.951 -0.298 -0.080 98 48 49 0
9.6850 33.9703 -31.8875 0.901 0.084 0.427 107 37 47 0
10.0851 35.0222 -31.3416 0.768 0.223 0.600 105 35 43 0
8.9221 39.0200 -30.2584 0.957 0.133 0.259 122 57 63 0
11.0902 40.6049 -28.8575 0.604 -0.491 0.628 133 71 76 0
7.7084 43.2942 -29.0892 0.995 0.051 0.088 141 63 71 0
7.6983 43.5063 -29.0127 0.776 0.215 0.592 142 63 72 0
7.6977 43.7177 -28.9329 0.861 0.219 0.458 145 65 75 0
7.1947 43.9648 -29.0253 0.812 0.321 0.488 150 70 81 0
7.0869 44.1848 -28.9818 0.853 0.297 0.429 146 68 78 0
5.8610 46.8449 -28.4280 -0.021 0.027 0.999 145 60 72 0
11.3518 48.3629 -25.8248 0.314 0.455 0.833 112 35 47 0
10.9231 48.6155 -25.8877 0.321 0.462 0.827 107 32 44 0
5.8175 51.5441 -26.6657 0.615 0.658 0.435 85 22 33 0
4.8099 53.1806 -26.4187 0.177 0.743 0.645 79 22 30 0
2.9937 56.4874 -25.8383 0.198 0.522 0.830 77 30 36 0
2.3052 57.0415 -25.8829 0.373 0.533 0.760 80 36 39 0
-5.9027 61.7308 -27.1409 0.163 0.890 0.425 195 177 167 0
-12.4897 63.7800 -28.7992 0.158 0.882 0.443 207 195 179 0
-5.2565 62.5234 -26.6022 0.829 0.385 0.406 209 196 180 0
-4.6139 62.6194 -26.3285 0.903 0.057 0.425 211 198 182 0
-4.0528 63.4144 -25.8203 0.945 -0.123 -0.302 213 201 185 0
-3.1278 75.1336 -21.0434 0.937 -0.206 -0.282 205 193 179 0
-14.1287 92.5193 -18.5284 0.377 0.042 0.925 189 175 164 0
-12.0900 96.3880 -16.3111 -0.208 -0.176 0.962 189 175 162 0
-13.7950 97.3842 -16.5640 -0.140 -0.008 0.990 190 175 162 0
-19.6350 102.9597 -16.6118 -0.059 -0.240 0.969 175 161 147 0
17.3092 89.1796 -8.1768 0.766 -0.569 -0.299 169 152 136 0
19.4518 -6.0781 -43.6711 0.939 -0.344 -0.018 255 255 255 0
19.8167 -4.9253 -43.0990 0.967 -0.253 -0.012 231 213 198 0
6.2080 29.2161 -35.2311 0.977 -0.161 0.139 99 50 56 0
5.7354 30.0647 -35.0855 0.968 -0.233 -0.091 99 49 52 0
8.7806 33.8179 -32.5328 0.739 -0.624 0.253 109 39 49 0
9.1960 34.8797 -31.9764 0.908 -0.303 -0.288 104 34 44 0
9.2484 35.0909 -31.8770 0.936 -0.227 -0.268 105 34 44 0
9.3314 35.3018 -31.7663 0.936 -0.227 -0.268 105 34 45 0
8.6818 36.3583 -31.6077 0.628 -0.316 -0.711 104 37 44 0
9.3735 36.5641 -31.2727 0.609 -0.390 -0.691 104 37 44 0
8.3796 39.7465 -30.4373 0.724 -0.560 0.403 130 66 72 0
10.8109 40.4869 -29.2534 0.563 -0.767 -0.308 133 72 77 0
11.3277 40.6704 -28.9918 0.615 -0.459 0.641 136 74 79 0
6.0176 41.3379 -30.7127 0.370 -0.929 -0.015 138 77 82 0
7.8536 43.5761 -29.1829 0.828 -0.126 0.546 146 70 80 0
7.9204 43.7826 -29.0799 0.850 -0.087 0.520 144 67 77 0
7.5068 44.0234 -29.1425 0.764 0.357 0.537 147 70 80 0
7.2490 44.2541 -29.1509 0.652 0.170 0.739 154 78 88 0
6.6170 46.2186 -28.6421 0.214 -0.951 0.222 143 64 73 0
6.2467 49.4490 -27.5567 0.815 0.562 0.143 102 30 42 0
6.3600 51.3465 -26.7962 0.502 0.605 0.617 86 23 34 0
4.1614 53.5813 -26.7673 0.179 0.751 0.636 79 21 28 0
3.4343 54.1234 -26.8323 0.354 0.087 0.931 79 22 26 0
2.9678 55.7165 -26.4025 0.445 0.125 0.887 81 26 31 0
2.6536 56.8567 -26.0876 0.193 0.480 0.856 75 33 36 0
1.8257 57.6577 -26.0921 0.250 0.921 0.300 80 39 43 0
-5.7462 61.8020 -27.3372 0.167 0.896 0.412 192 174 164 0
-8.0217 62.4951 -27.9205 0.166 0.895 0.415 208 192 179 0
-5.4345 62.6633 -26.8953 0.791 0.266 0.551 208 196 180 0
-4.7169 62.7435 -26.5983 0.862 -0.026 0.506 210 198 182 0
-4.3982 63.5921 -26.1585 0.524 -0.673 0.522 213 201 185 0
-14.2576 69.9096 -27.4312 0.415 -0.628 0.659 215 201 188 0
-14.1344 70.1241 -27.3042 0.415 -0.628 0.659 216 204 190 0
-2.8599 72.2557 -22.3068 0.889 0.435 -0.147 207 198 182 0
-3.2817 75.2921 -21.3140 0.964 -0.167 -0.207 204 192 179 0
5.7770 73.5189 -18.6185 0.918 0.260 -0.300 201 190 176 0
5.4303 73.8379 -18.6266 0.841 0.448 0.304 200 189 174 0
-6.1218 79.6006 -20.7384 0.865 0.031 -0.501 199 187 175 0
-13.2766 96.1008 -17.1507 0.384 -0.550 0.741 189 177 163 0
-13.4665 96.4216 -17.0998 0.204 -0.588 0.783 187 175 162 0
-17.2045 99.0439 -17.4963 0.146 -0.196 0.970 187 173 160 0
-18.4908 100.1112 -17.5703 0.218 0.536 0.816 188 174 161 0
-19.6993 100.9040 -17.7193 0.214 0.554 0.805 186 172 159 0
-18.7391 102.9271 -16.5965 -0.056 -0.261 0.964 175 161 148 0
-20.5455 104.7698 -16.5703 -0.078 -0.299 0.951 177 160 144 0
19.5027 -6.0236 -43.8678 0.972 -0.233 -0.025 255 255 255 0
19.8168 -4.8902 -43.3211 0.972 -0.234 -0.019 232 214 197 0
-12.8275 24.2111 -44.5034 0.747 -0.664 0.036 233 225 204 0
-0.9923 27.7444 -38.7406 0.530 -0.825 -0.198 116 77 80 0
6.7129 29.0966 -35.3478 0.916 0.169 0.363 101 55 61 0
6.6739 29.3116 -35.2810 0.885 0.163 0.436 98 50 56 0
5.7194 30.1355 -35.3258 0.973 -0.219 -0.069 98 48 51 0
6.9305 32.7845 -33.8697 0.696 -0.653 -0.300 103 38 45 0
7.1094 33.0043 -33.7196 0.578 -0.733 -0.359 106 40 48 0
7.5488 33.2286 -33.4703 0.578 -0.733 -0.359 109 42 51 0
7.9911 33.4513 -33.2206 0.557 -0.778 -0.292 106 39 48 0
12.2930 34.3541 -31.2704 0.656 -0.742 -0.134 104 34 43 0
9.0922 34.7408 -32.3206 0.872 0.489 -0.002 104 32 43 0
7.0968 34.9406 -32.9909 0.997 -0.072 0.015 106 33 44 0
7.3920 35.1567 -32.7987 0.779 -0.503 -0.373 107 35 46 0
7.7955 35.3718 -32.5664 0.791 -0.510 -0.339 108 35 46 0
10.4771 35.5861 -31.4827 0.746 -0.413 0.523 108 35 46 0
8.4109 36.4346 -31.9338 0.625 -0.314 -0.715 101 34 41 0
9.0202 36.6413 -31.6277 0.609 -0.390 -0.691 102 35 42 0
10.0322 37.2596 -31.0152 0.293 0.788 0.542 109 42 50 0
9.5469 37.4764 -31.1145 0.283 0.791 0.543 112 45 54 0
11.3467 40.7456 -29.2035 0.555 -0.406 0.726 133 70 75 0
10.5094 40.9907 -29.4237 0.711 0.556 0.431 137 76 81 0
7.6060 44.0972 -29.3326 0.764 0.357 0.537 147 72 82 0
7.4193 44.3228 -29.3169 0.652 0.170 0.739 157 81 91 0
7.2426 44.5483 -29.2976 0.761 -0.149 0.632 155 81 90 0
6.9164 46.2747 -28.7657 0.225 -0.956 0.189 139 56 66 0
7.3458 46.4474 -28.5397 0.222 -0.954 0.203 137 54 64 0
6.8981 47.7626 -28.2090 0.018 0.438 0.899 122 41 53 0
7.6598 48.1054 -27.7944 0.755 0.606 0.249 119 37 51 0
6.6734 49.6967 -27.5605 0.766 0.635 -0.100 99 28 41 0
6.3896 51.4298 -27.0102 0.520 0.702 0.486 84 21 32 0
4.5569 53.6123 -26.8687 0.178 0.754 0.633 82 23 31 0
3.0137 54.4968 -27.1107 -0.081 -0.284 0.955 78 19 23 0
8.1615 56.1939 -24.5434 0.726 0.655 0.210 73 33 35 0
1.7205 57.7715 -26.3539 0.250 0.921 0.300 77 37 40 0
-5.6388 61.8831 -27.5480 0.164 0.895 0.414 191 173 164 0
-7.9377 62.5828 -28.1424 0.167 0.896 0.412 207 191 180 0
-1.7690 62.0006 -26.0567 0.663 -0.608 0.437 208 196 180 0
-3.0785 63.1812 -26.0991 0.699 -0.706 0.112 212 200 184 0
-2.6981 72.3176 -22.4966 0.834 0.542 0.104 204 196 181 0
13.4168 67.8633 -18.1589 0.411 0.589 0.696 204 196 180 0
5.2757 74.2008 -18.8023 0.819 0.468 0.331 200 190 174 0
4.9003 74.5316 -18.8173 0.788 0.590 0.176 200 188 172 0
-3.4185 78.5805 -20.3939 0.751 0.610 -0.254 199 187 175 0
-6.2637 79.7645 -21.0091 0.865 0.037 -0.501 199 187 175 0
-12.6022 87.6364 -20.3974 0.098 0.608 0.788 193 179 168 0
-18.9036 100.6831 -17.8119 0.363 0.748 0.556 185 171 159 0
-13.5220 102.2670 -15.2001 0.783 -0.553 0.284 178 159 143 0
19.5055 -5.9881 -44.0899 0.972 -0.233 -0.025 255 255 255 0
19.8412 -4.8457 -43.5308 0.969 -0.244 -0.031 232 213 196 0
20.4370 -4.2143 -43.0675 0.728 -0.670 -0.145 234 215 195 0
-0.9752 27.8195 -38.9823 0.528 -0.832 -0.172 116 78 81 0
-0.5946 28.3050 -38.6553 0.559 -0.828 -0.046 108 67 69 0
0.0781 28.8034 -38.2135 0.551 -0.833 0.053 103 57 63 0
6.0739 30.0051 -35.5034 0.624 0.440 0.646 100 47 52 0
5.6705 30.6426 -35.4136 0.886 0.218 -0.410 102 47 52 0
5.0498 30.8365 -35.5735 0.938 0.109 -0.329 98 42 48 0
8.1040 31.3872 -34.2164 0.658 -0.541 0.523 95 38 45 0
6.8921 32.8565 -34.1154 0.696 -0.653 -0.300 101 36 45 0
7.3290 33.0820 -33.8656 0.914 -0.152 -0.377 105 39 48 0
9.1026 34.8139 -32.5425 0.967 0.169 0.192 106 32 42 0
9.0003 35.0248 -32.5010 0.974 0.156 0.167 108 32 43 0
8.2794 36.5104 -32.2093 0.649 -0.422 -0.633 103 36 43 0
9.1896 36.7142 -31.7898 0.618 -0.517 -0.592 104 37 44 0
10.2360 36.9132 -31.3209 0.944 0.026 0.330 106 39 46 0
8.0070 40.1270 -30.9414 0.467 -0.345 0.815 122 56 62 0
7.1951 41.0126 -30.9112 0.133 -0.872 0.472 126 61 68 0
6.4535 41.2615 -31.0958 0.130 -0.949 0.287 130 65 72 0
7.2518 44.4167 -29.6001 0.760 0.271 0.591 151 77 88 0
7.2023 44.6330 -29.5367 0.687 0.283 0.670 149 75 87 0
7.6350 46.5035 -28.6653 0.222 -0.953 0.207 131 47 57 0
8.2448 50.2217 -27.0272 0.728 0.366 -0.580 88 22 33 0
6.2509 51.5358 -27.2791 0.367 0.664 0.651 84 21 32 0
7.1062 56.8906 -24.9286 0.947 0.206 0.247 78 38 43 0
5.8462 57.5428 -25.1553 0.976 -0.036 0.216 84 43 47 0
-5.5470 61.9673 -27.7634 0.167 0.894 0.415 189 171 162 0
-3.6192 63.4006 -26.4953 0.893 -0.248 -0.376 213 201 185 0
5.1651 73.7142 -19.2843 0.859 0.450 -0.245 200 191 178 0
5.3785 74.0636 -19.0716 0.826 0.562 -0.046 199 190 174 0
5.1118 74.3588 -19.0601 0.782 0.605 -0.148 197 188 172 0
4.7544 74.6846 -19.0711 0.883 0.347 0.317 198 188 172 0
-2.9520 78.3141 -20.5939 0.644 0.753 0.135 199 188 174 0
10.0050 78.5669 -15.6256 0.134 -0.556 0.820 196 183 168 0
11.5507 83.2747 -13.2606 0.315 0.536 0.783 186 172 161 0
-19.2103 100.2201 -18.4078 0.493 -0.867 0.064 184 171 158 0
-18.7482 100.7519 -18.0326 0.368 0.752 0.547 184 170 159 0
-18.6092 100.9349 -17.9110 0.124 0.366 0.922 183 170 158 0
-13.3915 102.3410 -15.4161 0.783 -0.553 0.284 175 157 142 0
17.3437 89.3025 -8.7983 0.915 -0.194 -0.354 170 151 134 0
19.5083 -5.9525 -44.3124 0.972 -0.233 -0.025 255 255 255 0
19.8258 -4.8165 -43.7617 0.971 -0.239 -0.020 232 213 198 0
-7.5033 -5.7433 -54.4503 0.526 -0.762 -0.377 229 214 190 0
-7.9462 -5.3761 -54.4786 0.729 0.684 0.037 228 213 189 0
-8.9879 -5.4437 -54.8982 0.647 0.747 0.149 229 213 191 0
-9.6815 -5.4009 -55.1443 0.649 0.741 0.172 230 213 192 0
6.3988 29.8739 -35.6915 0.682 -0.293 0.670 102 50 55 0
6.8901 32.9295 -34.3475 0.681 -0.680 -0.273 100 37 46 0
7.2300 33.1528 -34.1343 0.914 -0.152 -0.377 103 38 48 0
7.6047 33.3755 -33.9081 0.518 -0.812 -0.269 108 40 50 0
12.4447 34.4971 -31.6523 0.903 -0.403 0.150 107 35 46 0
9.1565 34.8873 -32.7481 0.949 0.312 0.051 109 33 44 0
13.6130 38.5681 -29.6673 0.131 -0.938 0.321 108 37 49 0
8.4790 40.1863 -30.9959 0.648 -0.259 0.716 120 50 59 0
7.5587 43.2015 -30.2011 0.479 -0.683 -0.551 153 89 93 0
5.7693 43.5332 -30.7522 0.621 0.060 -0.781 152 87 94 0
8.1622 45.6945 -29.0279 0.672 0.425 0.607 137 57 69 0
8.3627 50.2921 -27.2094 0.252 0.584 0.771 87 21 31 0
7.9160 56.4173 -25.0567 0.543 0.062 0.837 77 36 39 0
-4.2076 59.9605 -28.2994 0.267 0.910 0.318 91 53 56 0
-5.4221 62.0448 -27.9688 0.166 0.892 0.420 190 168 160 0
22.0492 62.6406 -17.3520 0.880 0.201 0.430 211 199 186 0
5.2098 74.2230 -19.3313 0.823 0.194 -0.534 198 191 175 0
5.0794 74.4745 -19.2853 0.779 0.318 -0.540 196 189 173 0
4.8109 74.7717 -19.2742 0.835 0.402 -0.374 196 189 173 0
-7.9759 85.8945 -19.8948 0.119 0.561 0.819 196 184 170 0
-11.9767 87.8877 -20.6526 -0.002 0.335 0.942 192 180 168 0
-19.5675 100.0240 -18.9237 0.807 -0.569 -0.157 184 170 157 0
-19.4157 100.2042 -18.7980 0.807 -0.569 -0.157 183 170 156 0
-13.4243 102.0210 -15.8431 0.929 -0.370 -0.003 178 161 145 0
-13.2816 102.4249 -15.6361 0.781 -0.560 0.275 176 157 143 0
-3.7285 98.6718 -13.4451 0.557 0.679 -0.479 172 154 134 0
-5.1993 99.6172 -13.6431 0.548 0.654 -0.523 172 153 136 0
-4.9927 100.1803 -13.3515 0.748 0.664 -0.010 171 153 137 0
19.5118 -5.9166 -44.5349 0.974 -0.227 -0.010 255 255 255 0
19.8194 -4.7837 -43.9883 0.981 -0.195 -0.012 230 213 196 0
-15.8404 -6.9593 -58.3801 0.115 0.204 0.972 229 213 194 0
-16.1442 -5.1729 -57.8183 0.831 -0.553 0.059 234 222 206 0
6.7725 29.9630 -35.7766 0.695 -0.236 0.680 99 48 53 0
6.7675 30.1800 -35.6962 0.695 -0.236 0.680 98 45 51 0
6.7600 30.3969 -35.6168 0.699 -0.247 0.671 102 49 55 0
6.9152 30.6207 -35.4729 0.779 0.108 0.617 100 47 53 0
6.7909 30.8325 -35.4398 0.735 0.153 0.661 99 44 50 0
6.0697 32.7666 -34.9809 0.399 0.905 0.151 100 38 49 0
6.7376 32.9993 -34.6385 0.665 -0.727 -0.170 100 38 47 0
9.7956 34.1217 -33.0495 0.329 -0.509 0.795 110 40 50 0
8.4759 36.0208 -32.8315 0.762 -0.622 0.178 106 35 44 0
12.6195 36.8264 -30.9496 0.521 0.250 0.816 108 41 48 0
13.2972 38.4466 -30.0774 0.223 -0.845 0.487 107 37 48 0
14.0520 38.6293 -29.7209 0.142 -0.940 0.311 107 37 48 0
13.9924 38.8328 -29.6664 0.274 -0.840 0.468 107 37 47 0
11.6604 40.1366 -30.0593 0.269 -0.738 0.619 118 45 56 0
12.2706 40.7261 -29.6036 0.486 -0.728 0.484 119 47 57 0
7.3487 43.0828 -30.5825 0.513 -0.653 -0.558 140 73 81 0
6.1102 43.3770 -30.9421 0.503 -0.639 -0.582 142 78 84 0
8.6114 45.7373 -29.0955 0.736 -0.037 0.675 129 49 62 0
7.0853 49.9046 -28.0960 0.703 0.503 0.503 101 27 39 0
8.5125 50.3585 -27.3809 0.088 0.260 0.962 91 23 34 0
7.9371 50.6417 -27.4924 0.250 -0.360 0.899 91 24 34 0
5.6653 54.5679 -26.8680 -0.077 -0.262 0.962 79 20 25 0
-0.4800 60.0232 -27.1374 0.787 0.234 0.571 104 68 69 0
-5.3288 62.1287 -28.1837 0.166 0.892 0.420 190 166 159 0
-8.6228 64.2252 -28.6420 0.099 0.422 0.901 210 198 184 0
1.7101 70.0610 -22.4979 0.845 -0.341 -0.412 209 197 182 0
