ply
format ascii 1.0
element vertex 841
property float x
property float y
property float z
property float nx
property float ny
property float nz
property uchar diffuse_red
property uchar diffuse_green
property uchar diffuse_blue
property uchar class
end_header
-6.0463 95.1181 -17.8916 0.927 0.155 0.343 184 171 155 0
-1.9130 94.5616 -16.4630 -0.013 0.069 0.998 181 166 151 0
17.8320 90.3380 -10.1838 0.933 -0.352 -0.081 168 150 134 0
17.9942 90.4374 -10.0855 0.945 -0.319 -0.066 169 150 134 0
17.9625 90.6545 -10.0223 0.934 -0.349 -0.073 107 98 89 0
18.0372 90.8067 -9.9399 0.933 -0.354 -0.067 50 49 50 0
18.1485 90.9361 -9.8511 0.925 -0.367 -0.099 247 247 245 0
18.2152 91.0926 -9.7704 0.922 -0.373 -0.102 254 255 254 0
18.3897 -6.5888 -43.9759 0.970 -0.215 -0.114 255 255 255 0
1.7899 29.3801 -37.9940 0.313 -0.921 -0.232 103 50 58 0
7.3767 32.6501 -34.6491 0.246 0.619 0.746 100 36 45 0
6.5459 33.1295 -34.8100 0.364 0.310 0.878 105 38 47 0
8.9049 33.6198 -33.7079 0.687 -0.704 0.182 113 42 50 0
9.0221 33.8233 -33.5907 0.677 -0.460 0.574 115 43 51 0
9.6477 34.6213 -33.0657 0.987 -0.153 -0.045 113 37 50 0
10.4481 35.8133 -32.3343 0.935 -0.347 -0.073 109 39 49 0
11.5906 41.2996 -29.9714 0.519 -0.639 0.568 116 46 58 0
10.1561 45.4811 -29.0805 0.866 0.475 -0.157 117 37 48 0
13.6371 47.3264 -27.0633 0.747 0.210 0.631 105 24 36 0
6.9475 52.5101 -27.8976 0.195 -0.769 0.609 71 11 22 0
5.9489 57.9714 -26.3887 0.983 0.178 -0.033 84 56 52 0
-2.1587 62.9693 -27.8475 0.612 -0.322 0.723 204 193 174 0
-7.4853 65.7479 -28.9818 0.772 0.406 0.489 211 198 181 0
-7.4139 65.9695 -28.8764 0.797 0.275 0.538 211 198 181 0
-8.5902 72.9570 -26.9058 0.733 -0.613 0.296 206 197 180 0
-1.6920 72.1433 -24.4662 0.853 -0.027 -0.521 203 196 178 0
-0.5161 76.5618 -22.4622 0.346 -0.137 0.928 200 188 173 0
13.6836 74.4806 -17.5822 0.449 0.736 0.507 197 184 169 0
-5.7290 94.5989 -18.2344 0.985 0.039 0.171 186 170 155 0
-12.4471 102.4744 -18.1419 0.647 -0.726 -0.233 177 164 147 0
17.8565 90.4385 -10.3738 0.930 -0.362 -0.060 170 152 137 0
18.0123 90.5418 -10.2763 0.933 -0.353 -0.067 171 152 137 0
17.9858 90.7559 -10.2122 0.930 -0.362 -0.062 109 99 90 0
18.0523 90.9130 -10.1311 0.930 -0.362 -0.062 50 50 50 0
18.1560 91.0471 -10.0435 0.927 -0.366 -0.083 246 246 244 0
18.2085 91.2125 -9.9651 0.931 -0.355 -0.087 254 255 253 0
-17.1471 -6.1701 -58.1669 0.945 -0.265 -0.189 229 217 199 0
-16.8037 -5.3217 -57.7349 0.938 0.045 0.345 235 222 206 0
-4.5036 28.2180 -41.1654 0.921 -0.387 0.049 115 75 76 0
6.6982 32.5469 -35.2105 0.570 0.545 0.614 99 37 46 0
7.1649 32.9504 -34.8847 0.215 0.331 0.919 102 36 45 0
6.9052 33.1813 -34.9073 0.215 0.331 0.919 106 38 48 0
6.8298 33.4014 -34.8605 0.331 0.469 0.819 109 40 49 0
8.7078 33.7061 -34.0089 0.544 -0.839 -0.025 112 41 51 0
9.4083 34.0805 -33.6004 0.605 -0.796 -0.029 115 40 49 0
10.2337 35.2779 -32.8555 0.774 -0.458 -0.438 126 49 63 0
10.4860 35.8839 -32.5442 0.934 -0.348 -0.086 112 40 51 0
11.8297 40.1044 -30.5402 0.954 -0.179 0.242 115 42 56 0
10.6320 41.3000 -30.5990 0.658 -0.716 -0.233 113 43 55 0
10.7287 41.9133 -30.3469 0.988 0.045 0.147 111 43 57 0
3.6810 44.4591 -32.2573 -0.036 -0.806 0.590 119 49 60 0
13.5235 43.1491 -28.8069 0.899 0.252 0.359 118 47 60 0
13.3230 44.6094 -28.3776 0.853 0.412 0.320 113 36 47 0
10.1836 45.3485 -29.3663 0.971 -0.065 -0.231 114 35 47 0
10.3400 45.9510 -29.0942 0.902 0.421 0.099 113 30 44 0
10.1820 46.1888 -29.0741 0.955 0.272 0.116 114 30 45 0
10.1898 46.3975 -28.9983 0.960 0.262 0.096 113 28 44 0
10.1518 46.6144 -28.9378 0.956 0.280 0.090 111 26 42 0
10.4309 48.0312 -28.3333 0.779 0.132 0.613 102 24 36 0
8.2930 52.5077 -27.6221 0.556 -0.641 -0.530 68 11 22 0
-6.9740 65.2171 -29.2536 0.797 0.491 0.353 207 196 179 0
-7.1371 65.5088 -29.2167 0.815 0.467 0.343 210 198 180 0
-7.3776 65.8246 -29.2021 0.838 0.435 0.329 210 198 181 0
-7.6372 66.1472 -29.1928 0.670 0.271 0.691 210 197 181 0
-8.0075 66.5046 -29.2152 0.687 0.315 0.655 211 198 182 0
20.6445 59.6212 -20.2405 0.372 -0.806 0.460 212 199 186 0
15.2685 63.3874 -21.0621 0.962 -0.274 -0.009 207 200 181 0
-7.7320 72.5238 -27.0085 0.324 -0.850 0.415 207 198 181 0
-7.3267 72.6241 -26.8126 0.343 -0.850 0.399 206 197 180 0
-7.1325 72.7984 -26.6748 0.353 -0.872 0.340 205 196 181 0
9.3446 67.1272 -22.1105 0.931 0.363 0.038 204 196 181 0
9.1952 67.3938 -22.0769 0.939 0.342 0.044 204 195 181 0
17.1241 72.0755 -17.2982 0.594 0.791 0.148 197 185 175 0
16.1877 72.6798 -17.4593 0.412 0.670 0.618 196 184 173 0
18.6857 72.5769 -16.5036 0.637 -0.455 0.622 197 183 171 0
-3.2823 90.1143 -19.1127 0.502 -0.038 0.864 186 174 162 0
-3.3700 90.3958 -19.0495 0.502 -0.038 0.864 187 173 163 0
2.1852 99.6309 -13.6263 0.679 0.267 -0.684 171 156 140 0
17.5034 90.5697 -10.7032 0.659 -0.747 -0.088 170 155 139 0
17.9412 90.5024 -10.5529 0.941 -0.330 0.069 170 153 139 0
17.9937 90.6686 -10.4742 0.941 -0.330 0.069 170 152 138 0
18.0118 90.8556 -10.4018 0.930 -0.362 -0.062 109 99 91 0
18.0784 91.0128 -10.3206 0.930 -0.362 -0.062 50 50 50 0
18.1939 91.1396 -10.2305 0.927 -0.366 -0.082 247 247 245 0
18.2006 91.3333 -10.1604 0.922 -0.378 -0.088 254 255 254 0
19.6788 -4.7943 -43.2979 0.867 -0.489 -0.093 234 215 201 0
-16.3997 7.9108 -53.2716 0.969 0.196 0.151 231 222 206 0
-5.7066 24.7415 -43.1394 0.460 -0.389 0.798 231 224 209 0
-4.5527 28.0590 -41.5230 0.786 -0.570 -0.238 120 81 84 0
-1.7068 28.2432 -40.3229 0.916 0.385 0.115 116 75 77 0
-1.8503 28.4772 -40.2986 0.929 0.319 0.188 112 71 74 0
-1.3262 28.6970 -40.0128 0.953 -0.303 -0.014 106 66 67 0
1.9560 29.5225 -38.4151 0.309 -0.915 -0.259 103 52 60 0
5.0861 32.0556 -36.2832 0.763 -0.113 -0.636 101 39 48 0
7.1533 32.8095 -35.1954 0.401 -0.279 0.873 102 39 48 0
10.3257 35.1346 -33.1191 0.961 -0.260 -0.097 118 42 54 0
10.3799 35.3395 -33.0260 0.957 -0.273 -0.100 132 56 68 0
10.4367 35.9623 -32.7864 0.934 -0.177 0.310 114 41 50 0
10.4566 36.1697 -32.7062 0.894 -0.065 0.444 113 40 49 0
10.4450 36.3800 -32.6375 0.771 0.330 0.544 111 40 48 0
10.5031 41.6054 -30.7937 0.761 -0.188 0.621 114 43 57 0
10.6003 41.8012 -30.6867 0.856 0.073 0.511 118 50 63 0
10.5511 42.0174 -30.6310 0.917 -0.171 0.361 116 48 60 0
10.5757 42.4325 -30.4766 0.801 -0.339 0.493 117 47 58 0
2.3023 44.3081 -33.1253 0.357 -0.574 0.737 117 47 58 0
13.3580 43.2534 -29.0800 0.951 0.246 0.189 115 45 56 0
13.3141 44.6906 -28.5968 0.909 0.328 0.257 111 33 46 0
10.6525 45.9783 -29.2104 0.883 0.139 -0.448 109 28 42 0
10.4487 46.2240 -29.2062 0.911 0.343 -0.229 110 27 42 0
10.8434 46.3626 -29.0004 0.926 0.309 -0.216 107 25 39 0
10.4620 48.1094 -28.5440 0.802 0.139 0.581 101 25 38 0
10.3598 48.5493 -28.4315 0.713 0.445 0.541 94 21 32 0
10.1939 48.7926 -28.4130 0.713 0.445 0.541 95 22 33 0
10.0274 49.0366 -28.3944 0.713 0.445 0.541 97 21 34 0
9.7151 49.3111 -28.4234 0.758 0.460 0.462 93 19 32 0
8.1609 51.5561 -28.2615 0.240 0.919 0.314 79 17 28 0
7.8166 52.4916 -28.0730 0.199 -0.765 0.612 69 13 24 0
8.8448 52.8958 -27.5218 0.819 0.551 0.159 68 15 23 0
-6.3707 63.6950 -29.8323 0.221 0.891 0.397 201 186 170 0
-2.9998 63.1901 -28.6627 0.422 -0.305 0.854 202 189 173 0
-1.5088 62.9856 -28.1388 0.906 -0.346 -0.245 204 192 176 0
-0.7370 62.9891 -27.8295 0.896 -0.433 -0.095 204 193 177 0
1.3122 62.6083 -27.1443 0.616 -0.771 -0.161 206 194 178 0
-7.5822 66.2401 -29.4290 0.683 0.279 0.674 210 197 181 0
-7.5542 66.4754 -29.3359 0.658 0.306 0.688 210 197 181 0
-7.7737 66.7873 -29.3148 0.657 0.302 0.691 210 197 181 0
21.0676 59.5711 -20.3173 0.589 -0.665 0.459 211 199 183 0
12.8991 63.8867 -22.0741 0.248 0.330 0.911 208 199 183 0
12.5065 64.2276 -22.1120 0.247 0.324 0.913 208 199 182 0
-7.6466 72.6088 -27.2358 0.382 -0.807 0.449 206 197 180 0
-7.3718 72.7553 -27.0750 0.421 -0.829 0.367 205 196 179 0
-6.6177 72.7292 -26.7831 0.383 -0.923 0.036 204 195 180 0
9.0949 67.7445 -22.2483 0.922 0.385 0.047 204 195 180 0
17.7302 68.3566 -18.5884 0.952 -0.254 -0.169 201 189 176 0
17.8386 68.5107 -18.4914 0.949 -0.261 -0.177 201 189 178 0
18.0357 68.6287 -18.3716 0.935 -0.291 -0.202 202 190 177 0
18.7655 70.0961 -17.5691 0.353 0.655 0.668 199 187 175 0
18.8366 70.6532 -17.3466 0.692 -0.001 0.721 196 184 172 0
15.7910 73.1550 -17.6905 0.409 0.668 0.622 196 184 172 0
1.7596 99.1069 -14.2489 0.808 0.570 0.150 174 160 147 0
2.0499 99.8452 -13.8757 0.627 0.096 -0.773 173 156 141 0
17.6010 90.6264 -10.8807 0.801 -0.599 0.013 171 154 140 0
17.9293 90.6253 -10.7500 0.944 -0.329 0.025 171 153 139 0
17.9767 90.7947 -10.6721 0.951 -0.308 0.012 170 152 139 0
18.0290 90.9609 -10.5933 0.927 -0.369 -0.062 109 99 92 0
18.1046 91.1127 -10.5103 0.930 -0.362 -0.062 50 50 50 0
18.2270 91.2353 -10.4187 0.931 -0.357 -0.070 247 247 245 0
18.2932 91.3922 -10.3376 0.931 -0.357 -0.070 254 255 255 0
18.0054 91.7685 -10.3213 0.783 -0.609 -0.126 254 255 255 0
19.6756 -4.7603 -43.5160 0.853 -0.515 -0.083 236 215 200 0
-18.3645 0.6901 -56.8843 0.468 -0.762 -0.447 228 219 206 0
-14.8053 7.9268 -52.9346 0.934 0.342 -0.106 232 223 210 0
-6.3445 25.2893 -43.4900 0.800 -0.064 0.597 229 222 206 0
-4.3224 28.1313 -41.6884 0.854 -0.445 -0.270 121 82 86 0
3.8703 29.9812 -37.7558 0.940 -0.047 0.338 99 46 53 0
7.4331 32.8664 -35.3208 0.406 -0.273 0.872 104 41 52 0
11.1326 34.5184 -33.2605 0.743 -0.657 0.129 116 39 49 0
10.5054 35.1935 -33.2770 0.928 -0.279 0.248 114 39 47 0
10.5441 35.3995 -33.1897 0.928 -0.279 0.248 118 43 51 0
10.5827 35.6054 -33.1025 0.928 -0.279 0.248 125 48 59 0
10.5729 36.0244 -32.9604 0.854 -0.451 -0.261 111 37 45 0
10.5942 36.2316 -32.8797 0.908 -0.090 0.408 111 36 45 0
10.5486 36.4449 -32.8237 0.771 0.330 0.544 110 38 47 0
10.6555 41.6632 -30.9628 0.761 -0.188 0.621 117 46 60 0
10.7056 41.8654 -30.8722 0.856 0.073 0.511 123 54 66 0
10.6181 42.0870 -30.8301 0.913 -0.185 0.363 128 59 70 0
10.7450 42.2781 -30.7126 0.801 -0.236 0.551 115 46 56 0
10.6795 42.4968 -30.6627 0.848 -0.279 0.451 112 42 52 0
2.0994 44.4247 -33.4346 0.448 -0.695 0.562 113 44 55 0
13.8260 44.6834 -28.6381 0.878 0.427 0.217 107 29 42 0
17.8730 44.1916 -27.1852 0.769 -0.438 0.465 107 29 43 0
17.8326 44.3948 -27.1307 0.760 -0.440 0.478 108 30 43 0
17.6483 44.6234 -27.1250 0.794 -0.314 0.521 109 29 43 0
17.3451 44.8737 -27.1594 0.911 -0.053 0.409 109 29 42 0
11.6216 47.9666 -28.3790 0.611 0.792 -0.010 97 24 37 0
10.3056 48.4346 -28.7441 0.882 0.408 0.236 93 22 34 0
13.2340 50.9298 -26.6995 0.407 -0.245 0.880 72 12 24 0
8.0688 52.7379 -28.1426 0.892 0.232 -0.388 66 13 21 0
8.9680 53.3821 -27.5573 0.819 0.574 0.027 65 15 22 0
2.9994 57.2701 -28.5982 0.386 -0.616 0.686 71 29 33 0
-6.3126 63.7852 -30.0657 0.220 0.891 0.398 199 184 169 0
-2.7985 63.2357 -28.8468 0.675 -0.350 0.649 202 189 173 0
-1.2566 63.0147 -28.3049 0.896 -0.383 -0.227 203 191 175 0
-15.2102 69.2076 -31.7475 0.528 0.817 0.232 210 197 181 0
21.2441 59.6012 -20.4637 0.571 -0.660 0.488 209 197 180 0
13.5511 63.7598 -22.1024 0.525 0.444 0.726 209 197 185 0
12.9616 64.1677 -22.1969 0.336 0.410 0.848 207 197 183 0
-6.8123 72.4278 -27.2553 0.428 -0.834 0.349 206 197 181 0
-6.4587 72.7870 -26.9882 0.383 -0.923 0.036 204 195 180 0
19.7544 69.7786 -17.5159 0.562 0.662 0.496 198 186 174 0
-10.5178 94.2806 -21.1292 0.843 -0.181 -0.507 187 174 165 0
18.0683 84.1188 -13.1966 0.390 0.673 0.628 179 165 152 0
3.3348 98.0695 -14.2495 0.445 0.659 0.607 171 156 145 0
1.6521 99.3036 -14.4949 0.480 0.659 0.579 173 157 144 0
1.5576 99.5893 -14.4333 0.882 0.334 0.332 174 157 145 0
1.5284 100.2944 -14.1994 0.669 0.148 -0.728 173 156 141 0
17.6228 90.7291 -11.0725 0.789 -0.607 -0.089 173 154 139 0
17.9198 90.7469 -10.9471 0.931 -0.358 -0.069 173 153 140 0
17.9927 90.9009 -10.8642 0.931 -0.362 -0.048 172 152 140 0
18.1194 91.2197 -10.7023 0.929 -0.364 -0.066 51 50 50 0
18.2747 91.3219 -10.6043 0.924 -0.374 -0.079 247 246 245 0
18.3489 91.4739 -10.5216 0.928 -0.365 -0.073 254 255 255 0
18.3779 91.6537 -10.4473 0.949 -0.315 -0.017 254 255 255 0
19.6756 -4.7252 -43.7329 0.853 -0.515 -0.083 235 214 199 0
-13.3912 -7.9167 -58.1886 0.714 -0.268 -0.647 230 218 196 0
-11.6283 -5.9955 -56.8080 0.545 -0.821 -0.172 231 218 204 0
-15.0569 -6.5483 -58.3841 0.242 0.362 0.900 233 220 206 0
-16.0410 -6.2662 -58.6830 0.261 0.349 0.900 233 224 209 0
-16.6716 -6.1540 -58.8984 0.983 -0.175 0.048 234 224 210 0
-6.3418 24.6450 -44.0008 0.937 -0.290 -0.193 232 226 212 0
-5.9502 24.8880 -43.7581 0.945 -0.282 -0.166 229 225 210 0
-5.9098 25.1273 -43.6585 0.907 -0.387 -0.164 230 224 210 0
-9.4212 25.3508 -44.9976 0.577 -0.798 -0.173 229 222 207 0
-1.8408 28.6272 -40.7972 0.927 0.318 0.196 113 72 78 0
4.0083 30.0495 -37.9413 0.910 0.055 0.410 101 49 55 0
5.9571 31.0703 -36.7994 0.360 -0.915 -0.185 104 44 52 0
6.9537 32.5370 -35.8862 0.648 -0.035 0.761 100 38 51 0
7.7173 32.9227 -35.4437 0.436 -0.284 0.854 105 42 53 0
9.8964 34.2648 -34.0968 0.820 -0.409 0.401 116 40 49 0
11.0218 34.5995 -33.5261 0.892 -0.450 0.048 116 39 49 0
9.9881 34.8890 -33.8424 0.675 -0.636 0.374 118 41 49 0
10.5570 35.4721 -33.4096 0.918 -0.292 0.269 112 37 44 0
10.6080 35.6771 -33.3177 0.921 -0.288 0.263 118 42 51 0
10.4958 36.1055 -33.2137 0.846 -0.393 -0.359 112 36 46 0
10.6863 36.2976 -33.0699 0.908 -0.090 0.408 113 36 46 0
13.3830 36.6637 -31.8542 0.901 -0.282 0.328 111 44 53 0
13.3331 36.8728 -31.8014 0.893 -0.137 0.428 110 42 51 0
8.9719 39.8516 -32.5237 0.093 -0.818 0.568 108 34 49 0
11.8555 40.3317 -31.1928 0.953 -0.186 -0.240 113 37 53 0
10.7975 41.7223 -31.1353 0.983 -0.114 -0.144 115 44 58 0
10.7528 41.9378 -31.0783 0.987 0.048 -0.153 116 45 57 0
10.8546 42.1325 -30.9694 0.991 -0.007 -0.135 119 48 59 0
10.8665 42.3399 -30.8923 0.991 -0.007 -0.135 114 43 54 0
4.2463 44.4054 -32.8444 0.500 -0.534 0.681 111 43 54 0
12.7682 46.7955 -28.5728 0.859 -0.252 0.446 103 25 39 0
10.4543 48.7000 -28.8431 0.920 0.380 -0.098 88 19 30 0
10.4138 48.9184 -28.7833 0.909 0.413 -0.052 89 20 32 0
10.3109 49.1497 -28.7443 0.909 0.413 -0.052 87 16 30 0
13.3245 50.7895 -26.9569 0.521 -0.115 0.846 74 14 26 0
13.3778 50.9824 -26.8682 0.573 -0.172 0.802 70 11 23 0
7.9606 52.8527 -28.4028 0.881 0.192 -0.432 65 14 20 0
3.2889 57.2913 -28.7418 0.386 -0.616 0.686 68 27 31 0
-4.2684 63.5356 -29.6163 0.302 0.857 0.417 200 185 169 0
-2.5163 63.2572 -29.0062 0.733 -0.393 0.554 202 187 172 0
-1.3481 63.3782 -28.4926 0.868 -0.437 -0.235 205 192 176 0
-6.9907 79.1869 -25.2626 0.362 -0.252 0.897 196 187 172 0
19.7920 69.8600 -17.7037 0.588 0.652 0.478 196 186 174 0
-10.4102 94.1102 -21.4439 0.742 0.445 -0.501 187 176 164 0
-6.8709 95.4946 -19.5334 0.694 -0.561 -0.450 183 171 155 0
20.8073 84.6535 -12.1405 0.739 -0.584 -0.334 176 162 149 0
0.6823 100.2493 -14.8290 0.552 0.655 0.516 173 155 142 0
1.0949 100.2310 -14.6688 0.950 0.222 0.220 173 156 142 0
17.9388 90.8513 -11.1391 0.924 -0.379 -0.057 172 152 139 0
18.0062 91.0087 -11.0571 0.924 -0.378 -0.059 171 151 139 0
18.0780 91.1631 -10.9743 0.929 -0.364 -0.066 111 99 92 0
18.1452 91.3201 -10.8925 0.929 -0.364 -0.066 51 50 50 0
18.3103 91.4162 -10.7924 0.914 -0.400 -0.069 247 246 245 0
18.3686 91.5780 -10.7125 0.931 -0.359 -0.066 254 255 255 0
18.3268 91.8020 -10.6513 0.951 -0.309 -0.034 254 255 255 0
19.7353 -4.6726 -43.9198 0.862 -0.496 -0.104 233 216 199 0
-15.9599 -6.1931 -58.9328 0.208 0.251 0.946 236 225 210 0
-7.3268 27.3709 -43.7388 0.519 -0.814 -0.261 146 120 116 0
-1.3736 28.4612 -40.9435 0.935 0.308 0.176 116 78 82 0
-1.8260 28.7022 -41.0431 0.922 0.325 0.211 112 74 78 0
4.4542 29.0052 -38.3894 0.395 -0.436 0.809 106 64 68 0
2.6662 29.2746 -39.0210 0.210 -0.498 0.842 104 59 65 0
4.0097 30.1226 -38.1805 0.920 0.091 0.381 102 51 57 0
7.5063 31.7194 -36.2055 0.107 -0.218 0.970 103 42 50 0
10.7001 35.5339 -33.5809 0.773 -0.501 0.389 115 40 48 0
10.6852 35.7444 -33.5137 0.921 -0.288 0.263 115 38 50 0
11.0815 36.3357 -33.1469 0.787 -0.608 0.099 116 39 50 0
13.3536 36.5354 -32.1554 0.957 -0.187 0.220 113 42 53 0
13.3864 36.7366 -32.0721 0.941 -0.256 0.221 114 44 54 0
13.3490 36.9446 -32.0148 0.952 -0.116 0.285 113 42 53 0
13.3999 37.1439 -31.9247 0.945 -0.138 0.296 112 41 52 0
11.3634 40.0559 -31.7367 0.355 -0.374 0.857 108 32 50 0
11.7556 40.4218 -31.4501 0.865 -0.257 0.431 109 35 52 0
12.1288 40.5805 -31.2434 0.896 -0.307 0.322 109 35 51 0
11.2560 40.9031 -31.4852 0.883 0.402 0.243 110 36 51 0
11.4949 41.0794 -31.3268 0.987 0.110 0.115 109 36 50 0
10.7732 41.8046 -31.3671 0.983 -0.114 -0.144 113 40 54 0
10.8094 42.0089 -31.2812 0.983 -0.114 -0.144 109 36 50 0
10.7554 42.2260 -31.2275 0.974 -0.144 -0.175 111 37 51 0
10.8389 42.4233 -31.1249 0.976 -0.132 -0.172 111 38 51 0
12.8040 46.8708 -28.7784 0.834 -0.320 0.449 101 25 39 0
13.2657 46.9891 -28.5498 0.746 -0.243 0.620 101 25 39 0
8.3039 52.8628 -28.5172 0.851 0.050 -0.523 63 12 19 0
7.9651 53.5871 -28.4023 0.755 0.639 -0.146 65 15 22 0
2.9197 57.2591 -29.1705 0.365 -0.826 0.429 66 25 29 0
-2.9335 63.0137 -29.5409 0.363 0.872 0.329 199 183 169 0
-1.7205 63.1267 -29.0094 0.736 -0.150 0.660 200 184 168 0
-1.9004 63.4138 -28.9824 0.770 0.501 0.395 202 186 170 0
-0.3420 63.6433 -28.2701 0.810 0.088 -0.580 205 191 177 0
1.5549 63.5236 -27.5422 0.893 -0.435 -0.112 207 194 178 0
8.6722 72.2858 -21.6022 0.471 0.774 0.423 199 190 173 0
19.6265 70.2218 -17.8764 0.612 0.640 0.465 193 183 171 0
19.5166 70.4632 -17.8369 0.632 0.638 0.440 194 184 171 0
19.7274 77.7704 -15.2061 0.706 -0.702 -0.096 190 178 166 0
-7.8241 92.4394 -21.2756 0.798 0.332 -0.502 185 176 161 0
-8.6658 95.3437 -20.6055 0.840 -0.308 -0.446 181 171 159 0
-7.6860 95.5702 -20.1291 0.714 -0.607 -0.348 181 172 157 0
-7.5098 95.7230 -20.0043 0.558 -0.756 -0.341 182 171 154 0
21.0307 84.2499 -12.4203 0.870 -0.488 -0.063 177 163 151 0
0.9236 100.2378 -15.0098 0.530 0.701 0.478 173 155 140 0
0.9987 100.4231 -14.9148 0.911 0.331 0.247 172 156 141 0
1.3049 100.4678 -14.7750 0.876 -0.399 -0.269 172 156 140 0
17.9653 90.9513 -11.3299 0.924 -0.378 -0.059 170 153 139 0
18.0233 91.1144 -11.2495 0.917 -0.393 -0.069 170 153 139 0
18.1038 91.2635 -11.1649 0.929 -0.364 -0.066 109 100 92 0
18.1673 91.4229 -11.0836 0.931 -0.360 -0.069 50 50 50 0
18.2805 91.5511 -10.9930 0.926 -0.366 -0.086 247 246 245 0
18.4019 91.6739 -10.9010 0.932 -0.358 -0.065 255 255 255 0
18.3526 91.9027 -10.8413 0.951 -0.309 -0.034 254 255 255 0
19.0782 91.6468 -10.6360 0.881 -0.464 -0.093 255 255 254 0
20.4049 -5.7664 -44.2573 0.812 0.573 0.110 255 255 255 0
19.4826 -4.9025 -44.3327 0.996 -0.066 0.059 229 215 196 0
19.7276 -4.6396 -44.1412 0.862 -0.496 -0.104 232 216 199 0
-13.6994 -6.8810 -58.5588 0.576 -0.787 -0.221 237 224 209 0
-15.7173 -6.3387 -59.1931 0.391 0.426 0.816 235 223 209 0
-17.0257 -6.1244 -59.6523 0.217 0.343 0.914 237 224 211 0
-17.7201 8.5305 -54.8314 0.893 -0.288 -0.346 235 226 211 0
-9.9665 24.5156 -46.1007 0.806 0.400 0.435 230 226 214 0
-10.9165 24.7541 -46.4052 0.958 0.173 0.228 229 227 214 0
-11.0078 25.0020 -46.3561 0.958 0.056 0.280 230 225 213 0
3.2030 29.1100 -39.1279 0.228 -0.681 0.696 108 67 71 0
3.2714 29.3310 -39.0230 0.220 -0.670 0.709 108 63 68 0
3.4966 29.7693 -38.7785 0.138 -0.446 0.885 105 59 62 0
3.7825 29.9820 -38.5877 0.459 -0.460 0.760 104 56 59 0
3.8194 30.2025 -38.4959 0.662 0.424 0.618 105 55 59 0
7.9220 31.7711 -36.2758 0.209 -0.115 0.971 104 44 48 0
10.8138 35.3889 -33.8361 0.772 -0.338 0.538 118 43 51 0
10.6644 35.6108 -33.8197 0.724 -0.342 0.599 118 42 51 0
10.9650 36.2119 -33.4878 0.564 -0.551 0.615 115 39 51 0
13.5059 37.0024 -32.1758 0.945 -0.163 0.283 114 42 53 0
13.5183 37.2054 -32.1000 0.945 -0.163 0.283 114 42 53 0
8.8562 37.8933 -33.7624 0.929 0.370 0.003 113 42 53 0
11.0408 41.8460 -31.4945 0.891 0.054 0.451 112 38 53 0
11.0232 42.0576 -31.4279 0.888 0.060 0.457 110 35 50 0
10.7659 42.3039 -31.4471 0.976 -0.132 -0.172 108 33 49 0
10.8091 42.5072 -31.3587 0.976 -0.132 -0.172 109 34 51 0
10.9107 42.7017 -31.2495 0.968 -0.196 -0.158 111 37 53 0
13.0465 44.2346 -29.8443 0.350 -0.658 0.666 111 45 57 0
2.5902 57.2156 -29.5889 0.782 0.500 -0.373 66 24 27 0
-2.9588 63.1259 -29.7942 0.362 0.873 0.328 198 181 168 0
-1.0037 63.0185 -29.0340 0.739 0.472 0.480 198 183 165 0
-1.9700 63.5391 -29.2469 0.875 0.342 0.341 202 186 170 0
20.8787 69.9801 -17.6821 0.949 0.133 -0.287 193 184 169 0
9.4183 76.3676 -20.1328 0.719 -0.682 -0.135 195 182 173 0
2.4075 99.2471 -15.0242 0.414 0.381 0.827 173 154 140 0
1.7771 99.8561 -15.0693 0.469 0.295 0.833 172 155 139 0
1.5737 100.2087 -15.0294 0.946 0.178 0.270 171 155 140 0
1.1597 100.6901 -15.0307 0.946 0.209 0.247 170 154 138 0
17.7393 91.0069 -11.6394 0.835 -0.532 -0.140 166 152 136 0
17.9791 91.0591 -11.5234 0.917 -0.393 -0.069 167 153 138 0
18.0514 91.2136 -11.4401 0.917 -0.393 -0.069 167 153 139 0
18.1253 91.3668 -11.3565 0.931 -0.360 -0.069 107 99 91 0
18.1922 91.5240 -11.2745 0.931 -0.360 -0.069 50 50 50 0
18.3106 91.6491 -11.1826 0.936 -0.349 -0.035 247 247 246 0
18.4276 91.7746 -11.0912 0.923 -0.379 -0.068 255 255 255 0
18.4972 91.9292 -11.0089 0.923 -0.379 -0.068 255 255 255 0
20.2539 91.0261 -10.6068 0.933 -0.356 -0.050 255 255 254 0
20.2212 -5.7886 -44.5689 0.821 0.558 0.121 255 255 255 0
19.4929 -4.8643 -44.5458 0.996 -0.072 0.058 229 214 198 0
19.7574 -4.5957 -44.3437 0.856 -0.512 -0.079 232 216 199 0
-10.5223 -1.6346 -55.7326 0.853 0.464 -0.239 235 223 209 0
-9.9652 24.5923 -46.3703 0.967 0.180 0.180 231 227 215 0
-10.4993 25.0830 -46.4185 0.930 0.345 0.127 229 225 213 0
-7.5164 27.5283 -44.3433 0.655 -0.696 -0.296 151 125 121 0
-7.4075 27.7695 -44.2147 0.645 -0.698 -0.311 143 113 112 0
1.8305 28.7687 -40.0775 0.311 -0.904 -0.294 114 75 81 0
3.9025 29.6077 -38.9354 0.134 -0.816 0.562 107 62 66 0
3.9691 29.8273 -38.8316 0.160 -0.615 0.772 107 59 62 0
4.1439 30.0430 -38.6848 0.398 -0.289 0.871 107 58 59 0
4.3030 30.2586 -38.5444 0.746 0.413 0.523 105 58 59 0
4.2877 30.4802 -38.4736 0.990 0.125 0.071 102 53 56 0
4.2430 30.7031 -38.4143 0.939 0.069 0.336 102 51 55 0
5.8412 30.8578 -37.7048 0.837 -0.361 0.412 103 48 54 0
7.9472 31.6278 -36.5728 0.280 -0.759 0.587 105 45 51 0
8.1406 31.8324 -36.4222 0.235 -0.747 0.621 105 44 50 0
7.2026 32.5274 -36.5649 0.303 0.186 0.935 100 38 49 0
13.4231 37.0843 -32.4264 0.925 -0.292 0.244 113 39 51 0
8.6262 37.9942 -34.0771 0.580 -0.286 0.763 110 38 49 0
10.8762 38.8062 -32.8715 0.717 -0.518 0.467 108 34 46 0
10.8833 41.9473 -31.7747 0.859 0.049 0.509 108 36 50 0
10.8918 42.1556 -31.6986 0.791 -0.071 0.608 107 35 49 0
-3.0123 63.2467 -30.0566 0.362 0.873 0.328 197 181 166 0
-0.8483 63.0761 -29.2284 0.863 0.259 0.434 200 184 168 0
-1.5699 63.5242 -29.3683 0.819 0.340 0.462 201 185 169 0
-1.2265 64.1207 -29.0197 0.858 0.072 0.508 204 191 175 0
-1.7803 64.5235 -29.1066 0.828 -0.022 0.560 207 192 177 0
20.0921 77.9916 -15.4446 0.218 -0.815 0.537 189 176 164 0
-6.1639 92.8391 -21.0434 0.318 -0.630 0.709 184 175 159 0
-6.0481 93.0231 -20.9318 0.318 -0.630 0.709 185 174 160 0
-5.8804 93.1799 -20.8085 0.322 -0.610 0.724 186 174 160 0
-5.7722 93.3669 -20.6989 0.322 -0.610 0.724 186 174 160 0
-8.3578 95.4531 -21.0330 0.708 -0.241 -0.663 184 172 158 0
4.2042 91.5535 -17.2384 0.003 0.095 0.995 179 166 150 0
1.5247 93.7088 -17.5869 0.686 -0.517 -0.512 182 167 153 0
1.9523 93.7011 -17.4141 0.769 -0.253 -0.587 179 166 151 0
2.4721 99.3405 -15.2370 0.274 0.365 0.890 176 157 143 0
2.3156 99.6634 -15.1887 0.413 0.385 0.825 174 155 142 0
17.7780 91.0998 -11.8287 0.837 -0.516 -0.180 168 153 137 0
18.0208 91.1500 -11.7116 0.929 -0.364 -0.066 167 152 136 0
18.0861 91.3088 -11.6296 0.922 -0.382 -0.068 167 151 136 0
18.1520 91.4670 -11.5474 0.931 -0.358 -0.069 108 97 90 0
18.2172 91.6253 -11.4655 0.931 -0.360 -0.069 52 50 50 0
18.3004 91.7723 -11.3802 0.909 -0.404 -0.101 246 246 245 0
18.4560 91.8737 -11.2811 0.913 -0.399 -0.089 255 254 255 0
18.5242 92.0293 -11.1989 0.923 -0.379 -0.068 255 255 255 0
19.2860 91.7491 -10.9841 0.865 -0.473 -0.165 255 255 254 0
20.2469 -5.7467 -44.7731 0.824 0.555 0.114 255 255 255 0
19.5081 -4.8246 -44.7567 0.996 -0.072 0.058 228 215 199 0
19.7586 -4.5601 -44.5613 0.856 -0.512 -0.079 232 216 200 0
-15.7576 -7.0079 -60.0604 0.998 0.032 -0.052 236 224 210 0
-16.5012 -6.4102 -60.1589 0.637 0.015 0.771 236 224 211 0
-14.0121 -3.3059 -58.0514 0.947 0.133 -0.292 233 224 209 0
-14.0862 -3.0682 -57.9992 0.957 -0.088 -0.278 231 222 207 0
-11.3840 -1.7555 -56.4277 0.819 0.449 -0.357 233 221 207 0
-10.1767 24.9148 -46.6425 0.912 0.307 0.272 230 226 214 0
-7.2993 27.8460 -44.4351 0.647 -0.690 -0.324 144 114 114 0
4.4950 29.6622 -38.9387 0.145 -0.805 0.575 108 62 67 0
6.5622 30.4661 -37.8063 0.609 0.084 0.788 104 54 57 0
6.4775 30.6866 -37.7644 0.609 0.084 0.788 103 52 55 0
7.9800 32.7712 -36.4189 0.923 -0.373 0.095 101 40 49 0
8.6762 37.8526 -34.3623 0.220 -0.878 0.424 112 39 50 0
8.9994 38.0323 -34.1665 0.215 -0.875 0.433 110 37 48 0
11.0598 38.8618 -33.0279 0.729 -0.506 0.460 107 34 45 0
11.5347 40.4747 -32.2704 0.860 0.500 0.102 106 33 48 0
10.5513 41.6531 -32.2656 0.711 -0.679 0.185 106 35 49 0
10.3728 41.8884 -32.2573 0.687 -0.664 0.296 105 34 49 0
11.0392 42.0044 -31.9420 0.853 0.050 0.519 106 35 50 0
11.2642 42.1814 -31.7876 0.703 -0.187 0.686 105 33 49 0
15.4351 43.1918 -29.7157 0.977 0.186 -0.102 106 38 53 0
13.3362 44.5516 -30.1078 0.519 -0.560 0.646 104 35 51 0
15.3792 44.6114 -29.2444 0.840 -0.419 0.345 101 28 46 0
8.5060 49.8658 -30.2492 0.196 0.220 0.956 86 17 28 0
4.8622 54.3838 -30.1786 0.065 0.661 0.747 64 14 24 0
5.8992 56.5524 -28.9957 0.782 -0.069 0.620 66 25 29 0
-7.3274 66.0895 -31.1293 0.561 0.765 0.318 204 191 175 0
-13.1987 69.1612 -32.4809 0.479 0.862 0.164 207 195 181 0
21.0577 70.0975 -18.0276 0.877 -0.423 -0.227 197 185 171 0
-5.0931 93.6298 -20.6175 0.530 -0.741 0.412 184 172 159 0
-7.0069 96.8434 -20.2877 -0.210 -0.289 0.934 180 168 152 0
2.2043 93.6892 -17.5875 0.730 -0.029 -0.682 179 165 152 0
2.1664 93.9389 -17.5161 0.788 -0.228 -0.572 178 164 152 0
4.0178 93.1314 -17.0338 0.759 0.091 -0.644 176 162 152 0
3.1262 99.0776 -15.3309 0.274 0.365 0.890 172 155 142 0
2.6536 99.5914 -15.3468 0.053 0.069 0.996 172 155 142 0
1.2532 100.9021 -15.4679 0.139 0.110 0.984 171 154 139 0
17.8039 91.2007 -12.0208 0.841 -0.511 -0.178 168 152 137 0
18.0325 91.2595 -11.9061 0.917 -0.390 -0.077 167 151 136 0
18.1134 91.4087 -11.8207 0.922 -0.382 -0.068 168 152 137 0
18.1802 91.5664 -11.7383 0.929 -0.364 -0.061 108 97 90 0
18.2488 91.7227 -11.6556 0.929 -0.364 -0.066 51 50 50 0
18.4098 91.8211 -11.5549 0.915 -0.393 -0.097 246 247 245 0
18.4840 91.9733 -11.4713 0.915 -0.393 -0.097 255 254 255 0
18.2568 92.3142 -11.4463 0.831 -0.480 -0.282 255 255 255 0
19.0478 92.0154 -11.2241 0.851 -0.491 -0.185 255 255 254 0
19.5233 -4.7849 -44.9679 0.996 -0.072 0.058 228 216 200 0
19.4209 -4.6234 -44.9541 0.991 -0.015 0.135 229 216 199 0
-10.1949 24.9920 -46.9214 0.911 0.305 0.277 231 226 214 0
-10.4836 25.2384 -46.9553 0.930 0.345 0.127 232 224 214 0
4.9931 29.4991 -39.0548 0.274 -0.910 0.310 111 69 72 0
6.9304 30.7405 -37.8193 0.892 -0.111 0.438 102 51 55 0
8.1043 31.9791 -36.9013 0.973 -0.219 0.079 103 43 55 0
8.2899 32.3978 -36.6786 0.996 0.055 -0.075 101 41 51 0
9.1991 38.0883 -34.3202 0.224 -0.869 0.442 109 35 45 0
10.0870 38.2056 -33.9112 0.271 -0.897 0.349 108 35 46 0
11.5489 40.3419 -32.5613 0.948 0.220 -0.232 103 30 47 0
11.2161 41.2214 -32.3930 0.997 0.060 -0.052 101 30 45 0
11.0599 41.4520 -32.3775 0.995 0.084 0.052 104 34 48 0
11.1590 42.0665 -32.1224 0.705 -0.347 0.618 103 35 50 0
15.1177 43.3201 -30.0445 0.992 0.127 -0.000 110 42 57 0
13.3804 44.8296 -30.2393 0.713 -0.694 0.097 100 29 47 0
9.7668 48.4172 -30.4883 0.873 -0.440 -0.211 84 16 29 0
12.8495 50.4976 -28.4859 0.391 -0.905 -0.165 80 19 29 0
5.1642 54.4048 -30.3118 -0.019 0.509 0.861 64 15 25 0
5.5392 54.5354 -30.1108 0.060 0.587 0.807 63 15 24 0
-7.2524 66.1768 -31.3610 0.560 0.770 0.307 202 189 173 0
-7.8276 66.5987 -31.4526 0.561 0.767 0.313 203 190 174 0
7.6566 72.2520 -23.0641 0.720 -0.556 -0.415 202 190 176 0
7.9639 72.3467 -22.9037 0.692 -0.613 -0.381 202 190 176 0
11.2238 75.4739 -20.4632 0.666 -0.711 0.225 191 181 167 0
-2.3302 91.1266 -20.6328 0.290 -0.871 0.397 186 177 162 0
14.4447 90.0879 -14.0393 0.443 0.254 0.860 174 161 145 0
11.7131 92.7415 -14.2479 0.524 0.787 0.324 172 158 145 0
17.8223 91.3063 -12.2146 0.837 -0.516 -0.180 167 154 140 0
18.0592 91.3599 -12.0978 0.917 -0.390 -0.077 166 153 139 0
18.1407 91.5088 -12.0121 0.922 -0.382 -0.068 166 152 138 0
18.2059 91.6675 -11.9298 0.923 -0.381 -0.056 107 98 90 0
18.2728 91.8249 -11.8473 0.918 -0.391 -0.068 51 50 50 0
18.4318 91.9245 -11.7467 0.919 -0.389 -0.059 246 247 245 0
18.5024 92.0789 -11.6636 0.919 -0.389 -0.059 255 255 255 0
18.5730 92.2332 -11.5807 0.919 -0.389 -0.059 255 255 255 0
19.1313 92.0797 -11.4026 0.891 -0.445 -0.091 255 255 254 0
19.5385 -4.7451 -45.1794 0.996 -0.072 0.058 229 217 201 0
19.4002 -4.5939 -45.1844 0.993 0.004 0.121 229 215 199 0
-16.7879 -4.2969 -60.1657 0.841 -0.179 -0.510 232 223 208 0
-18.8377 -3.6869 -60.8077 0.961 0.190 0.200 232 220 206 0
4.9487 30.0135 -39.1593 0.814 -0.286 0.505 109 61 67 0
6.0733 30.1934 -38.6280 0.772 0.275 0.573 108 57 64 0
8.2018 32.0466 -37.0955 0.999 0.037 -0.034 105 45 58 0
8.1963 32.2614 -37.0230 0.999 0.037 -0.034 105 45 56 0
8.2381 32.4736 -36.9317 0.996 0.048 -0.074 103 43 53 0
11.3947 40.4394 -32.8425 0.969 0.125 -0.215 101 30 45 0
11.1464 40.6809 -32.8619 0.948 0.271 -0.165 100 29 43 0
11.2484 41.0862 -32.6783 0.772 0.620 0.138 100 29 43 0
11.2142 41.3002 -32.6180 0.934 -0.294 -0.202 99 28 42 0
11.0889 41.5269 -32.5913 0.994 0.096 0.049 100 32 45 0
11.2814 42.1283 -32.3017 0.681 -0.351 0.642 103 35 48 0
11.6473 42.2845 -32.0948 0.524 -0.416 0.743 102 34 49 0
14.9100 43.4315 -30.3354 0.987 0.155 -0.041 111 44 59 0
15.1476 45.0118 -29.6861 0.866 -0.494 -0.077 96 22 37 0
11.6528 45.8325 -30.8572 0.271 -0.962 0.029 96 21 36 0
9.5274 48.1241 -30.9453 0.869 -0.261 0.421 84 13 27 0
9.7555 48.5049 -30.7176 0.873 -0.440 -0.211 83 16 29 0
6.6052 54.3706 -29.9886 0.096 0.646 0.757 63 16 24 0
3.2593 57.8795 -30.1617 0.918 0.285 -0.275 67 32 35 0
1.9249 58.4597 -30.5159 0.894 0.439 -0.087 67 35 34 0
2.4560 58.5449 -30.2648 0.897 0.436 -0.077 68 36 35 0
-7.3609 66.3204 -31.6498 0.544 0.761 0.354 201 189 172 0
-7.9059 66.7340 -31.7330 0.565 0.768 0.301 202 190 174 0
10.6173 76.2730 -20.6906 0.548 -0.215 0.808 191 183 165 0
-2.0452 91.1080 -20.8039 0.920 -0.321 -0.226 186 177 162 0
-1.7301 91.1813 -20.6470 0.362 -0.918 0.162 184 175 160 0
-1.8295 91.4690 -20.5883 0.308 -0.919 0.244 183 174 159 0
-2.0138 91.8015 -20.5493 0.436 -0.843 0.316 184 175 160 0
-2.8789 93.9212 -20.1719 -0.071 0.112 0.991 183 169 158 0
7.0570 90.5785 -17.1940 0.064 0.231 0.971 181 167 154 0
1.8592 94.3676 -18.0414 0.757 0.014 -0.653 177 163 153 0
10.7009 94.3190 -14.3728 0.557 0.812 0.173 172 155 145 0
18.0859 91.4604 -12.2897 0.917 -0.390 -0.077 161 152 137 0
18.1248 91.6357 -12.2124 0.848 -0.500 -0.175 162 152 136 0
18.2312 91.7689 -12.1217 0.917 -0.390 -0.077 106 98 90 0
18.3038 91.9229 -12.0379 0.917 -0.390 -0.077 50 50 50 0
18.4287 92.0437 -11.9437 0.892 -0.434 -0.124 246 247 245 0
18.5414 92.1718 -11.8521 0.893 -0.436 -0.113 255 255 255 0
18.6136 92.3250 -11.7687 0.917 -0.390 -0.082 255 255 255 0
19.1986 92.1542 -11.5843 0.886 -0.440 -0.142 255 255 254 0
19.4691 -4.7301 -45.4352 0.994 -0.032 0.102 231 217 202 0
19.4251 -4.5511 -45.3913 0.993 0.004 0.121 232 216 200 0
-17.6024 -4.4145 -60.8610 0.855 -0.113 -0.506 232 222 207 0
-18.3846 -3.5346 -60.8824 0.920 -0.301 0.250 230 220 205 0
4.7446 29.6516 -39.6365 0.965 -0.122 0.234 115 72 74 0
4.9636 30.0859 -39.3936 0.731 0.610 0.307 110 62 68 0
5.7366 30.2781 -39.0027 0.596 0.550 0.585 109 58 66 0
8.1028 32.3394 -37.2935 0.999 -0.031 -0.009 106 46 56 0
8.0372 32.5580 -37.2449 0.998 -0.005 0.064 104 44 54 0
13.9292 37.3275 -33.1153 0.988 -0.041 0.151 115 39 49 0
10.9355 40.7868 -33.1656 0.968 -0.040 -0.247 100 29 42 0
10.9549 41.2043 -33.0121 0.953 -0.160 -0.258 98 27 41 0
11.0908 41.3958 -32.8885 0.921 -0.327 -0.214 97 27 41 0
11.8567 42.3332 -32.2412 0.537 -0.371 0.758 102 34 47 0
11.8243 42.5464 -32.1806 0.356 0.461 0.813 103 35 49 0
15.1396 45.0928 -29.9047 0.871 -0.485 -0.079 94 20 35 0
12.9467 46.7181 -30.2579 0.536 -0.200 0.820 94 22 34 0
9.7442 48.5928 -30.9473 0.873 -0.440 -0.211 82 18 29 0
-3.5194 63.8192 -31.2050 0.373 0.866 0.334 194 178 162 0
-3.7367 64.1222 -31.1906 0.315 0.844 0.435 195 181 161 0
-7.8141 66.8168 -31.9612 0.571 0.756 0.321 201 189 173 0
-8.9698 67.4233 -32.2344 0.508 0.786 0.354 200 188 172 0
7.5935 73.1450 -23.3013 0.678 -0.571 -0.463 198 186 173 0
8.4120 75.1952 -22.2445 0.375 -0.184 0.908 195 185 170 0
7.5310 76.0069 -22.3311 0.376 -0.221 0.900 196 184 170 0
11.4772 75.1555 -20.9738 0.732 -0.680 -0.048 191 182 167 0
10.8079 76.0846 -20.9308 0.578 -0.092 0.811 192 183 168 0
10.6507 76.3667 -20.8985 0.590 -0.077 0.804 192 183 166 0
-2.0575 91.2429 -21.0453 0.920 -0.321 -0.226 187 176 163 0
-2.0022 91.4511 -20.9497 0.788 -0.480 -0.386 184 175 160 0
-1.8485 91.6076 -20.8307 0.788 -0.480 -0.386 183 174 159 0
7.8296 90.2738 -17.2393 0.061 0.274 0.960 180 166 155 0
1.6075 94.6379 -18.3275 0.757 0.014 -0.653 177 163 153 0
18.1126 91.5610 -12.4818 0.917 -0.390 -0.077 162 150 136 0
18.1854 91.7154 -12.3976 0.917 -0.390 -0.077 163 150 136 0
18.2580 91.8696 -12.3135 0.917 -0.390 -0.077 106 98 89 0
18.3306 92.0236 -12.2295 0.917 -0.390 -0.077 50 50 50 0
18.4430 92.1523 -12.1376 0.927 -0.354 -0.122 246 247 245 0
18.5488 92.2847 -12.0471 0.926 -0.363 -0.099 255 255 255 0
19.0923 92.3386 -11.8006 0.803 -0.569 -0.181 255 255 254 0
19.4919 -4.6880 -45.6435 0.994 -0.032 0.102 234 216 202 0
19.4501 -4.5082 -45.5985 0.993 0.004 0.121 235 216 201 0
-12.5643 -10.8149 -61.2817 0.715 -0.286 -0.638 233 220 201 0
-16.5291 -5.6794 -61.1645 0.070 0.099 0.993 232 223 206 0
-18.4200 -3.4834 -61.1967 0.939 -0.257 0.228 229 219 203 0
-18.6804 -3.0117 -61.1422 0.928 0.362 -0.086 227 220 204 0
7.9550 32.2054 -37.6616 0.914 -0.281 0.292 104 44 52 0
7.9283 32.4222 -37.5973 0.925 -0.150 0.348 104 43 52 0
7.9909 32.6340 -37.4973 0.944 -0.100 0.315 103 43 52 0
8.1531 32.8396 -37.3574 0.960 -0.278 0.036 101 42 53 0
8.2067 33.0513 -37.2611 0.916 -0.390 0.090 104 44 53 0
9.0329 33.6407 -36.7078 0.735 0.293 0.611 105 43 46 0
13.7819 37.2119 -33.4639 0.895 -0.445 -0.030 116 39 50 0
13.9638 37.3977 -33.3226 0.988 -0.041 0.151 117 39 50 0
11.2461 40.6146 -33.3478 0.984 0.051 0.173 99 28 43 0
11.0778 40.8465 -33.3380 0.994 0.051 0.097 100 30 43 0
7.7115 43.6698 -33.7734 0.866 0.343 -0.363 102 33 52 0
10.7254 43.4215 -32.5901 0.640 -0.745 -0.188 102 33 51 0
12.6465 43.7469 -31.6675 0.957 -0.095 0.274 109 43 56 0
15.1461 45.1713 -30.1185 0.869 -0.487 -0.085 94 20 36 0
13.6821 46.4569 -30.2878 0.701 -0.683 -0.208 102 29 41 0
13.7112 46.6570 -30.2059 0.756 -0.655 0.009 92 20 32 0
13.1443 46.9698 -30.3358 0.920 -0.244 0.307 86 16 26 0
13.8206 47.0469 -30.0241 0.740 0.661 0.123 82 15 25 0
9.7475 48.2522 -31.3205 0.869 -0.261 0.421 83 14 25 0
9.6044 48.4932 -31.2969 0.874 -0.443 -0.203 82 16 28 0
9.7328 48.6808 -31.1775 0.873 -0.440 -0.211 81 18 29 0
11.5178 51.6806 -29.3813 0.140 0.654 0.743 72 20 29 0
5.8659 54.9560 -30.6223 0.971 -0.232 -0.050 60 18 22 0
5.5617 57.9042 -29.7242 0.937 0.335 0.100 68 38 35 0
0.4880 59.5031 -31.3052 0.751 0.647 0.133 71 40 38 0
-3.0771 63.7939 -31.3136 0.402 0.867 0.296 194 178 160 0
-3.5032 64.1590 -31.3660 0.320 0.840 0.438 194 180 160 0
-7.8265 66.9321 -32.2221 0.570 0.706 0.420 201 189 173 0
-0.7947 90.4820 -21.0619 0.655 -0.452 -0.605 187 175 163 0
-0.9723 91.0438 -20.9411 0.415 -0.871 -0.263 186 175 161 0
11.4820 86.0417 -17.4353 0.921 -0.202 0.334 184 171 160 0
10.0416 87.2394 -17.6253 0.958 -0.156 -0.242 184 170 160 0
8.4678 96.3543 -15.1155 0.944 0.308 -0.117 170 154 142 0
18.2574 91.9875 -12.5111 0.849 -0.503 -0.159 105 97 89 0
18.3559 92.1253 -12.4216 0.849 -0.503 -0.159 49 50 49 0
18.4754 92.2496 -12.3280 0.892 -0.434 -0.124 246 246 245 0
18.5394 92.4084 -12.2458 0.898 -0.420 -0.131 255 255 255 0
19.5580 -4.4412 -45.7625 0.949 -0.315 0.005 235 216 201 0
-14.1515 -3.8177 -59.8229 0.996 -0.053 -0.075 230 221 206 0
-14.5541 -3.1386 -59.7570 0.579 -0.598 -0.554 230 219 205 0
-12.7032 3.2983 -56.7326 0.268 -0.342 0.901 228 219 210 0
-11.5628 3.7372 -56.0968 0.334 -0.479 0.812 228 220 209 0
-11.2467 4.0385 -55.8581 0.346 -0.583 0.735 229 220 208 0
-10.6199 4.3883 -55.4708 0.334 0.008 0.943 231 221 209 0
4.3462 29.3661 -40.4382 1.000 0.024 -0.011 119 78 79 0
4.5619 29.5815 -40.2719 0.999 0.020 -0.035 115 73 75 0
4.6592 29.8000 -40.1546 0.935 0.355 -0.014 111 69 71 0
7.6890 31.6452 -38.2291 0.599 -0.359 0.716 108 50 59 0
7.9551 32.2785 -37.8960 0.955 -0.140 0.261 105 45 53 0
7.9098 32.4966 -37.8393 0.988 0.000 0.155 107 47 55 0
7.8858 32.7135 -37.7739 0.987 -0.011 0.157 107 47 55 0
8.9472 34.7889 -36.6020 0.718 -0.530 0.452 117 43 50 0
13.6769 37.0914 -33.7974 0.908 -0.274 0.318 114 34 45 0
12.8529 42.5519 -32.2458 0.947 -0.013 0.322 102 34 48 0
11.4499 43.8094 -32.4023 0.894 0.383 0.234 103 36 51 0
12.5598 43.8409 -31.9212 0.896 -0.042 0.443 106 40 54 0
13.5911 43.8811 -31.4705 0.498 -0.854 0.149 105 39 53 0
13.5078 46.3653 -30.6411 0.714 -0.696 -0.077 130 54 67 0
13.6481 46.5450 -30.5191 0.705 -0.707 -0.053 113 38 52 0
13.6873 46.7434 -30.4334 0.757 -0.653 0.001 94 22 34 0
9.7554 48.3362 -31.5444 0.887 -0.249 0.390 79 13 23 0
9.7637 48.5476 -31.4673 0.879 -0.266 0.395 77 14 25 0
9.7381 48.7657 -31.4022 0.879 -0.355 -0.319 79 16 27 0
5.7019 55.0898 -30.9105 0.864 -0.497 0.081 61 20 24 0
7.5709 56.8043 -29.5221 0.974 -0.224 0.030 69 30 35 0
-3.4005 63.9966 -31.6656 0.407 0.898 0.168 194 177 159 0
-2.9417 64.0970 -31.4363 0.304 0.659 0.688 194 179 159 0
-7.9557 67.0839 -32.5203 0.569 0.762 0.309 200 188 174 0
5.8171 74.5273 -24.0961 0.778 -0.303 0.550 199 187 173 0
6.2815 74.5574 -23.8890 0.833 -0.230 0.503 199 187 173 0
7.5402 74.4750 -23.3846 0.774 0.624 0.109 197 185 171 0
9.8344 74.5909 -22.3725 0.136 -0.269 0.954 193 184 169 0
0.7970 78.9017 -24.6998 -0.054 -0.598 0.800 193 184 167 0
-0.4834 90.4483 -21.2231 0.695 -0.190 -0.693 188 176 164 0
11.5243 86.1357 -17.6384 0.904 -0.316 0.289 185 172 160 0
10.0086 87.1610 -17.9236 0.947 -0.232 -0.223 184 170 159 0
10.1100 87.3210 -17.8249 0.944 -0.283 -0.170 184 170 159 0
8.7847 88.2517 -18.0623 0.366 -0.463 0.808 184 170 159 0
6.7073 89.5953 -18.4745 0.488 0.593 0.641 184 170 159 0
0.4549 94.6150 -19.3754 0.324 0.011 0.946 182 168 155 0
18.1978 91.9427 -12.7907 0.863 -0.475 -0.173 164 149 134 0
18.3805 92.2277 -12.6142 0.849 -0.503 -0.159 50 51 50 0
18.4533 92.3813 -12.5299 0.924 -0.338 -0.179 247 247 245 0
18.4045 92.6114 -12.4704 0.993 -0.068 -0.098 254 255 255 0
19.0380 92.6082 -12.2033 0.853 -0.493 -0.169 255 255 254 0
19.5087 -4.4198 -46.0092 0.960 -0.281 0.014 232 218 200 0
-7.2088 -8.0720 -58.6561 0.325 -0.765 0.557 234 224 209 0
-13.9337 -4.9863 -60.4455 0.176 0.149 0.973 230 221 206 0
-12.3634 3.4154 -56.8528 0.320 0.110 0.941 227 219 208 0
-11.5770 3.7956 -56.3857 0.193 -0.497 0.846 228 220 208 0
-11.5257 4.0542 -56.2738 0.174 -0.500 0.849 229 221 208 0
4.3418 29.4391 -40.6830 1.000 0.024 -0.011 121 81 82 0
4.3188 29.6620 -40.6152 0.999 0.032 0.002 116 74 76 0
4.5330 29.8772 -40.4491 0.945 0.327 0.020 112 70 74 0
7.8086 31.7121 -38.4158 0.871 -0.281 0.402 106 48 57 0
7.9404 31.9212 -38.2869 0.919 -0.218 0.329 105 48 57 0
7.9762 32.1349 -38.1973 0.936 -0.314 0.161 107 48 55 0
8.0382 32.3471 -38.0971 0.945 -0.296 0.141 108 48 56 0
7.9445 32.5680 -38.0601 0.988 0.000 0.155 110 50 58 0
7.6796 32.7993 -38.0924 0.832 -0.033 -0.554 110 50 58 0
9.1376 33.3539 -37.2785 0.762 0.362 0.538 103 44 50 0
13.9295 40.8286 -32.6368 0.927 -0.268 -0.263 101 30 44 0
13.9084 41.0366 -32.5734 0.955 -0.202 -0.216 99 28 42 0
13.7916 41.2579 -32.5461 0.958 0.116 0.261 99 28 42 0
13.7015 41.4759 -32.5086 0.936 0.165 0.311 100 29 43 0
13.5931 41.6969 -32.4779 0.940 0.218 0.263 99 29 43 0
15.3325 41.6513 -31.7531 0.570 0.393 0.722 99 30 44 0
12.9466 43.4448 -32.1448 0.613 -0.790 -0.030 98 31 47 0
13.1386 43.6212 -32.0016 0.841 -0.144 0.521 99 33 47 0
13.0864 43.8363 -31.9490 0.893 -0.137 0.429 102 36 50 0
10.3845 45.3310 -32.5792 0.987 0.040 -0.153 94 28 42 0
12.1429 45.8656 -31.6445 0.683 -0.699 0.211 89 17 31 0
13.6488 46.6268 -30.7384 0.769 -0.640 -0.014 107 32 48 0
13.3903 46.8816 -30.7597 0.993 0.042 0.112 91 19 33 0
9.7904 48.2019 -31.8330 0.858 0.454 -0.241 79 12 24 0
9.9313 48.3873 -31.7085 0.875 -0.266 0.404 78 12 23 0
10.3404 48.5190 -31.4885 0.869 -0.483 0.110 76 12 25 0
5.8459 55.1481 -31.0950 0.734 -0.389 0.557 63 22 27 0
7.4843 56.7035 -29.8560 0.909 -0.379 0.175 67 27 31 0
-10.8540 63.0546 -35.4538 0.605 -0.796 0.021 74 43 41 0
-3.4237 64.1102 -31.9227 0.417 0.895 0.156 193 177 159 0
-8.0625 67.2292 -32.8123 0.572 0.779 0.256 199 187 171 0
7.8867 74.0034 -23.6638 0.810 -0.368 0.458 198 186 172 0
8.7627 74.0739 -23.2663 0.718 0.515 0.468 196 184 171 0
10.3594 74.2613 -22.5212 0.138 -0.274 0.952 193 182 170 0
9.5492 74.8205 -22.6716 0.634 -0.759 0.151 192 182 170 0
10.1050 87.0129 -18.1915 0.932 -0.260 0.253 187 173 164 0
10.1376 87.2101 -18.1090 0.932 -0.260 0.253 185 171 162 0
10.0769 87.4574 -18.0488 0.911 -0.343 -0.228 184 170 161 0
9.1088 88.1963 -18.2038 0.350 -0.442 0.826 183 169 160 0
0.8882 94.5043 -19.5087 0.311 0.035 0.950 183 168 155 0
11.0549 94.6008 -15.1463 0.914 0.070 0.400 171 155 141 0
12.5157 94.1345 -14.6866 0.766 -0.642 -0.013 171 155 140 0
18.1244 91.9064 -13.0740 0.871 -0.456 -0.184 165 150 135 0
18.2303 92.0403 -12.9823 0.883 -0.431 -0.186 164 150 134 0
18.3093 92.1906 -12.8963 0.857 -0.487 -0.168 105 97 89 0
18.4060 92.3297 -12.8068 0.857 -0.487 -0.168 50 51 50 0
18.4532 92.4994 -12.7276 0.905 -0.330 -0.269 247 247 245 0
18.5455 92.6406 -12.6391 0.911 -0.345 -0.228 254 255 255 0
19.9558 -4.0628 -45.9273 0.801 -0.594 -0.077 229 218 200 0
-12.2520 2.9912 -57.2582 0.770 -0.420 -0.480 230 220 208 0
-11.5219 3.3645 -56.8158 0.871 -0.290 -0.397 229 220 208 0
-11.8471 3.5614 -56.8864 0.347 0.196 0.917 228 220 207 0
-4.2071 29.5286 -44.5797 0.960 0.246 -0.134 124 89 93 0
4.1864 29.7394 -40.9138 0.988 0.147 0.040 117 76 79 0
4.5025 29.9515 -40.7047 0.945 0.324 0.052 113 71 75 0
7.7247 31.7891 -38.6860 0.950 -0.301 0.080 109 51 60 0
7.9157 31.9954 -38.5325 0.936 -0.350 -0.024 108 50 58 0
8.0972 32.2015 -38.3830 0.942 -0.333 -0.034 107 47 56 0
8.1206 32.4158 -38.2984 0.940 -0.341 -0.026 108 47 56 0
7.6009 32.6613 -38.4354 0.857 -0.029 -0.514 107 45 54 0
9.6334 32.9696 -37.4582 0.622 -0.106 0.776 104 44 52 0
9.5964 33.1847 -37.3992 0.622 -0.106 0.776 104 45 52 0
9.4903 33.4045 -37.3681 0.539 0.019 0.842 104 45 51 0
9.3852 33.6245 -37.3365 0.773 0.190 0.605 104 43 48 0
13.4629 40.3508 -33.2504 0.914 -0.075 0.398 102 28 42 0
11.8475 40.7703 -33.7959 0.358 0.685 0.634 103 31 44 0
13.9204 40.9069 -32.8611 0.885 -0.250 -0.393 101 31 45 0
13.9042 41.1143 -32.7958 0.953 -0.217 -0.212 102 31 45 0
13.8166 41.3318 -32.7576 0.939 0.155 0.307 103 31 45 0
13.7646 41.5447 -32.7058 0.939 0.155 0.307 103 31 45 0
13.6339 41.7689 -32.6837 0.940 0.218 0.263 103 30 45 0
13.3669 43.6644 -32.1384 0.997 -0.043 0.062 99 32 46 0
13.5508 43.8411 -31.9982 0.933 -0.315 0.177 99 34 47 0
10.5061 48.3596 -31.7290 0.581 -0.697 0.420 77 11 25 0
10.5717 48.5585 -31.6317 0.826 -0.548 0.132 76 12 27 0
6.0439 54.7516 -31.4145 0.907 -0.420 -0.027 61 18 25 0
5.8093 55.0299 -31.4180 0.803 -0.054 0.594 63 22 28 0
5.9673 55.2118 -31.2871 0.848 -0.305 0.433 64 23 29 0
7.5917 56.5515 -30.1256 0.909 -0.040 0.415 64 25 28 0
7.3662 56.8290 -30.1256 0.857 -0.012 0.515 65 26 29 0
-9.9423 68.6833 -33.4087 0.810 0.586 0.017 200 189 173 0
8.4233 73.8895 -23.7360 0.673 -0.551 0.494 198 186 172 0
-8.0372 86.4243 -26.4194 0.904 -0.017 -0.426 189 180 165 0
10.1832 86.8747 -18.4639 0.847 -0.476 -0.238 184 170 160 0
9.6559 87.3725 -18.5164 0.721 -0.544 -0.428 183 169 160 0
9.7220 87.5525 -18.4254 0.723 -0.542 -0.429 185 170 163 0
10.1152 87.5555 -18.2561 0.844 -0.386 0.371 184 170 161 0
9.4063 88.1549 -18.3509 0.359 -0.470 0.806 183 169 160 0
5.3458 91.0294 -19.0886 0.543 0.692 0.477 184 167 156 0
4.6331 91.6453 -19.1793 0.550 0.682 0.482 184 166 154 0
-6.8990 100.7061 -20.9622 -0.024 0.174 0.984 177 165 151 0
-0.6088 98.2920 -19.1099 0.732 -0.675 -0.088 177 161 151 0
2.5433 99.2164 -17.4391 0.511 -0.828 -0.231 174 158 145 0
2.7600 99.3148 -17.3121 0.511 -0.828 -0.231 171 157 144 0
11.0563 94.7243 -15.3585 0.979 0.122 0.162 169 155 141 0
10.9749 94.9875 -15.3018 0.967 0.195 0.164 168 155 139 0
13.2611 94.2199 -14.5904 0.573 0.723 0.386 167 154 138 0
15.8849 93.0122 -13.8876 0.692 -0.682 -0.238 167 151 136 0
18.1669 91.9978 -13.2639 0.877 -0.440 -0.195 165 151 136 0
18.2583 92.1408 -13.1750 0.877 -0.440 -0.195 164 150 135 0
18.3308 92.2952 -13.0902 0.857 -0.487 -0.168 105 97 89 0
18.4275 92.4342 -13.0004 0.857 -0.487 -0.168 50 50 50 0
18.4225 92.6371 -12.9320 0.899 -0.365 -0.244 247 247 245 0
18.5855 92.7336 -12.8286 0.904 -0.351 -0.244 254 255 255 0
20.0495 -4.0000 -46.0981 0.823 -0.563 -0.076 231 220 203 0
-14.3008 -2.6600 -60.4118 0.260 0.440 0.859 225 218 203 0
-11.1530 3.2363 -57.0057 0.723 -0.369 -0.584 230 220 208 0
-11.3385 3.4554 -57.0092 0.884 -0.271 -0.382 231 221 209 0
-7.3869 4.3546 -54.9961 0.035 -0.038 0.999 230 221 209 0
4.2069 29.8121 -41.1492 0.986 0.147 0.074 118 77 82 0
4.1778 30.0360 -41.0838 0.989 0.139 0.059 115 72 76 0
4.0554 30.2633 -41.0574 0.985 -0.057 0.161 115 70 75 0
7.5842 30.3529 -39.5079 0.542 0.141 0.829 110 66 69 0
7.5161 30.5722 -39.4609 0.552 0.158 0.819 106 63 65 0
7.6307 31.8670 -38.9610 0.908 -0.112 -0.404 109 52 59 0
7.4697 32.0921 -38.9520 0.930 -0.110 -0.350 110 51 59 0
9.7325 33.4619 -37.5017 0.391 0.086 0.916 106 47 52 0
13.6007 40.4097 -33.4197 0.909 -0.068 0.412 102 28 43 0
11.6029 40.8810 -34.1153 0.480 0.727 0.491 102 28 43 0
13.8368 41.2010 -33.0428 0.955 -0.202 -0.216 107 36 50 0
13.8875 41.3994 -32.9519 0.957 0.111 0.268 114 43 57 0
13.8176 41.6149 -32.9070 0.945 0.132 0.298 110 37 51 0
13.6747 41.8411 -32.8898 0.940 0.218 0.263 102 28 43 0
13.3143 43.7527 -32.3797 0.997 -0.050 0.054 98 31 43 0
13.5518 43.9207 -32.2190 0.923 -0.334 0.190 96 31 43 0
12.3171 45.9990 -32.0271 0.640 -0.734 0.228 93 23 34 0
13.1339 46.0596 -31.6546 0.591 -0.793 0.146 92 21 34 0
13.3812 46.2214 -31.4919 0.645 -0.757 0.105 91 21 32 0
11.0739 49.5992 -31.3093 0.882 0.392 -0.262 74 11 26 0
6.7225 54.8984 -31.3376 0.858 0.463 0.222 62 20 28 0
6.7340 56.2128 -30.8753 0.663 0.292 0.689 64 23 25 0
-10.9860 70.6510 -33.4757 0.286 0.553 0.783 205 193 179 0
14.0525 68.3511 -23.5026 0.735 -0.673 -0.079 205 191 178 0
13.8731 68.6273 -23.4837 0.823 -0.521 0.226 205 191 178 0
14.2509 68.6872 -23.3003 0.735 -0.577 0.355 204 192 178 0
14.4144 68.8296 -23.1804 0.518 -0.735 0.438 203 191 177 0
6.2365 74.4634 -24.7387 0.995 -0.017 0.097 199 187 173 0
9.1869 73.6806 -23.7417 0.380 0.878 0.292 198 186 172 0
16.8759 71.4936 -21.1943 0.714 -0.014 0.700 196 184 172 0
16.7663 78.0028 -18.9765 0.373 0.792 0.483 186 176 164 0
19.6156 79.7702 -17.1355 -0.136 -0.115 0.984 187 173 160 0
-3.7162 92.5152 -22.7397 0.718 -0.358 0.597 189 175 162 0
10.1485 87.0117 -18.6891 0.862 -0.448 -0.236 185 171 161 0
9.6988 87.6843 -18.6486 0.717 -0.606 -0.343 185 171 162 0
4.8387 91.6576 -19.3571 0.566 0.694 0.445 184 167 156 0
4.0797 92.3024 -19.4594 0.576 0.700 0.422 183 167 154 0
-4.8428 99.6703 -20.7347 -0.019 0.188 0.982 176 164 150 0
11.2421 94.7356 -15.5309 0.998 0.052 0.031 170 156 143 0
12.3870 94.4599 -15.1342 0.939 -0.299 -0.168 169 155 141 0
12.4564 94.6284 -15.0458 0.939 -0.299 -0.168 168 155 140 0
18.2635 92.2556 -13.3727 0.856 -0.491 -0.164 164 150 134 0
18.4481 92.5396 -13.1945 0.857 -0.493 -0.150 50 51 50 0
18.4490 92.7388 -13.1248 0.894 -0.371 -0.252 247 247 245 0
18.5509 92.8740 -13.0339 0.891 -0.446 -0.085 254 255 255 0
17.9508 -5.9366 -47.9128 0.954 -0.273 -0.123 255 255 255 0
19.9207 -4.0012 -46.3874 0.845 -0.493 -0.209 234 221 207 0
-10.3839 -4.7752 -59.7642 -0.110 -0.641 0.760 231 221 209 0
-13.3126 -3.1605 -60.4691 0.272 0.462 0.844 224 216 203 0
-14.4958 -3.1552 -60.9790 0.329 0.513 0.793 224 216 202 0
-10.8053 3.3547 -57.1178 0.723 -0.484 -0.492 231 221 209 0
-8.8461 5.1583 -55.6428 0.141 0.412 0.900 233 225 212 0
-7.4882 5.6140 -54.8969 0.203 0.214 0.955 232 224 211 0
-7.1126 5.9148 -54.6298 0.117 -0.449 0.886 232 224 212 0
-5.9795 6.8099 -53.8283 -0.093 -0.612 0.785 232 224 212 0
-5.1642 29.7130 -45.5069 0.930 0.330 -0.160 126 93 94 0
