ply
format ascii 1.0
element vertex 845
property float x
property float y
property float z
property float nx
property float ny
property float nz
property uchar diffuse_red
property uchar diffuse_green
property uchar diffuse_blue
property uchar class
end_header
-5.7999 66.9076 -32.0964 0.697 0.462 0.548 200 188 172 0
-2.4980 78.9571 -26.9938 0.438 -0.865 0.243 197 185 171 0
18.3928 88.2669 -15.5846 0.390 0.622 0.679 173 161 147 0
17.0792 89.3257 -15.7891 0.393 0.629 0.671 172 160 146 0
17.7448 93.1594 -14.3224 0.976 -0.171 -0.132 166 149 133 0
17.7895 93.3425 -14.2471 0.974 -0.183 -0.132 167 148 133 0
17.8297 93.5285 -14.1727 0.976 -0.171 -0.132 108 96 88 0
17.8721 93.7130 -14.0979 0.976 -0.171 -0.132 50 50 49 0
17.9955 93.8410 -14.0077 0.934 -0.299 -0.197 247 247 246 0
10.6916 -6.7362 -48.5940 0.965 -0.107 -0.241 232 216 199 0
-15.6011 -6.4194 -59.2573 0.919 0.390 -0.062 235 224 211 0
-15.0426 -6.0639 -58.9178 0.872 0.478 -0.102 234 224 212 0
-9.0359 0.7838 -54.3244 0.076 -0.641 0.764 227 217 205 0
-13.2352 6.5628 -54.2417 0.930 -0.143 -0.340 233 223 210 0
-8.5674 26.5910 -46.0873 0.882 -0.379 -0.280 228 222 208 0
-4.0491 26.8569 -44.1550 0.790 0.460 0.405 227 218 205 0
-4.2143 27.1011 -44.1465 0.789 0.490 0.370 224 213 201 0
-4.4387 27.3491 -44.1610 0.737 0.584 0.341 190 176 165 0
-4.7344 27.6019 -44.2032 0.749 0.580 0.320 163 144 135 0
-7.3258 27.9857 -45.1442 0.965 -0.260 0.037 152 131 123 0
-3.8471 28.9679 -43.4142 0.681 -0.667 -0.303 124 84 88 0
7.1340 28.4609 -39.0775 0.881 -0.421 0.216 119 78 80 0
7.3054 28.6647 -38.9438 0.889 -0.378 0.258 118 74 77 0
4.0215 30.0012 -39.8713 0.860 0.500 -0.098 110 61 67 0
6.3054 30.2565 -38.8569 0.913 -0.403 -0.060 109 55 61 0
6.3322 30.4720 -38.7787 0.918 -0.342 -0.201 105 52 58 0
6.3563 31.3410 -38.4979 0.821 -0.382 -0.424 101 46 52 0
10.3257 34.1406 -36.0004 0.896 0.287 0.338 114 44 51 0
10.2418 34.3622 -35.9657 0.896 0.287 0.338 112 39 47 0
10.2633 34.5711 -35.8917 0.965 -0.036 0.261 117 40 50 0
12.1286 38.0958 -34.0294 0.720 -0.024 0.693 113 36 47 0
12.3666 38.2671 -33.8786 0.899 0.090 0.429 111 34 44 0
13.2886 38.3275 -33.4824 0.810 -0.173 0.561 110 33 44 0
12.2428 44.3701 -32.0267 0.764 0.388 0.516 99 33 46 0
10.9973 45.2753 -32.2543 0.864 0.032 -0.502 88 22 36 0
13.7238 46.1345 -30.8704 0.795 -0.554 0.245 91 17 30 0
13.8486 46.3137 -30.7635 0.853 -0.465 0.238 105 31 44 0
13.9340 46.5017 -30.6699 0.839 -0.488 0.242 101 27 39 0
13.9341 46.7097 -30.6050 0.873 -0.368 0.319 88 16 28 0
11.0672 50.3883 -30.6317 0.898 -0.439 0.033 76 18 30 0
11.2592 51.6226 -30.1683 0.759 -0.566 -0.322 71 20 28 0
5.9886 57.1280 -30.6093 0.993 -0.114 0.034 67 33 38 0
-4.4999 64.0786 -32.7356 0.349 0.908 0.231 191 172 160 0
-4.0416 64.1688 -32.5199 0.462 0.846 0.264 192 173 161 0
-6.6422 66.0605 -32.9946 0.683 0.218 0.697 196 180 164 0
-5.8715 66.5406 -32.5295 0.734 0.347 0.584 199 184 168 0
-5.6440 66.9587 -32.3060 0.695 0.231 0.680 199 187 171 0
-6.7339 68.1049 -32.3948 0.517 0.588 0.622 202 190 174 0
-6.9389 68.4319 -32.3768 0.570 0.452 0.686 202 190 174 0
-2.6297 67.3406 -30.9532 0.085 0.051 0.995 203 191 175 0
13.3523 70.4270 -23.4493 0.595 -0.800 0.080 198 186 172 0
-2.4933 78.8240 -27.3174 0.393 -0.844 0.365 196 185 173 0
-2.1078 78.8922 -27.1384 0.361 0.063 0.930 196 184 172 0
-2.1309 79.1493 -27.0677 0.465 -0.668 0.581 195 184 171 0
20.4054 87.0842 -15.3695 0.250 0.508 0.824 174 162 148 0
17.3325 89.2777 -15.9435 0.384 0.633 0.672 173 161 147 0
17.7016 91.8112 -15.0026 0.709 0.567 -0.420 168 153 140 0
18.2379 92.7268 -14.4976 0.789 0.541 0.290 165 149 131 0
17.7396 93.2819 -14.5285 0.977 -0.167 -0.135 166 148 132 0
17.8299 93.6475 -14.3776 0.977 -0.165 -0.135 108 96 88 0
17.8655 93.8368 -14.3040 0.977 -0.167 -0.135 50 50 49 0
-21.9035 -4.4695 -61.5427 0.144 -0.872 0.467 233 222 209 0
-18.6083 -3.6479 -59.9307 0.574 -0.579 0.579 232 222 207 0
-10.0342 0.4477 -55.1263 0.411 -0.905 0.110 228 218 206 0
-8.6255 25.9348 -46.6051 0.894 -0.179 -0.411 230 225 211 0
-3.9906 26.9255 -44.3891 0.740 0.435 0.513 227 218 205 0
-4.0430 27.1641 -44.3364 0.746 0.460 0.482 224 213 201 0
-4.2999 27.4139 -44.3642 0.857 0.374 0.356 203 190 178 0
0.1615 28.3178 -42.2467 0.609 -0.789 0.076 135 103 101 0
6.9875 28.5380 -39.3692 0.903 -0.424 0.068 120 80 82 0
7.1267 28.7444 -39.2476 0.903 -0.307 0.301 117 75 78 0
8.3060 28.8755 -38.7215 0.933 -0.301 0.199 116 73 79 0
6.1841 30.7720 -39.0037 0.891 0.078 -0.447 102 50 56 0
6.3009 31.4161 -38.7550 0.813 -0.369 -0.451 102 49 55 0
10.3214 34.6347 -36.0976 0.965 -0.036 0.261 118 42 54 0
12.7238 38.9078 -33.7776 0.745 0.111 0.658 107 29 45 0
0.7289 46.2184 -36.4356 0.053 -0.999 -0.008 97 33 44 0
11.6359 45.6387 -32.1280 0.731 -0.492 -0.472 86 20 33 0
10.5064 46.1058 -32.4472 0.766 -0.496 -0.408 87 18 33 0
10.7310 46.2691 -32.3039 0.732 -0.550 -0.403 89 17 33 0
13.8866 46.1755 -31.0346 0.869 -0.376 0.322 89 17 28 0
13.9405 46.3711 -30.9514 0.869 -0.376 0.322 93 20 31 0
13.9753 46.5710 -30.8748 0.878 -0.360 0.315 93 20 31 0
14.0267 46.7669 -30.7926 0.873 -0.368 0.319 86 15 26 0
6.3394 57.1113 -30.7327 0.995 -0.024 -0.097 66 32 38 0
-6.6084 66.1556 -33.2426 0.716 0.171 0.677 196 179 163 0
-5.6095 66.5543 -32.7073 0.712 0.312 0.629 201 183 168 0
-2.6813 67.4657 -31.2184 0.237 0.023 0.971 203 191 175 0
-1.4831 67.2630 -30.7885 0.322 0.315 0.893 203 191 175 0
-3.9678 68.4371 -31.4451 0.597 -0.335 0.729 205 192 178 0
-4.4272 68.8574 -31.5032 0.746 0.155 0.648 206 192 179 0
-7.0314 94.4534 -24.5993 0.897 0.272 0.349 186 174 158 0
-11.9758 97.7884 -25.5948 0.372 -0.902 -0.219 186 174 158 0
17.3754 89.3655 -16.1413 0.273 0.596 0.755 173 161 147 0
17.2438 92.2372 -15.3006 0.739 0.520 -0.427 169 154 141 0
17.7807 93.5868 -14.6592 0.977 -0.165 -0.135 166 145 131 0
17.8223 93.7721 -14.5843 0.977 -0.165 -0.135 107 95 87 0
17.8639 93.9574 -14.5095 0.977 -0.165 -0.135 50 50 50 0
-15.5161 -7.0480 -60.0175 0.926 0.376 -0.043 235 226 211 0
-22.5714 -4.7912 -62.2333 0.104 -0.808 0.580 232 222 210 0
-8.9043 25.2854 -47.2126 0.748 -0.465 -0.474 232 227 215 0
-3.6730 26.7458 -44.5936 0.753 0.347 0.558 227 219 206 0
-3.8011 26.9877 -44.5713 0.753 0.347 0.558 228 218 206 0
-3.8523 27.2261 -44.5182 0.735 0.478 0.482 225 214 202 0
-7.1934 28.3690 -45.5445 0.842 -0.416 -0.344 146 125 117 0
7.0938 28.8142 -39.4954 0.916 -0.385 0.116 117 76 78 0
2.5809 29.8071 -41.0531 0.968 0.245 -0.044 114 65 74 0
8.2034 31.9541 -38.0586 0.738 -0.673 0.055 103 47 52 0
1.3709 46.1697 -36.4578 0.048 -0.998 0.035 95 31 42 0
11.6595 45.7130 -32.3438 0.866 -0.500 -0.020 83 20 33 0
13.7108 46.7131 -31.1838 0.853 0.518 0.061 87 15 26 0
13.4613 49.0785 -30.5503 0.812 0.576 0.098 69 14 21 0
6.4002 57.4098 -30.8768 0.887 0.373 -0.271 68 36 39 0
-4.7870 64.8801 -33.1783 0.483 0.846 0.224 192 175 159 0
-4.8566 66.3926 -32.7360 0.734 0.314 0.603 201 183 168 0
-5.1969 66.7630 -32.7614 0.526 0.391 0.756 200 185 170 0
-4.4386 66.7387 -32.4553 0.358 0.021 0.933 200 187 171 0
-4.9069 67.9021 -32.2867 0.335 0.027 0.942 201 189 173 0
-2.4359 67.2364 -31.4718 0.056 -0.027 0.998 202 190 174 0
-2.2945 67.4279 -31.3537 0.223 0.014 0.975 203 191 175 0
-4.4343 68.9684 -31.7591 0.718 0.052 0.694 205 193 179 0
-4.2949 69.4117 -31.5634 0.918 -0.385 0.099 205 193 179 0
21.6003 65.6864 -22.0111 0.608 -0.791 0.065 203 189 176 0
-6.9251 94.5257 -24.8301 0.893 0.276 0.355 185 173 158 0
-8.8714 25.3571 -47.4674 0.747 -0.468 -0.473 233 227 215 0
-3.5378 27.0460 -44.7237 0.786 0.309 0.535 225 216 204 0
1.9818 29.6979 -41.6027 0.864 0.492 -0.109 115 70 76 0
8.2808 32.0161 -38.2615 0.740 -0.670 0.056 104 46 52 0
12.4647 36.3822 -35.1625 0.996 -0.021 0.082 122 42 52 0
12.5068 36.5847 -35.0820 0.941 -0.198 0.276 122 42 51 0
12.4609 36.7999 -35.0341 0.938 -0.214 0.272 118 39 46 0
14.1061 40.8885 -33.0772 0.806 -0.590 -0.044 103 30 44 0
11.5651 46.2396 -32.4683 0.691 -0.718 -0.081 86 18 31 0
14.4611 45.7837 -31.4058 0.539 -0.207 0.816 87 17 31 0
14.8184 46.3216 -31.0898 0.279 -0.057 0.959 86 16 27 0
13.8971 48.6287 -30.7548 0.434 0.551 0.713 70 14 22 0
11.3072 49.9334 -31.4257 0.811 0.574 0.114 68 13 19 0
8.9186 54.5069 -30.9955 0.810 0.583 -0.062 62 20 24 0
9.4572 54.5665 -30.7529 0.690 -0.701 -0.179 64 22 26 0
6.3656 57.5134 -31.1214 0.853 0.448 -0.267 68 36 39 0
-3.8299 66.8719 -32.4483 0.319 -0.003 0.948 199 186 170 0
-3.3843 67.6941 -32.0071 0.433 0.239 0.869 202 190 174 0
-3.6680 68.0460 -32.0155 0.424 0.223 0.878 203 191 175 0
-4.0009 68.4176 -32.0383 0.434 0.302 0.849 204 192 176 0
-4.5014 69.5995 -31.8786 0.765 -0.497 0.410 205 193 179 0
12.9176 69.8421 -24.5590 0.623 -0.328 -0.711 203 187 174 0
13.2247 69.9216 -24.4065 0.620 -0.328 -0.713 202 188 175 0
-1.2878 79.1034 -27.5838 0.332 -0.011 0.943 194 184 172 0
14.5068 92.1204 -16.9634 0.436 0.644 0.629 173 160 143 0
16.2503 91.6272 -16.3918 0.376 -0.173 0.910 169 157 141 0
15.8752 92.0929 -16.4029 0.413 0.288 0.864 170 157 141 0
17.8071 94.0221 -14.9990 0.977 -0.165 -0.135 106 94 87 0
-13.6625 -11.2312 -61.1449 0.273 0.131 0.953 233 218 203 0
-13.6666 -7.5639 -60.0056 0.821 -0.171 0.545 233 222 211 0
-25.2336 -7.8072 -64.9171 0.415 -0.625 0.662 235 225 210 0
-26.1804 -7.4517 -65.2023 -0.005 -0.001 1.000 233 223 208 0
-9.1149 25.9300 -47.6823 0.989 -0.123 -0.077 232 225 213 0
-8.9158 26.6578 -47.3726 0.823 -0.554 -0.125 230 222 211 0
-3.2469 27.1027 -44.8642 0.735 0.443 0.514 224 214 202 0
-6.2085 29.6638 -45.3056 0.930 0.246 -0.272 124 85 88 0
-1.5460 29.8027 -43.3131 0.948 0.309 -0.076 117 75 80 0
5.7508 30.5807 -40.0205 0.946 -0.168 -0.279 108 59 65 0
6.4280 31.1781 -39.5515 0.906 -0.121 0.406 104 49 57 0
8.0857 32.1053 -38.5701 0.779 -0.391 0.491 104 45 51 0
10.1922 34.0144 -37.0954 0.976 0.207 0.069 106 41 50 0
12.5327 36.2352 -35.4260 0.993 -0.013 0.118 119 39 50 0
12.5390 36.4429 -35.3588 0.993 -0.012 0.121 121 41 50 0
12.5457 36.8591 -35.2265 0.943 -0.209 0.259 122 42 50 0
12.6038 37.0592 -35.1400 0.936 -0.200 0.290 120 40 47 0
14.1327 40.9579 -33.2878 0.786 -0.618 0.002 101 27 42 0
-0.1197 46.1859 -37.6198 0.100 -0.994 -0.045 97 30 43 0
14.5872 48.1170 -30.8705 0.702 0.484 0.521 71 12 24 0
11.6127 51.8645 -30.9481 0.713 -0.693 -0.108 64 14 23 0
5.0225 58.9438 -31.5008 0.900 0.422 -0.107 77 50 49 0
6.1586 63.7974 -29.5158 0.273 0.359 0.892 201 188 172 0
-4.4269 69.6801 -32.1111 0.771 -0.424 0.475 204 192 178 0
12.7497 70.0174 -24.8252 0.620 -0.331 -0.711 202 188 176 0
12.8291 70.1992 -24.7354 0.614 -0.289 -0.735 201 187 175 0
-1.3753 88.8990 -24.8560 0.034 -0.471 0.881 189 176 163 0
17.7611 93.9593 -15.2814 0.978 -0.166 -0.123 162 146 130 0
17.8010 94.1463 -15.2065 0.977 -0.172 -0.128 104 95 87 0
10.1613 -6.4812 -49.9520 0.952 -0.188 -0.241 229 216 200 0
-13.3665 -11.1176 -61.2815 0.387 -0.144 0.911 233 219 204 0
-12.6883 -10.7182 -60.8723 0.482 0.032 0.876 232 219 203 0
-7.0842 29.0721 -46.1441 0.533 -0.699 -0.476 142 115 114 0
-7.1891 29.5651 -46.0349 0.608 0.727 0.320 131 98 99 0
-4.5654 29.8616 -44.8400 0.955 0.217 -0.201 121 80 84 0
-6.5765 30.2494 -45.5647 0.815 0.519 0.260 118 76 80 0
6.3026 30.8221 -39.9740 0.930 -0.347 0.123 105 54 61 0
6.6058 31.2320 -39.7191 0.794 -0.598 0.111 105 50 59 0
7.3739 31.5957 -39.2832 0.372 -0.473 0.799 104 47 53 0
7.7377 31.7775 -39.0738 0.596 -0.508 0.622 106 47 53 0
7.8685 31.9810 -38.9555 0.789 -0.366 0.493 108 48 54 0
7.6613 32.2179 -38.9689 0.938 -0.034 -0.346 107 47 54 0
12.4767 36.5232 -35.6064 0.995 -0.039 0.088 120 40 51 0
12.5382 36.9320 -35.4535 0.980 -0.146 -0.134 125 45 54 0
12.5987 37.1318 -35.3659 0.997 0.006 0.071 123 42 51 0
12.6778 37.3287 -35.2714 0.941 -0.213 0.263 120 41 49 0
12.8661 37.7171 -35.0716 0.782 -0.606 0.147 121 42 50 0
13.0275 37.9003 -34.9468 0.768 -0.622 0.153 121 41 51 0
13.2943 42.6506 -33.3575 0.592 -0.805 0.037 100 29 42 0
6.5907 56.7269 -31.7977 0.521 0.846 0.111 61 27 32 0
-2.2702 63.3475 -33.4628 0.391 0.911 0.132 184 163 152 0
6.6507 63.9415 -29.5290 0.334 0.329 0.883 201 189 171 0
2.9487 86.8965 -23.9469 0.306 -0.874 0.376 186 174 160 0
17.9397 84.9947 -18.2381 0.594 0.693 0.408 182 170 155 0
9.4929 95.1976 -18.6153 0.740 0.644 -0.196 175 160 145 0
17.7559 94.0829 -15.4893 0.978 -0.166 -0.123 161 147 131 0
10.0899 -6.4615 -50.2212 0.951 -0.187 -0.245 229 215 199 0
-12.5193 -11.1192 -61.2203 0.477 -0.323 0.817 233 218 205 0
-12.4986 -10.8721 -61.1348 0.477 -0.323 0.817 232 218 205 0
-12.4785 -10.6250 -61.0495 0.506 -0.114 0.855 233 219 206 0
-22.2087 -7.6471 -64.2346 0.268 -0.109 0.957 232 224 209 0
-14.2183 -3.1341 -59.4563 0.178 -0.963 0.204 230 220 207 0
-4.8228 30.1942 -45.1288 0.822 0.222 0.525 121 79 83 0
7.3143 30.1524 -40.0144 0.551 -0.414 0.724 111 63 73 0
5.1676 30.5499 -40.7977 0.956 -0.292 -0.039 111 61 71 0
5.3880 30.7518 -40.6418 0.952 -0.305 -0.019 110 60 69 0
8.5173 30.6973 -39.3368 0.844 -0.535 0.037 107 57 64 0
6.9620 31.2694 -39.8160 0.810 -0.585 -0.036 105 52 59 0
7.6888 31.8522 -39.3279 0.482 -0.047 0.875 106 48 54 0
7.4294 32.0945 -39.3621 0.844 0.247 0.477 107 48 54 0
12.6863 37.1907 -35.5574 0.990 -0.128 -0.065 121 40 50 0
12.7318 37.3926 -35.4754 0.991 -0.116 -0.071 120 39 48 0
12.9455 37.7771 -35.2657 0.894 -0.434 -0.114 122 39 49 0
13.5739 41.6283 -33.8033 0.946 -0.020 0.323 101 30 40 0
13.5621 41.8390 -33.7428 0.944 -0.029 0.328 100 30 40 0
13.5243 42.0548 -33.6916 0.947 -0.020 0.320 100 30 43 0
13.5367 42.2610 -33.6223 0.937 0.036 0.347 102 31 45 0
13.6678 42.4436 -33.5102 0.774 0.187 0.604 100 29 43 0
13.3768 42.7104 -33.5502 0.657 -0.465 0.594 100 30 42 0
12.0263 47.8633 -32.5193 0.589 -0.798 0.128 76 15 28 0
5.3115 57.4430 -32.3786 0.510 0.838 0.193 62 31 33 0
4.3429 57.9746 -32.6226 0.530 0.822 0.209 64 33 34 0
-5.0590 65.1468 -34.3655 0.507 0.859 0.077 188 171 155 0
2.3066 77.7578 -27.3344 0.768 0.632 0.100 192 183 169 0
17.7095 94.0202 -15.7729 0.978 -0.166 -0.123 161 149 132 0
17.7506 94.2068 -15.6976 0.978 -0.166 -0.123 162 148 133 0
-12.4949 -10.8263 -61.4138 0.479 -0.087 0.873 232 219 205 0
-14.9764 -5.7005 -60.8753 0.991 0.112 -0.076 232 222 210 0
-14.7695 -4.4198 -60.3896 0.687 -0.098 0.720 231 221 209 0
-8.6670 27.6058 -47.8498 0.892 -0.372 -0.256 225 217 202 0
-2.8392 31.0629 -44.3010 0.847 0.492 0.202 112 65 73 0
9.4248 30.4724 -39.2764 0.621 -0.594 0.512 108 59 68 0
8.2656 30.7882 -39.6706 0.872 -0.427 0.238 107 58 64 0
7.9590 31.0313 -39.7253 0.937 0.059 0.345 106 56 62 0
7.0002 31.3358 -40.0379 0.810 -0.585 -0.036 105 53 59 0
7.4564 31.9450 -39.6549 0.842 0.240 0.483 105 48 54 0
7.3724 32.1706 -39.6205 0.842 0.240 0.483 105 47 53 0
9.8983 35.1154 -37.6331 0.954 0.065 -0.294 117 42 49 0
11.4604 35.7586 -36.7699 0.893 -0.430 0.136 121 42 54 0
12.5815 37.0694 -35.8866 0.966 -0.154 -0.208 120 38 50 0
12.6502 37.2682 -35.7957 0.952 -0.067 -0.297 120 38 49 0
13.4183 41.7336 -34.0824 0.961 -0.041 0.274 100 30 38 0
13.4954 41.9275 -33.9894 0.954 -0.038 0.297 99 29 39 0
13.5924 42.1173 -33.8892 0.947 -0.020 0.320 99 28 42 0
13.5770 42.3291 -33.8300 0.947 -0.020 0.320 100 29 43 0
13.6590 42.5214 -33.7354 0.953 0.053 0.300 100 30 43 0
13.6619 42.7295 -33.6696 0.892 -0.042 0.449 99 30 42 0
14.6203 42.7433 -33.2583 0.547 -0.498 0.673 97 29 39 0
8.3066 47.9768 -34.3138 0.784 -0.580 0.223 78 16 29 0
12.4802 47.6214 -32.6518 0.168 -0.796 0.581 75 13 26 0
12.1904 47.9047 -32.6869 0.267 -0.857 0.441 75 14 27 0
11.7979 51.8540 -31.6268 0.634 -0.742 -0.218 62 15 25 0
9.8499 53.0541 -32.0812 0.910 -0.110 -0.400 65 18 27 0
4.2497 58.3287 -32.8209 0.691 0.716 0.099 66 36 36 0
0.0037 96.9344 -22.6317 0.317 -0.092 0.944 179 168 150 0
12.3896 93.0985 -18.5635 0.609 0.778 0.155 176 160 147 0
17.7043 94.1441 -15.9817 0.978 -0.166 -0.123 161 149 132 0
17.7454 94.3309 -15.9062 0.978 -0.166 -0.123 161 148 132 0
18.0010 95.4432 -15.4521 0.986 -0.065 -0.153 255 255 254 0
-13.2414 -5.0761 -60.2424 0.769 0.387 0.509 231 221 209 0
-12.9038 -4.7678 -60.0026 0.648 0.264 0.714 230 221 208 0
-12.8213 -4.5074 -59.8865 0.844 0.250 0.475 230 221 207 0
-13.0168 -4.2980 -59.9049 0.765 0.308 0.566 230 221 207 0
-15.3315 -4.4697 -60.9463 0.602 -0.264 0.754 229 219 207 0
-2.7896 30.4259 -44.7583 0.938 0.270 0.217 121 79 81 0
-2.8688 30.6681 -44.7169 0.938 0.270 0.217 116 72 76 0
-3.0939 30.9226 -44.7340 0.972 0.220 0.081 114 69 74 0
8.1003 33.4666 -39.1657 0.995 -0.002 -0.096 100 42 47 0
8.3025 33.6602 -39.0193 0.994 0.057 -0.091 99 40 46 0
8.8169 34.4635 -38.5503 0.758 -0.310 -0.573 111 44 50 0
9.0710 34.6479 -38.3846 0.674 -0.459 -0.579 112 45 49 0
10.1166 34.9459 -37.8457 0.916 -0.386 -0.110 115 44 50 0
10.7269 36.1423 -37.2137 0.969 0.140 -0.204 120 40 53 0
11.8860 36.1928 -36.7033 0.938 -0.233 -0.258 122 42 55 0
12.4147 36.9567 -36.2404 0.980 -0.115 -0.160 121 36 49 0
12.7503 41.0973 -34.8116 0.969 -0.035 -0.245 106 30 40 0
11.4831 42.1821 -35.0157 0.247 -0.445 0.861 101 31 41 0
8.2473 48.0746 -34.5675 0.782 -0.519 0.343 78 18 30 0
9.4604 48.2216 -34.0040 0.977 -0.199 -0.075 77 16 29 0
12.1207 47.7904 -33.0023 0.067 -0.664 0.745 75 14 26 0
-2.1039 63.3554 -34.2418 0.404 0.911 0.085 177 157 148 0
8.3277 64.5097 -29.4305 0.093 0.208 0.974 201 190 176 0
2.1124 74.4865 -28.9861 0.848 -0.505 -0.159 201 189 177 0
12.5634 93.1072 -18.7436 0.597 0.780 0.187 176 160 147 0
25.0045 86.7811 -15.3969 0.636 0.680 0.364 169 155 139 0
17.6990 94.2683 -16.1908 0.978 -0.166 -0.123 161 149 134 0
17.7402 94.4553 -16.1152 0.978 -0.166 -0.123 162 148 134 0
18.2446 95.3919 -15.6091 0.919 -0.323 -0.226 255 255 254 0
-15.9951 -4.7885 -61.6330 0.921 0.166 0.351 229 220 206 0
-14.6789 -4.3007 -60.9168 0.929 -0.018 0.368 228 218 206 0
-9.1949 27.0435 -48.8372 0.957 -0.065 0.281 231 224 208 0
-8.5806 27.9973 -48.2776 0.900 -0.287 -0.329 224 214 202 0
-8.4157 28.2339 -48.1335 0.908 -0.282 -0.310 223 213 201 0
10.0795 35.2357 -38.0248 0.953 -0.116 -0.281 114 43 49 0
10.8991 36.1908 -37.3768 0.969 -0.113 -0.219 120 40 53 0
11.9734 36.2523 -36.8967 0.942 -0.223 -0.251 121 41 54 0
12.2531 37.0528 -36.5283 0.934 -0.253 0.251 122 35 48 0
12.2876 37.2577 -36.4499 0.934 -0.253 0.251 124 38 51 0
12.2736 37.4699 -36.3901 0.945 -0.163 0.285 122 38 50 0
11.9766 42.3758 -34.9951 0.057 -0.314 0.948 99 29 40 0
12.6196 42.8828 -34.5618 0.972 0.231 0.041 99 29 42 0
6.4448 47.9180 -35.6488 0.795 0.170 0.583 82 20 35 0
6.5729 48.1116 -35.5338 0.832 0.170 0.527 81 20 35 0
8.2577 48.5971 -34.6602 0.908 -0.358 0.216 78 18 30 0
13.5603 48.7837 -32.3271 0.735 -0.094 0.672 71 18 24 0
13.4459 49.0241 -32.3016 0.731 -0.194 0.654 71 18 24 0
11.4536 52.7688 -31.9944 0.828 -0.516 -0.222 62 17 28 0
4.6385 57.7057 -33.3866 0.697 -0.706 -0.125 64 34 35 0
5.1134 57.7864 -33.1578 0.589 -0.806 0.062 65 35 37 0
-7.7159 67.1562 -35.7550 0.380 0.117 0.918 190 175 159 0
-7.9890 67.5088 -35.7628 0.318 0.326 0.890 190 177 161 0
22.8905 59.4399 -25.0169 0.630 -0.064 0.774 203 191 178 0
3.6209 76.2904 -28.0561 0.074 0.547 0.834 196 187 170 0
16.6493 86.4505 -19.3131 0.754 0.605 0.257 181 168 151 0
7.5990 96.7118 -20.0121 0.873 0.414 0.258 175 159 146 0
20.6699 91.8995 -15.8970 0.622 0.651 0.435 162 150 136 0
17.6938 94.3928 -16.4003 0.978 -0.166 -0.123 162 149 135 0
18.1907 95.5518 -15.8274 0.915 -0.326 -0.238 255 255 254 0
-8.2075 -4.9836 -58.6396 0.531 -0.835 -0.146 231 221 212 0
-5.9167 -3.8412 -57.2973 0.544 0.266 0.796 231 220 210 0
-8.5118 28.0689 -48.5195 0.823 -0.539 -0.182 224 214 202 0
-8.4726 28.3127 -48.4269 0.866 -0.422 -0.269 223 213 201 0
9.6365 35.3651 -38.4293 0.971 -0.012 -0.240 113 43 51 0
9.4210 35.6080 -38.4469 0.929 -0.078 -0.360 113 41 49 0
9.6891 35.7873 -38.2757 0.992 0.059 0.114 110 37 46 0
12.3443 37.1115 -36.7198 0.924 -0.185 0.334 121 36 47 0
12.3206 37.3252 -36.6637 0.936 -0.164 0.313 120 34 45 0
12.3306 37.5339 -36.5947 0.934 -0.153 0.322 121 35 46 0
12.3552 37.7403 -36.5201 0.935 -0.149 0.323 126 39 50 0
12.6712 41.0526 -35.3565 0.992 0.024 -0.127 105 32 41 0
12.6612 41.2650 -35.2949 0.991 0.016 -0.131 105 32 43 0
13.1202 43.4899 -34.4069 0.642 0.486 0.593 96 28 39 0
14.4086 44.6795 -33.4822 0.904 0.409 0.127 89 26 37 0
6.6179 47.7388 -35.8935 0.839 0.180 0.513 83 21 34 0
6.5406 47.9804 -35.8518 0.839 0.180 0.513 82 20 33 0
6.5485 48.2023 -35.7796 0.811 0.449 0.375 80 20 32 0
6.4723 48.4442 -35.7375 0.814 0.393 0.428 79 19 30 0
13.6079 48.8533 -32.5331 0.731 -0.194 0.654 70 17 23 0
13.6059 49.0648 -32.4683 0.731 -0.194 0.654 71 18 24 0
12.4191 50.0121 -32.6864 0.599 -0.396 0.696 69 17 25 0
-7.8669 67.5747 -35.9884 0.299 0.194 0.934 190 177 161 0
2.0851 74.4807 -29.5543 0.836 -0.502 -0.221 201 189 177 0
2.1485 74.6917 -29.4615 0.872 -0.452 -0.188 198 187 175 0
2.2684 74.8773 -29.3522 0.872 -0.452 -0.188 197 187 175 0
21.9291 66.8822 -23.3524 0.888 0.453 0.083 199 187 173 0
-3.4381 80.6896 -30.0107 0.131 0.538 0.833 194 182 167 0
16.8193 86.4598 -19.4842 0.751 0.605 0.265 181 168 151 0
5.5465 97.9496 -20.7824 0.227 -0.250 0.941 174 160 148 0
7.4403 96.9443 -20.2774 0.897 0.419 0.144 175 160 149 0
7.2105 97.3314 -20.2565 0.899 0.416 0.135 174 159 148 0
6.3665 101.2246 -19.4130 0.343 0.449 0.825 168 152 137 0
17.6885 94.5174 -16.6102 0.978 -0.166 -0.123 162 147 134 0
18.0915 95.7442 -16.0559 0.955 -0.226 -0.190 255 255 254 0
-5.4203 -4.3966 -57.5375 0.379 -0.912 -0.157 231 221 212 0
-6.9753 -4.4628 -58.2321 0.466 -0.883 -0.057 233 221 212 0
-12.5777 27.8695 -50.6380 0.936 -0.172 -0.308 228 219 207 0
-12.7499 28.1328 -50.6310 0.927 -0.157 -0.340 225 215 203 0
-8.3286 28.1339 -48.7140 0.894 -0.447 -0.031 224 214 202 0
-8.4789 28.3888 -48.7001 0.861 -0.462 -0.214 222 212 200 0
-0.5036 30.4675 -44.5984 0.765 0.410 0.497 125 83 87 0
-0.4983 30.6992 -44.5242 0.780 0.403 0.478 123 79 84 0
9.6695 35.4331 -38.6489 0.812 -0.583 -0.034 112 42 50 0
9.5913 35.6581 -38.6131 0.990 0.050 0.131 114 42 51 0
9.7707 35.8490 -38.4761 0.989 0.040 0.145 110 38 47 0
9.8195 36.0570 -38.3905 0.968 -0.253 0.009 112 38 48 0
10.0808 36.2356 -38.2218 0.909 -0.319 -0.269 114 38 48 0
12.4069 37.5950 -36.7921 0.936 -0.155 0.317 119 34 45 0
12.4145 37.8040 -36.7240 0.938 -0.172 0.301 124 39 50 0
12.3044 41.4076 -35.6546 0.999 -0.028 0.039 103 30 41 0
14.7368 43.6462 -33.9062 0.664 -0.743 0.088 93 32 41 0
6.2009 47.6960 -36.3512 0.804 -0.326 -0.497 85 23 36 0
6.6613 47.8133 -36.1152 0.784 -0.394 -0.480 84 22 35 0
12.5350 48.7856 -33.2675 0.703 -0.711 -0.014 68 16 22 0
12.6607 48.9665 -33.1569 0.694 -0.720 -0.001 71 19 24 0
12.4810 49.2257 -33.1545 0.864 -0.269 0.425 69 17 22 0
12.6192 50.0426 -32.8413 0.599 -0.396 0.696 67 16 24 0
12.6598 50.2450 -32.7610 0.599 -0.396 0.696 66 15 25 0
11.7653 53.0676 -32.2738 0.737 -0.338 -0.585 58 22 26 0
7.9049 56.1990 -32.9766 0.903 0.287 -0.319 60 28 32 0
-7.3173 67.4874 -36.0762 0.266 0.599 0.755 191 178 162 0
2.0514 74.8459 -29.7337 0.896 -0.438 -0.066 200 188 176 0
20.3821 78.3534 -20.6999 0.740 -0.640 -0.208 185 172 159 0
18.1560 94.0965 -16.7847 0.784 0.539 0.309 165 149 136 0
17.6788 94.6453 -16.8214 0.978 -0.164 -0.130 164 148 135 0
18.0875 95.8691 -16.2648 0.943 -0.279 -0.180 255 255 254 0
-5.4170 -4.3493 -57.8038 0.379 -0.912 -0.157 229 219 209 0
-15.4989 -3.7908 -62.0237 0.900 0.428 0.081 225 215 206 0
-12.8120 27.9597 -51.0156 0.908 -0.257 -0.331 228 219 207 0
-13.1982 28.2358 -51.0983 0.816 -0.526 -0.241 225 215 203 0
-11.7924 28.4098 -50.4319 0.684 -0.714 -0.149 223 213 201 0
-8.5121 28.4667 -48.9849 0.864 -0.474 -0.170 222 212 200 0
-10.4037 29.3304 -49.5415 0.515 -0.605 -0.607 217 200 190 0
9.8705 35.2646 -38.8689 0.960 -0.178 -0.217 107 42 50 0
10.1968 35.6503 -38.6072 0.936 -0.100 0.337 112 40 50 0
10.1712 35.8678 -38.5510 0.881 -0.473 -0.023 110 38 48 0
9.4746 36.1770 -38.7587 0.926 -0.367 -0.082 110 37 46 0
9.6716 36.3652 -38.6145 0.914 -0.399 -0.071 112 37 47 0
12.4893 37.8654 -36.9220 0.938 -0.172 0.301 121 39 49 0
12.5515 38.0660 -36.8327 0.923 -0.315 0.222 123 41 50 0
11.7908 42.6441 -35.7457 0.954 -0.039 0.296 94 25 38 0
11.7775 42.8597 -35.6847 0.961 -0.122 0.249 92 25 37 0
6.5233 47.7062 -36.4725 0.535 -0.607 -0.588 85 23 36 0
7.6094 48.1207 -35.8709 0.576 -0.665 -0.476 81 21 33 0
7.6062 48.3437 -35.8032 0.864 -0.411 -0.290 79 19 29 0
12.5964 48.8525 -33.4712 0.696 -0.718 -0.010 67 16 21 0
12.7163 49.4609 -33.2304 0.600 -0.342 0.723 72 21 26 0
12.6760 49.6845 -33.1787 0.800 -0.308 0.515 74 23 29 0
12.7057 49.8899 -33.1021 0.800 -0.308 0.515 69 18 25 0
12.7135 50.1011 -33.0333 0.829 -0.272 0.489 65 15 24 0
11.8947 50.5339 -33.2560 0.943 0.331 -0.038 65 15 25 0
-6.5130 66.0413 -36.4720 0.975 -0.043 0.217 184 167 152 0
-6.7286 66.3702 -36.4640 0.979 0.001 0.203 185 169 154 0
-6.6657 66.6017 -36.3649 0.722 -0.519 0.458 187 171 157 0
-6.6288 66.8422 -36.2743 0.673 -0.550 0.495 189 173 160 0
3.1698 74.4568 -29.6455 0.961 0.154 -0.232 199 187 175 0
22.3002 66.5000 -23.7752 0.665 0.518 0.538 199 187 174 0
22.1497 66.7685 -23.7576 0.712 0.511 0.483 199 187 173 0
21.8331 67.1137 -23.7886 0.774 0.508 0.378 199 187 173 0
21.6400 67.4034 -23.7829 0.774 0.508 0.378 199 187 173 0
-3.6641 80.5315 -30.7411 0.850 -0.502 -0.160 199 187 173 0
-2.5367 80.7498 -30.1822 0.556 0.642 0.528 192 183 168 0
-3.3259 81.3777 -30.3315 0.701 0.601 0.384 190 181 167 0
18.3132 94.1074 -16.9588 0.777 0.557 0.293 165 149 136 0
17.6719 94.7715 -17.0324 0.978 -0.164 -0.130 164 148 135 0
18.1416 95.9529 -16.4617 0.945 -0.270 -0.184 255 255 254 0
7.8302 -6.3216 -52.8958 0.923 -0.354 -0.151 234 221 208 0
-5.4865 -3.8509 -57.9627 0.464 -0.876 -0.134 228 218 206 0
-13.0797 28.0521 -51.4087 0.914 -0.316 -0.254 227 219 206 0
-13.0989 28.3084 -51.3378 0.858 -0.513 -0.013 225 216 203 0
-7.6474 28.4905 -48.8938 0.892 0.099 0.440 220 212 199 0
-10.8028 29.4344 -49.9835 0.515 -0.605 -0.607 217 203 191 0
-10.0537 29.6350 -49.5933 0.516 -0.586 -0.624 199 182 172 0
-8.0415 30.7307 -48.3728 0.599 -0.571 -0.561 135 101 105 0
10.3196 35.7063 -38.7907 0.937 -0.106 0.334 111 41 50 0
9.9132 36.4048 -38.7523 0.852 -0.523 -0.029 110 36 45 0
12.5895 38.1332 -37.0450 0.953 -0.186 0.239 121 40 47 0
12.6071 38.3408 -36.9730 0.827 -0.527 0.196 119 38 47 0
12.7780 38.5235 -36.8416 0.824 -0.541 0.165 116 35 44 0
12.7642 38.7359 -36.7819 0.817 -0.530 0.228 113 34 43 0
13.5148 39.2396 -36.2972 0.867 0.050 0.496 110 34 41 0
13.5027 39.4507 -36.2371 0.858 0.039 0.513 109 33 41 0
13.3541 39.6855 -36.2295 0.859 -0.005 0.511 110 34 43 0
13.3363 39.8980 -36.1715 0.863 -0.017 0.505 110 34 44 0
12.0906 43.0875 -35.7293 0.798 -0.490 0.353 93 27 37 0
12.0058 43.3175 -35.6952 0.823 -0.145 0.550 92 26 36 0
12.0109 43.5293 -35.6274 0.827 -0.119 0.549 92 26 36 0
14.3134 45.3530 -34.0543 0.993 -0.029 -0.114 83 21 34 0
14.5896 45.4990 -33.8881 0.998 0.065 0.014 84 22 35 0
6.5825 48.0014 -36.6199 0.706 -0.543 -0.454 85 23 36 0
6.9483 48.1392 -36.4170 0.677 -0.438 -0.592 82 21 34 0
7.1939 48.3043 -36.2583 0.677 -0.438 -0.592 79 19 31 0
12.2829 49.8713 -33.5444 0.950 0.126 -0.286 68 17 24 0
12.3051 50.0796 -33.4701 0.982 0.136 -0.134 65 15 24 0
12.7295 50.1805 -33.2530 0.970 -0.165 0.176 64 14 23 0
11.8512 50.6300 -33.4984 0.943 0.331 -0.038 65 15 26 0
10.4269 54.5068 -32.9217 0.314 -0.602 0.734 56 22 26 0
3.8156 56.7200 -35.1317 0.938 0.336 0.088 55 21 25 0
3.0277 57.6577 -35.1865 0.749 0.637 -0.181 56 27 28 0
-4.1222 65.0631 -36.0245 0.587 0.806 0.078 182 166 151 0
-6.4548 66.1286 -36.7161 0.975 -0.043 0.217 184 168 153 0
-6.7939 66.5013 -36.7492 0.982 0.015 0.191 185 169 155 0
-6.6646 66.7096 -36.6281 0.974 -0.010 0.226 187 171 157 0
-2.1126 65.3429 -35.0577 0.401 -0.910 0.106 188 172 159 0
3.0173 74.6355 -29.9335 0.967 0.085 -0.241 199 187 175 0
22.1761 66.8501 -23.9537 0.734 0.512 0.446 199 187 174 0
21.9699 67.1451 -23.9527 0.734 0.512 0.446 198 186 173 0
21.6366 67.4995 -23.9890 0.765 0.480 0.429 197 185 172 0
21.0255 68.1865 -24.0438 0.624 0.667 0.407 197 185 173 0
-2.8657 81.0259 -30.5310 0.836 0.387 0.389 192 182 170 0
9.7954 98.5573 -19.5571 0.031 -0.038 0.999 170 154 141 0
8.3906 100.2253 -19.6558 0.495 0.597 0.631 168 152 139 0
7.2385 101.2594 -19.8401 0.401 0.499 0.768 165 151 138 0
18.2982 94.2385 -17.1707 0.785 0.550 0.284 166 150 136 0
17.6650 94.8980 -17.2438 0.978 -0.164 -0.130 165 149 136 0
-13.2017 28.3926 -51.6626 0.942 -0.202 -0.268 225 217 204 0
-13.6487 28.6747 -51.7721 0.800 -0.597 -0.064 222 214 201 0
-10.6244 29.7518 -50.1074 0.515 -0.569 -0.641 210 195 183 0
-9.1668 30.1495 -49.3428 0.516 -0.586 -0.624 156 136 128 0
1.2034 31.2381 -44.4411 0.840 0.368 0.398 118 74 77 0
10.4047 35.7673 -38.9891 0.788 -0.600 0.137 112 42 51 0
10.7539 36.1471 -38.7178 0.916 -0.218 -0.336 110 38 46 0
12.6233 38.2012 -37.2592 0.933 -0.200 0.299 121 40 47 0
12.6478 38.4077 -37.1844 0.813 -0.521 0.260 116 35 42 0
11.6329 40.0592 -37.1201 0.764 0.643 0.055 110 35 43 0
11.3777 40.3169 -37.1526 0.830 0.551 -0.084 109 34 44 0
12.2665 42.9173 -35.9565 0.960 -0.048 0.274 94 29 38 0
12.2263 43.1379 -35.9059 0.803 -0.486 0.344 94 28 37 0
12.3200 43.3314 -35.8048 0.906 -0.238 0.351 92 27 35 0
12.3230 43.5433 -35.7379 0.835 0.013 0.551 91 26 35 0
14.4722 45.1866 -34.2833 0.986 0.070 0.150 81 19 32 0
14.7653 45.3290 -34.1102 0.997 -0.022 -0.070 83 21 34 0
14.8096 45.5273 -34.0293 0.990 0.105 0.096 84 22 35 0
14.1185 46.1054 -34.1546 0.962 0.198 0.190 82 22 34 0
14.0452 46.3325 -34.1165 0.946 0.209 0.249 83 22 35 0
14.2916 46.4843 -33.9611 0.910 -0.312 0.273 80 20 32 0
12.7374 47.2779 -34.3996 0.949 0.299 -0.095 75 18 27 0
13.8142 47.4401 -33.8754 0.996 0.051 0.068 71 17 25 0
12.6263 48.5835 -34.0444 0.856 0.321 0.405 69 17 24 0
12.2340 48.8966 -34.1202 0.945 0.231 0.231 65 14 21 0
12.5522 49.0292 -33.9391 0.896 -0.354 0.267 66 15 22 0
12.8117 49.3890 -33.7135 0.858 -0.284 0.427 65 14 21 0
12.2694 50.1730 -33.7095 0.982 0.136 -0.130 64 14 24 0
11.9543 50.4718 -33.7558 0.982 0.179 -0.054 66 16 27 0
12.8525 53.4381 -32.4423 0.768 -0.059 -0.637 56 23 29 0
10.2111 54.6605 -33.2266 0.301 -0.488 0.819 55 23 28 0
4.3066 56.6657 -35.2050 0.891 0.453 0.012 54 23 26 0
8.4299 55.8647 -33.6380 0.788 0.322 -0.525 56 26 28 0
2.8130 57.8193 -35.5054 0.749 0.637 -0.181 56 28 28 0
4.1234 57.6468 -34.9820 0.761 0.608 -0.228 58 29 31 0
-6.8909 66.1353 -37.2030 0.354 0.727 0.589 181 165 150 0
-2.0370 65.1758 -35.3634 0.396 -0.917 0.038 186 170 157 0
20.0721 68.9305 -24.4693 0.595 0.667 0.449 197 185 173 0
19.4477 69.4284 -24.5901 0.623 0.669 0.405 197 185 173 0
-3.5430 81.2174 -31.0613 0.867 -0.192 -0.460 192 184 171 0
7.8128 87.1373 -24.2304 0.375 0.170 0.912 182 170 155 0
21.8997 89.1352 -17.4113 0.573 0.643 0.509 174 160 147 0
10.5299 98.1824 -19.6158 0.030 -0.041 0.999 172 156 143 0
18.2442 94.3972 -17.3917 0.780 0.553 0.292 164 150 134 0
-14.4794 -7.6914 -63.6968 0.039 -0.385 0.922 229 219 209 0
-16.4418 -4.3036 -63.5169 0.987 0.110 -0.121 226 216 206 0
2.6041 26.8806 -45.4441 0.210 0.263 0.942 226 221 207 0
-8.3783 29.1809 -49.5912 0.881 -0.239 -0.407 217 209 191 0
-8.2252 29.4178 -49.4502 0.881 -0.216 -0.422 217 207 190 0
-8.1525 29.6598 -49.3432 0.879 -0.239 -0.413 213 200 185 0
-9.5683 30.2565 -49.7849 0.513 -0.576 -0.637 163 144 135 0
-8.5603 30.9269 -49.1316 0.600 -0.581 -0.550 133 103 102 0
-9.1020 31.2183 -49.2811 0.739 -0.487 -0.466 131 100 100 0
8.4079 33.9329 -40.6949 0.866 -0.318 -0.387 102 46 50 0
8.4440 34.1459 -40.6130 0.746 -0.529 -0.405 105 49 52 0
12.7576 38.4636 -37.3689 0.805 -0.531 0.267 114 33 41 0
12.9152 38.6484 -37.2421 0.825 -0.543 0.159 111 33 42 0
11.2886 40.4085 -37.4172 0.818 0.576 0.004 106 33 41 0
12.2983 42.7761 -36.2381 0.337 -0.141 0.931 94 29 37 0
12.4864 42.9508 -36.1008 0.990 -0.093 0.104 94 30 38 0
12.4108 43.3908 -35.9981 0.823 -0.002 0.568 93 27 36 0
13.5915 43.9899 -35.2905 0.985 0.101 0.136 91 28 37 0
14.5315 45.2518 -34.4843 0.987 0.054 0.151 85 23 36 0
14.1611 46.1750 -34.3625 0.831 0.065 0.552 79 19 30 0
14.2077 46.3740 -34.2803 0.888 -0.095 0.450 80 20 31 0
14.4090 46.5361 -34.1412 0.865 -0.359 0.351 78 19 31 0
12.2074 47.9152 -34.6885 0.961 0.050 0.273 73 20 28 0
12.2020 48.1307 -34.6243 0.977 0.024 0.214 69 16 24 0
12.1289 48.3631 -34.5847 0.927 0.189 0.325 70 15 24 0
12.2035 48.5587 -34.4912 0.958 0.210 0.195 69 15 24 0
12.0212 48.8191 -34.4913 0.783 -0.564 0.261 66 14 22 0
12.8826 48.8142 -34.1117 0.811 -0.575 0.104 66 15 22 0
12.6798 49.0794 -34.1194 0.841 -0.301 0.449 66 15 22 0
12.8308 49.4671 -33.9326 0.808 -0.330 0.488 65 14 21 0
12.2836 49.8243 -34.0643 0.986 0.053 -0.158 63 12 19 0
11.9258 50.7793 -33.9271 0.987 0.157 -0.027 66 16 27 0
11.0703 51.2277 -34.1669 0.624 -0.771 -0.126 67 17 27 0
7.9238 54.7668 -34.4641 0.965 0.251 0.074 58 24 31 0
4.2821 56.7672 -35.4564 0.899 0.438 -0.019 53 22 26 0
4.2041 57.0222 -35.4120 0.899 0.415 -0.140 53 24 26 0
3.4578 57.4828 -35.5997 0.874 0.410 -0.260 54 25 27 0
3.1666 57.8058 -35.6286 0.887 0.386 -0.254 57 29 30 0
-6.9498 67.7931 -37.0146 0.294 0.612 0.734 190 174 161 0
20.2005 68.9672 -24.6399 0.622 0.645 0.443 196 184 172 0
-3.9867 81.2961 -31.5266 0.834 -0.010 -0.552 194 184 170 0
-3.7812 81.4512 -31.3877 0.859 -0.228 -0.459 192 184 171 0
-3.4702 81.5550 -31.2180 0.721 -0.410 -0.559 190 181 169 0
-2.1953 81.1933 -30.7659 0.832 -0.007 0.555 189 180 168 0
4.6594 92.9127 -24.1079 0.398 -0.889 0.227 181 169 153 0
13.3116 95.9481 -19.3411 0.025 -0.082 0.996 170 154 141 0
18.1478 94.5860 -17.6229 0.782 0.545 0.302 163 150 134 0
17.9560 96.0203 -17.2640 0.934 -0.305 -0.187 254 255 255 0
-5.9170 -4.4915 -59.2041 0.267 0.600 0.754 223 215 202 0
-6.6685 -4.4018 -59.5105 0.334 0.748 0.573 226 218 204 0
-7.1371 -4.2556 -59.6737 0.283 0.705 0.650 224 217 203 0
-13.3789 28.8165 -52.2236 0.654 -0.688 -0.315 224 214 202 0
-7.6571 28.7183 -49.7098 0.913 -0.070 0.402 221 211 199 0
-8.3774 29.5050 -49.7868 0.880 -0.225 -0.418 219 206 192 0
-9.5149 30.5807 -49.9600 0.600 -0.563 -0.568 150 131 123 0
-9.0384 30.7938 -49.6822 0.602 -0.558 -0.571 140 116 112 0
-8.6778 31.0144 -49.4537 0.608 -0.550 -0.573 134 105 103 0
-9.0483 31.2928 -49.5324 0.730 -0.494 -0.473 132 100 101 0
8.1286 34.2554 -40.9788 0.768 0.019 -0.640 100 47 51 0
8.6060 34.4161 -40.7169 0.673 -0.626 -0.394 102 48 52 0
12.9036 38.7240 -37.4740 0.821 -0.493 -0.287 111 33 41 0
11.7933 39.9694 -37.5826 0.778 0.597 -0.194 106 33 40 0
12.6178 42.5778 -36.4096 0.986 -0.108 0.128 95 27 35 0
13.7369 43.8266 -35.5259 0.911 -0.405 -0.077 94 29 36 0
13.5593 44.0748 -35.5281 0.978 0.154 0.144 92 27 35 0
14.3672 44.3207 -35.0928 0.821 -0.568 -0.053 93 30 39 0
14.5133 45.3345 -34.7144 0.986 0.055 0.157 84 22 35 0
14.2558 46.2324 -34.5513 0.707 0.119 0.698 80 21 31 0
14.2507 46.4436 -34.4883 0.856 0.033 0.517 80 20 30 0
14.5080 46.5924 -34.3279 0.865 -0.359 0.351 79 19 29 0
12.5933 47.4755 -34.9062 0.797 0.184 0.576 71 16 27 0
12.5070 47.7100 -34.8720 0.790 0.190 0.582 71 18 26 0
12.2627 47.9838 -34.8960 0.961 0.050 0.273 72 19 27 0
12.2366 48.2045 -34.8394 0.977 0.034 0.211 70 17 25 0
12.1169 48.4487 -34.8171 0.935 0.187 0.303 69 16 24 0
12.1454 48.6561 -34.7403 0.950 0.161 0.266 69 16 25 0
11.9860 48.9111 -34.7323 0.896 -0.408 0.176 68 15 24 0
13.0232 49.0739 -34.2208 0.797 -0.587 0.144 65 15 22 0
10.9505 52.2166 -34.1707 0.879 0.475 -0.030 61 17 23 0
10.0671 52.6841 -34.4190 0.920 -0.051 -0.389 59 17 21 0
7.7523 54.2351 -34.9687 0.743 -0.239 0.625 58 18 26 0
3.9925 57.1813 -35.7295 0.889 0.417 -0.190 53 23 25 0
3.3305 57.6172 -35.8891 0.905 0.301 -0.301 53 24 26 0
3.0539 57.9363 -35.9134 0.852 0.402 -0.335 59 29 31 0
-1.0108 62.5884 -36.2824 0.520 0.854 -0.024 116 92 89 0
-4.7518 64.8502 -37.2465 0.474 0.879 0.052 177 158 142 0
-6.5130 65.9653 -37.6848 0.277 -0.753 0.597 179 163 148 0
-5.6440 66.9243 -37.0019 0.356 0.691 0.629 188 171 161 0
-5.5379 67.1387 -36.8884 0.322 0.711 0.625 189 173 161 0
-6.7137 67.8173 -37.2014 0.288 0.659 0.694 190 174 160 0
14.4655 70.8865 -26.8354 0.136 -0.594 0.793 198 186 174 0
-4.3419 81.3316 -31.9684 0.880 -0.237 -0.411 195 183 170 0
-4.0721 81.4572 -31.8096 0.853 -0.495 0.164 196 182 169 0
-3.5487 81.4604 -31.5759 0.755 -0.376 -0.537 193 182 170 0
-3.3192 81.6028 -31.4298 0.740 -0.382 -0.554 192 181 169 0
-2.4376 81.4297 -31.0913 0.856 0.330 0.399 192 181 169 0
17.9899 78.5331 -22.9040 0.710 0.646 -0.280 186 174 160 0
4.8636 92.9149 -24.2938 0.409 -0.878 0.251 180 169 152 0
-8.9119 105.3374 -26.5781 0.964 0.179 0.196 179 164 149 0
21.0958 90.3268 -17.8765 0.601 0.596 0.533 170 156 143 0
18.1555 94.7021 -17.8312 0.778 0.548 0.307 163 149 136 0
17.9763 96.1287 -17.4697 0.936 -0.285 -0.205 254 255 255 0
18.1070 96.4688 -17.3065 0.944 -0.284 -0.169 255 255 254 0
-5.8378 -4.6629 -59.5073 0.285 0.619 0.731 224 216 203 0
-10.0133 -2.8191 -60.8035 0.852 -0.327 -0.409 228 218 206 0
0.7000 26.8898 -46.8352 0.235 -0.129 0.963 231 221 211 0
-5.2105 28.6412 -48.9353 0.692 0.571 0.443 222 211 199 0
-8.5826 29.5960 -50.1471 0.877 -0.234 -0.420 218 205 192 0
-8.4530 29.8350 -50.0153 0.877 -0.241 -0.417 216 202 189 0
-9.7559 30.6775 -50.3373 0.549 -0.701 -0.455 161 142 133 0
-9.0960 30.8768 -49.9807 0.539 -0.716 -0.444 145 122 117 0
-8.2059 31.0554 -49.5278 0.546 -0.658 -0.519 140 113 110 0
-8.9832 31.3664 -49.7790 0.694 -0.546 -0.469 136 105 104 0
1.0488 31.7031 -45.1919 0.992 -0.119 -0.053 115 76 81 0
8.0826 33.8968 -41.3708 0.924 -0.091 -0.371 100 50 53 0
7.9683 34.5656 -41.2152 0.772 0.028 -0.635 96 46 49 0
11.3771 37.1297 -38.8995 0.804 -0.546 0.237 112 35 41 0
12.7360 38.8254 -37.7682 0.818 -0.572 0.063 109 31 38 0
12.3766 40.1553 -37.5178 0.604 -0.558 -0.569 101 30 36 0
12.3352 42.2860 -36.8779 0.857 -0.512 0.046 101 31 41 0
12.4847 42.6816 -36.6888 0.993 -0.036 0.110 97 27 36 0
12.5590 43.5166 -36.3976 0.899 -0.252 0.357 96 29 38 0
12.6295 43.7145 -36.3050 0.813 0.000 0.582 104 37 46 0
12.5926 43.9347 -36.2534 0.813 0.000 0.582 112 47 55 0
13.5797 44.1486 -35.7462 0.978 0.154 0.144 92 27 35 0
14.2166 44.6413 -35.3093 0.846 -0.509 -0.162 90 27 36 0
14.7363 45.5716 -34.7896 0.882 0.371 0.290 83 23 35 0
12.6147 47.7656 -35.0597 0.812 0.125 0.570 71 18 27 0
8.2211 53.9652 -35.1073 0.416 -0.225 0.881 59 18 26 0
7.9003 54.5063 -35.0834 0.712 -0.246 0.658 58 19 28 0
-0.4346 62.0122 -36.4886 0.627 0.757 -0.182 105 81 79 0
-4.1529 81.3624 -32.1705 0.534 0.319 0.783 195 181 169 0
-4.0318 81.5587 -32.0558 0.844 -0.508 0.172 195 181 168 0
17.8457 78.2943 -23.2880 0.822 0.224 0.523 186 177 160 0
17.6877 78.5933 -23.2662 0.860 0.502 -0.090 188 176 162 0
8.8829 87.1100 -24.5690 0.374 0.139 0.917 182 170 158 0
8.9584 87.2975 -24.4773 0.356 0.127 0.926 183 170 156 0
8.4202 88.0758 -24.4773 0.296 0.571 0.766 181 167 156 0
5.3282 92.9978 -24.3380 0.459 -0.884 0.088 179 170 153 0
10.5302 95.5626 -21.2208 0.550 0.332 0.766 175 161 148 0
10.2389 95.9872 -21.2197 0.548 0.342 0.763 175 161 148 0
16.5615 93.7517 -19.0851 0.147 0.116 0.982 170 156 143 0
11.2966 98.7304 -19.8994 0.150 0.047 0.988 168 154 141 0
18.1511 94.8268 -18.0425 0.778 0.548 0.307 162 148 136 0
17.9690 96.2571 -17.6819 0.936 -0.285 -0.205 254 255 255 0
18.0381 96.4247 -17.5993 0.936 -0.285 -0.205 254 255 255 0
-2.4432 -5.3211 -58.4720 0.222 0.216 0.951 225 215 205 0
-3.1075 -4.7715 -58.6006 0.230 0.268 0.936 225 216 205 0
-4.8143 28.4499 -49.1063 0.679 0.589 0.438 225 213 201 0
-5.1211 28.7102 -49.1638 0.692 0.571 0.443 223 211 199 0
-8.6708 29.4310 -50.5354 0.859 -0.454 -0.235 220 208 194 0
-11.2444 30.3630 -51.4033 0.491 -0.735 -0.468 213 200 185 0
-10.6211 30.5700 -51.0595 0.521 -0.733 -0.438 211 197 183 0
-9.9447 30.7707 -50.6937 0.544 -0.704 -0.457 181 164 153 0
-9.2995 30.9714 -50.3420 0.536 -0.713 -0.452 150 129 122 0
-8.5073 31.1579 -49.9286 0.551 -0.650 -0.523 144 118 114 0
-8.9948 31.4464 -50.0584 0.655 -0.581 -0.483 139 110 107 0
3.8266 33.5569 -43.6482 0.251 -0.862 -0.440 103 54 58 0
7.6429 34.6780 -41.5880 0.771 0.041 -0.636 96 46 49 0
11.0966 37.0308 -39.3102 0.690 -0.706 -0.160 109 34 41 0
13.0921 39.8936 -37.5298 0.803 -0.257 0.538 103 32 38 0
13.1502 40.0941 -37.4417 0.809 -0.332 0.484 100 31 36 0
12.5494 41.8967 -37.1548 0.939 0.024 0.344 99 30 39 0
12.5423 42.1104 -37.0920 0.940 0.023 0.340 98 29 38 0
12.5030 42.3305 -37.0417 0.934 0.014 0.356 98 28 38 0
12.5792 43.1654 -36.7496 0.970 -0.090 -0.226 91 26 32 0
12.5778 43.3783 -36.6845 0.985 -0.171 0.024 93 26 34 0
12.7324 43.9838 -36.4280 0.790 -0.109 0.603 99 34 42 0
13.6001 44.2225 -35.9646 0.978 0.154 0.144 93 27 36 0
13.9870 44.7703 -35.6216 0.895 0.083 0.439 88 25 35 0
12.7721 45.2512 -36.0187 0.682 -0.000 0.731 88 25 35 0
10.1455 52.8372 -34.8554 0.847 -0.388 -0.363 58 17 24 0
8.6901 53.9189 -35.1749 0.741 -0.230 0.631 59 19 27 0
7.9858 54.3474 -35.3589 0.702 -0.226 0.676 57 18 26 0
8.1043 54.5367 -35.2471 0.700 -0.224 0.678 59 21 29 0
7.8924 55.0480 -35.1844 0.979 0.198 -0.044 58 23 30 0
1.0580 58.9882 -37.0369 0.779 0.620 -0.090 55 29 30 0
2.8071 58.6750 -36.3481 0.888 -0.000 -0.460 55 31 32 0
-6.1503 63.2681 -38.9524 0.777 -0.586 0.228 91 67 67 0
-2.8474 63.9087 -37.2711 0.628 0.748 -0.214 172 154 134 0
-0.5688 80.5166 -31.1182 0.617 0.081 -0.782 196 181 170 0
-0.3826 81.1679 -30.8334 0.654 0.065 -0.753 190 180 168 0
17.0542 79.6908 -23.4585 0.906 0.410 0.110 187 175 161 0
17.1203 79.8684 -23.3740 0.986 0.121 -0.117 186 174 160 0
11.2093 85.4242 -24.3127 0.674 -0.715 0.186 181 169 157 0
6.2310 89.7184 -25.2222 0.187 0.564 0.804 181 167 156 0
5.2133 90.7966 -25.3463 0.325 0.617 0.717 182 168 156 0
16.7303 93.7578 -19.2592 0.165 0.122 0.979 169 155 142 0
15.7465 94.6523 -19.4247 0.135 0.103 0.986 169 155 142 0
18.1467 94.9518 -18.2543 0.778 0.548 0.307 162 148 136 0
17.7593 96.0953 -18.0751 0.965 -0.210 -0.154 50 50 50 0
17.8867 96.2219 -17.9788 0.930 -0.310 -0.197 247 247 245 0
17.9595 96.3872 -17.8950 0.930 -0.310 -0.197 254 255 255 0
18.0397 96.5470 -17.8096 0.940 -0.287 -0.186 254 255 255 0
-9.6788 29.3258 -51.3211 0.831 -0.548 -0.091 224 212 198 0
-9.5087 29.5648 -51.1705 0.819 -0.544 -0.186 221 209 195 0
-10.4011 30.8849 -51.1658 0.558 -0.596 -0.577 202 186 175 0
-9.7116 31.0827 -50.7935 0.566 -0.619 -0.545 160 141 133 0
-7.3404 31.8823 -49.4764 0.950 -0.056 -0.307 131 101 99 0
-3.3865 36.3396 -46.3158 0.557 -0.718 0.417 98 48 51 0
12.7767 38.9669 -38.2093 0.863 -0.504 0.023 103 30 34 0
13.1027 39.9666 -37.7536 0.929 -0.189 0.317 100 31 36 0
13.1565 40.1680 -37.6672 0.898 -0.239 0.369 98 31 35 0
13.1890 40.3731 -37.5892 0.902 -0.251 0.352 98 32 36 0
12.7366 40.8777 -37.6376 0.989 -0.067 -0.131 96 29 36 0
12.6190 42.1726 -37.2909 0.917 -0.072 0.392 96 30 38 0
12.6093 42.3869 -37.2291 0.917 -0.072 0.392 96 28 38 0
12.4771 43.2643 -37.0180 0.978 0.164 -0.128 91 26 32 0
12.6080 43.4503 -36.9015 0.960 -0.257 0.109 95 28 36 0
12.7662 44.0553 -36.6433 0.923 -0.309 0.228 91 26 34 0
13.7738 44.0527 -36.1893 0.966 -0.257 0.013 92 27 36 0
14.6246 44.4986 -35.6677 0.778 -0.465 0.422 89 26 38 0
14.6754 44.6966 -35.5836 0.783 -0.470 0.408 88 25 37 0
13.3219 45.2081 -36.0366 0.738 -0.088 0.670 87 25 38 0
13.6349 45.7725 -35.7211 0.860 -0.391 0.328 82 24 35 0
10.0843 52.9425 -35.1104 0.847 -0.388 -0.363 59 18 26 0
8.1342 53.9461 -35.6807 0.496 -0.284 0.820 58 18 26 0
8.6297 54.0260 -35.4324 0.820 -0.347 0.455 58 20 27 0
7.7660 54.5020 -35.6753 0.802 -0.148 0.579 56 18 25 0
7.8609 55.1484 -35.4329 0.979 0.198 -0.044 60 28 33 0
2.9568 58.0201 -36.7600 0.867 0.390 -0.310 53 27 28 0
2.9263 58.2643 -36.6983 0.959 0.184 -0.215 53 28 28 0
2.9465 58.7278 -36.5461 0.900 -0.026 -0.435 55 33 33 0
-5.8939 63.2892 -39.1283 0.837 -0.453 0.306 95 70 69 0
-5.7643 63.4988 -39.0050 0.766 -0.599 0.235 105 79 76 0
-3.1775 63.8787 -37.7202 0.579 0.766 -0.279 171 150 133 0
-5.9769 66.6089 -38.1409 0.359 -0.931 -0.061 183 167 154 0
-0.4435 65.6157 -35.9500 0.809 0.117 0.576 188 173 160 0
-0.6560 80.9247 -31.3200 0.642 -0.097 -0.760 195 181 170 0
13.7581 81.4097 -24.6643 0.323 0.246 0.914 187 175 161 0
1.9682 98.2840 -24.7768 0.116 0.225 0.968 178 165 151 0
18.0502 92.7580 -19.2238 0.192 0.223 0.956 170 156 143 0
18.4062 94.8906 -18.4048 0.735 0.599 0.317 163 148 136 0
17.6491 95.8612 -18.4469 0.965 -0.210 -0.154 163 148 133 0
17.7012 96.0422 -18.3676 0.965 -0.210 -0.154 105 97 89 0
17.7532 96.2230 -18.2882 0.965 -0.210 -0.154 50 50 50 0
17.8781 96.3515 -18.1922 0.934 -0.305 -0.187 246 246 245 0
17.9565 96.5129 -18.1070 0.930 -0.310 -0.197 254 255 255 0
18.0364 96.6730 -18.0215 0.940 -0.287 -0.186 254 255 255 0
-11.8458 29.5471 -52.5368 0.311 -0.942 -0.126 225 213 199 0
-10.5317 29.7123 -51.8897 0.881 -0.426 0.208 221 209 194 0
-8.3886 30.3114 -50.7327 0.727 -0.683 -0.071 215 203 186 0
-9.6351 31.4070 -50.9602 0.582 -0.454 -0.674 150 129 121 0
-7.4189 31.9678 -49.7818 0.941 -0.051 -0.336 135 105 103 0
-0.1907 32.0403 -46.4807 0.622 -0.584 -0.522 119 86 87 0
1.2982 32.1333 -45.7766 0.548 -0.650 -0.527 115 80 83 0
-12.4352 33.9443 -51.4474 0.893 0.450 -0.014 110 71 74 0
11.9134 39.1850 -38.7857 0.947 0.315 -0.066 99 30 35 0
11.7046 39.8604 -38.6721 0.997 -0.054 -0.054 100 30 36 0
13.1421 40.0347 -37.9663 0.951 -0.077 0.298 99 30 35 0
13.1421 40.2457 -37.9011 0.889 -0.257 0.378 96 30 34 0
10.5304 40.9267 -38.8757 0.993 0.104 -0.047 96 29 34 0
12.6750 40.9650 -37.8911 0.978 -0.088 -0.187 96 28 34 0
12.7667 41.1601 -37.7893 0.902 -0.432 -0.008 92 27 34 0
12.7429 41.3766 -37.7333 0.989 -0.083 -0.121 91 28 35 0
12.7072 41.5955 -37.6820 0.995 0.104 -0.002 91 29 34 0
13.3417 41.8975 -37.3010 0.948 -0.262 0.183 92 30 35 0
13.3578 42.1055 -37.2295 0.963 -0.204 0.174 94 31 38 0
12.4778 43.5555 -37.1813 0.969 -0.212 -0.126 91 24 33 0
12.6991 44.3613 -36.8323 0.969 -0.212 -0.126 90 26 35 0
13.7482 44.3474 -36.3607 0.692 -0.621 0.367 89 26 36 0
15.0425 44.6934 -35.6668 0.913 -0.388 0.129 86 24 40 0
13.4444 45.2602 -36.2169 0.811 -0.190 0.553 86 23 40 0
15.0222 45.5335 -35.4168 0.951 -0.111 0.287 81 24 33 0
14.5637 45.8488 -35.5275 0.988 0.045 -0.145 79 22 31 0
15.1683 45.9175 -35.2321 0.574 0.577 0.580 77 20 29 0
14.5671 46.2680 -35.3966 0.972 -0.085 0.221 75 20 29 0
13.2357 47.6455 -35.5756 0.729 0.155 0.667 71 18 28 0
9.8422 53.0996 -35.4321 0.883 -0.256 -0.393 58 19 27 0
7.9736 54.0826 -35.9765 0.730 -0.310 0.609 58 21 28 0
7.8850 54.3329 -35.9394 0.793 -0.347 0.501 58 21 28 0
7.9128 54.5495 -35.8600 0.805 -0.213 0.553 58 22 28 0
7.8551 55.2413 -35.6727 0.983 0.171 -0.061 58 26 31 0
4.9575 57.0319 -36.4346 0.210 -0.802 0.560 51 23 28 0
4.9624 57.2614 -36.3616 0.391 -0.919 0.046 51 26 29 0
2.8403 58.3877 -36.9767 0.959 0.184 -0.215 52 28 27 0
-5.7545 63.3486 -39.3447 0.839 -0.459 0.293 95 70 68 0
-6.0725 66.7515 -38.4391 0.348 -0.932 -0.096 183 169 153 0
-0.9260 65.4075 -36.5192 0.793 -0.460 0.398 184 170 155 0
-1.2120 65.7553 -36.5417 0.670 0.504 0.545 185 172 159 0
-0.7182 65.8204 -36.2976 0.823 -0.151 0.548 188 174 161 0
0.3086 65.9308 -35.7978 0.880 -0.363 0.307 189 177 161 0
0.2139 80.6203 -31.3085 0.285 -0.530 0.799 196 182 169 0
13.8265 85.2534 -23.7042 0.175 0.545 0.820 182 170 156 0
4.8196 95.3828 -24.6646 0.054 0.140 0.989 178 166 152 0
28.1384 84.0135 -17.5948 0.362 0.392 0.845 176 162 150 0
18.5056 92.5663 -19.3254 0.259 0.321 0.911 169 155 142 0
17.7621 93.2927 -19.4386 0.242 0.316 0.917 168 154 141 0
18.3901 95.0240 -18.6195 0.735 0.599 0.317 164 147 137 0
17.6936 95.9528 -18.6489 0.994 -0.082 -0.079 162 146 132 0
17.7160 96.1550 -18.5764 0.994 -0.082 -0.079 104 96 88 0
17.7384 96.3572 -18.5038 0.994 -0.082 -0.079 50 50 50 0
17.8764 96.4764 -18.4045 0.934 -0.305 -0.187 247 247 245 0
17.9389 96.6494 -18.3228 0.964 -0.213 -0.159 254 255 255 0
18.0187 96.8096 -18.2371 0.934 -0.305 -0.187 254 255 255 0
1.8042 -5.8599 -57.5392 0.445 -0.894 -0.044 226 215 206 0
-11.6499 -1.1783 -62.2287 0.323 -0.034 0.946 230 218 207 0
0.4851 26.0269 -48.3076 0.053 0.027 0.998 232 225 212 0
-10.4456 29.7850 -52.1315 0.881 -0.423 0.210 220 210 194 0
-10.3554 30.0310 -52.0146 0.881 -0.423 0.210 217 206 191 0
-8.2723 30.3807 -50.9571 0.715 -0.697 -0.054 213 202 186 0
-10.5920 31.3118 -51.7274 0.574 -0.550 -0.607 197 180 168 0
-9.8674 31.5056 -51.3374 0.561 -0.558 -0.612 162 142 133 0
-7.5155 32.0552 -50.0957 0.964 -0.054 -0.261 138 110 107 0
-10.8791 33.8738 -51.0682 0.953 0.289 -0.089 113 74 77 0
-11.3615 34.4319 -51.1161 0.952 0.179 -0.249 109 65 69 0
13.2603 40.2999 -38.0824 0.902 -0.252 0.351 96 29 35 0
10.4891 41.2278 -39.0596 0.994 0.093 -0.054 94 26 30 0
12.6477 41.2586 -38.0661 0.976 -0.097 -0.196 93 27 33 0
11.5288 43.6157 -37.8493 0.981 0.155 -0.120 91 26 34 0
13.3349 44.3037 -36.8138 0.875 -0.411 0.254 88 25 36 0
11.2549 45.8318 -37.2907 0.995 0.059 0.080 84 23 38 0
12.7446 45.7104 -36.6491 0.993 -0.119 0.013 83 23 36 0
15.0895 45.5970 -35.6151 0.951 -0.111 0.287 79 22 31 0
14.5893 45.9223 -35.7428 0.981 -0.023 -0.195 78 22 30 0
