ply
format ascii 1.0
element vertex 835
property float x
property float y
property float z
property float nx
property float ny
property float nz
property uchar diffuse_red
property uchar diffuse_green
property uchar diffuse_blue
property uchar class
end_header
-12.6318 45.3224 -17.3305 0.731 -0.434 -0.527 223 189 155 0
-12.5147 45.5390 -17.2351 0.713 -0.486 -0.505 224 195 160 0
-13.2758 45.9514 -17.2910 0.690 -0.435 -0.579 226 199 163 0
-13.1726 46.1721 -17.1977 0.681 -0.357 -0.639 225 201 164 0
-14.0902 48.8376 -16.5929 0.615 -0.607 -0.503 224 204 173 0
-13.8782 50.2639 -16.0995 -0.038 -0.785 0.619 224 206 175 0
9.8829 53.0620 -9.4941 0.243 -0.818 0.522 224 208 172 0
12.7281 58.6195 -7.0841 0.515 0.857 0.024 217 202 165 0
41.2191 52.3417 -2.1503 0.613 0.047 0.789 213 192 146 0
39.9153 53.7106 -2.0408 -0.126 -0.351 0.928 212 192 139 0
-20.7087 93.1317 -4.4587 0.475 0.811 0.341 196 173 122 0
-19.7445 93.9796 -3.9630 0.561 0.785 0.262 196 169 123 0
-3.8122 91.3244 -0.9388 0.237 -0.304 0.923 180 156 112 0
-5.0245 5.4173 -28.1062 0.955 0.241 -0.170 238 223 182 0
-5.3726 5.8190 -28.0665 0.871 0.447 -0.205 239 222 181 0
-6.1798 5.9734 -28.2151 0.955 0.284 0.086 240 223 183 0
-13.0199 29.6353 -22.5491 0.985 0.108 0.136 243 226 185 0
-15.2185 35.4310 -21.2886 0.306 -0.129 0.943 162 115 87 0
-15.4214 35.7038 -21.2535 0.122 -0.140 0.983 160 114 87 0
-14.8088 36.1000 -20.9817 0.100 -0.244 0.965 162 117 94 0
-14.6191 36.5568 -20.7940 0.018 -0.002 1.000 161 115 92 0
-14.3912 36.7643 -20.6742 0.064 -0.146 0.987 158 112 89 0
-14.0936 37.4441 -20.3912 0.019 -0.364 0.931 158 112 89 0
-14.0451 37.6784 -20.3068 0.027 -0.338 0.941 159 114 90 0
-13.1227 38.0105 -19.9794 -0.004 -0.170 0.985 167 120 96 0
-12.0305 38.7858 -19.4734 0.448 -0.136 0.883 163 106 86 0
-11.9468 39.0104 -19.3834 0.542 -0.058 0.839 161 105 85 0
-11.2151 43.4167 -17.8402 -0.016 -0.500 0.866 166 118 92 0
-11.3691 43.9285 -17.7191 0.046 -0.246 0.968 178 128 101 0
-12.5650 45.1505 -17.6316 0.624 0.247 0.742 182 133 103 0
-12.8132 45.4477 -17.5999 0.737 -0.359 0.573 184 139 107 0
-12.9003 45.7101 -17.5398 0.726 -0.489 -0.483 187 147 113 0
-13.2691 46.5244 -17.3773 0.722 -0.319 -0.614 224 196 159 0
-13.0464 46.7176 -17.2633 0.721 -0.316 -0.617 226 200 163 0
-17.1318 48.9121 -17.5777 -0.008 -0.016 1.000 224 203 168 0
-12.3799 48.7533 -16.4704 0.720 -0.177 -0.671 222 205 174 0
-9.8165 51.2386 -15.0765 0.368 0.254 0.895 223 207 175 0
-3.1562 91.0530 -1.1204 0.160 -0.300 0.941 179 156 112 0
-7.5940 94.4776 -1.1395 0.543 0.793 0.275 179 155 111 0
-3.0209 -10.7907 -32.8741 0.961 0.202 0.190 225 207 174 0
-12.9623 -6.8875 -34.1042 0.368 -0.832 -0.414 224 207 170 0
11.9520 -1.8354 -26.4287 0.421 -0.898 0.125 228 209 169 0
13.4832 -1.4135 -25.9225 0.388 -0.889 -0.241 228 209 169 0
10.0292 -1.3959 -26.7643 0.552 0.201 0.809 230 211 171 0
-8.8466 5.3823 -29.2959 0.204 -0.853 0.481 240 222 184 0
-1.1102 6.4016 -27.0827 0.803 0.594 -0.043 241 223 187 0
-14.2892 35.8588 -21.1956 0.163 -0.782 0.602 156 108 87 0
-13.9290 36.0469 -21.0490 0.163 -0.782 0.602 159 111 92 0
-13.6909 36.2523 -20.9270 0.083 -0.594 0.800 158 110 91 0
-13.4092 36.4502 -20.7966 0.064 -0.160 0.985 155 107 88 0
-13.4345 36.6949 -20.7270 0.059 -0.170 0.984 153 105 85 0
-12.7644 36.8307 -20.5206 0.157 -0.657 0.738 156 108 88 0
-12.3374 37.2420 -20.2886 0.090 -0.648 0.756 156 107 86 0
-13.0016 37.5888 -20.3441 0.058 -0.335 0.940 157 108 86 0
-12.1259 37.6858 -20.0993 0.200 -0.313 0.928 161 113 90 0
-11.6611 39.0402 -19.5659 0.542 -0.058 0.839 156 97 80 0
-12.0068 39.3399 -19.5579 0.447 -0.466 0.763 157 98 80 0
-11.9960 41.7368 -18.8132 0.087 -0.929 0.360 153 98 79 0
-9.0551 41.8717 -18.0501 0.929 0.301 -0.217 157 104 84 0
-10.5844 42.8914 -18.1095 0.031 -0.560 0.828 160 108 85 0
-10.6375 44.0959 -17.7496 0.056 -0.132 0.990 173 117 89 0
-12.7498 45.0331 -17.9776 0.593 0.785 0.181 178 122 92 0
-12.6063 45.2447 -17.8769 0.713 0.320 0.624 177 121 91 0
-12.6740 45.5025 -17.8137 0.747 -0.338 0.572 176 122 92 0
-15.9622 48.7230 -17.6232 -0.022 -0.061 0.998 225 202 167 0
-16.6577 49.1404 -17.6646 -0.039 -0.091 0.995 222 204 169 0
-12.1136 49.0193 -16.5874 0.632 -0.485 -0.604 221 205 172 0
-14.9495 50.9666 -16.6802 0.135 -0.802 0.582 221 206 173 0
10.9807 52.0385 -9.9877 0.679 0.727 0.100 226 210 176 0
10.0987 53.1541 -9.8586 0.750 0.659 -0.056 224 210 175 0
-7.8960 94.7877 -1.3831 0.539 0.790 0.291 178 155 111 0
16.2289 82.6426 0.7746 0.852 0.522 0.036 170 147 106 0
-10.4393 -8.8326 -34.3365 0.225 0.371 0.901 228 205 171 0
-12.4110 -6.7534 -34.1807 0.372 -0.719 -0.587 225 207 171 0
-14.6244 -6.8944 -34.7715 0.471 -0.571 -0.672 224 208 169 0
9.9649 -2.4848 -27.3285 0.455 -0.764 -0.457 225 208 170 0
10.7369 -2.1760 -27.0421 0.460 -0.761 -0.457 228 210 171 0
11.5453 -1.8639 -26.7457 0.435 -0.826 -0.357 231 212 172 0
-7.7927 5.7340 -29.1756 0.225 -0.860 0.457 241 223 185 0
-16.3260 27.9387 -24.4154 0.995 0.048 -0.087 244 226 187 0
-12.8915 29.2921 -23.1476 0.864 0.458 0.209 238 224 185 0
-11.5853 34.8238 -21.1133 0.319 -0.106 0.942 159 104 84 0
-11.5910 35.5363 -20.8943 0.187 -0.253 0.949 152 100 81 0
-11.9952 36.7880 -20.6070 0.162 -0.644 0.748 152 101 82 0
-11.8679 37.0064 -20.5079 0.075 -0.758 0.648 156 103 85 0
-11.6089 39.1107 -19.7929 0.341 -0.135 0.930 153 91 76 0
-12.6353 45.5795 -18.0453 0.759 -0.325 0.564 172 113 85 0
-13.3301 47.4465 -17.6394 -0.007 -0.021 1.000 199 157 126 0
-12.1634 48.1459 -17.1346 0.863 -0.025 -0.504 223 201 166 0
-12.1719 49.1221 -16.8347 0.646 -0.439 -0.625 218 202 169 0
-12.9704 50.3022 -16.6670 0.493 -0.509 0.705 221 204 173 0
-13.0589 50.5707 -16.6058 0.507 -0.483 0.714 220 204 172 0
-20.7789 98.8357 -3.5819 0.856 -0.474 0.208 188 161 115 0
-8.5378 96.0745 -1.4101 0.045 -0.657 0.752 175 150 109 0
15.9186 82.9446 0.5736 0.777 0.335 0.533 167 144 103 0
15.6645 83.3151 0.6254 0.756 0.341 0.559 166 143 101 0
-3.8938 -10.6971 -33.5316 0.930 0.359 0.081 221 205 171 0
-8.1157 5.5400 -29.5634 0.200 -0.887 0.415 241 223 184 0
-7.2526 5.8252 -29.2603 0.199 -0.878 0.436 241 223 185 0
-1.2582 6.4866 -27.5624 0.755 0.655 -0.013 243 225 187 0
-16.3197 28.0106 -24.6601 0.995 0.061 -0.082 244 226 188 0
-11.1451 34.8366 -21.2606 0.292 -0.305 0.907 153 94 78 0
-12.2041 36.1819 -21.1085 0.171 -0.510 0.843 151 100 79 0
-11.4436 36.7789 -20.7345 0.162 -0.644 0.748 145 93 73 0
-11.1982 36.9775 -20.6120 0.073 -0.758 0.648 155 100 83 0
-11.2072 38.6435 -20.0992 0.317 0.134 0.939 152 90 75 0
-11.0748 38.8586 -19.9997 0.396 -0.136 0.908 148 86 73 0
-11.1635 39.1122 -19.9434 0.386 -0.187 0.903 149 85 72 0
-11.4769 44.9254 -18.2242 0.057 -0.405 0.913 166 104 79 0
-12.3147 48.2702 -17.3988 0.859 -0.022 -0.512 221 194 157 0
-12.1616 48.4767 -17.2968 0.813 -0.080 -0.577 221 200 163 0
-14.9865 49.4145 -17.7107 -0.029 0.068 0.997 218 201 163 0
-15.7295 49.8473 -17.7620 -0.029 0.068 0.997 218 201 165 0
-16.1828 50.2106 -17.7625 -0.020 0.039 0.999 219 200 166 0
10.6244 52.5232 -10.3692 0.695 0.718 0.037 224 210 174 0
10.5329 52.7598 -10.3189 0.680 0.730 0.074 226 212 175 0
9.3713 53.7713 -10.2956 0.699 0.714 -0.049 225 207 178 0
8.3430 54.3288 -10.3794 0.668 0.720 -0.189 223 206 176 0
44.2353 52.5783 -1.9789 0.283 -0.109 0.953 214 192 151 0
-20.5983 98.8672 -3.8196 0.842 -0.498 0.207 188 161 116 0
-6.5869 92.9834 -2.1481 0.563 -0.781 -0.270 179 156 114 0
20.2361 81.5291 0.9929 0.620 0.714 0.326 161 138 96 0
13.0649 -9.8114 -29.2374 0.980 -0.106 -0.170 255 255 255 0
-7.6293 5.4086 -29.7303 0.264 -0.820 0.508 239 222 187 0
-7.3594 5.6486 -29.5884 0.248 -0.831 0.497 241 222 186 0
-6.9721 5.8966 -29.4145 0.188 -0.886 0.424 242 224 187 0
-5.5238 6.4373 -28.8839 0.206 -0.868 0.453 246 227 190 0
-20.6018 29.4696 -25.5533 -0.036 -0.762 0.647 240 224 185 0
-10.7204 34.6154 -21.4829 0.205 -0.403 0.892 153 93 78 0
-10.6231 34.8373 -21.3899 0.212 -0.386 0.898 151 89 75 0
-11.5843 36.1646 -21.2211 0.184 -0.487 0.854 149 97 74 0
-11.0729 36.3234 -21.0437 0.147 -0.304 0.941 149 97 74 0
-10.6582 36.9688 -20.7402 0.084 -0.780 0.620 147 92 74 0
-15.9047 50.4834 -17.8820 -0.007 0.191 0.982 219 200 166 0
16.8125 61.8050 -6.1707 0.690 -0.347 0.635 213 195 155 0
-10.5531 -3.8951 -33.5900 0.973 0.148 0.179 231 213 176 0
-6.9124 5.7330 -29.6965 0.240 -0.858 0.454 240 223 188 0
-6.4448 5.9863 -29.5000 0.185 -0.878 0.441 244 226 190 0
-5.5697 6.2678 -29.1917 0.193 -0.867 0.459 246 228 192 0
-11.4106 27.0098 -24.2656 0.890 -0.407 0.205 245 227 189 0
-20.6043 28.7931 -26.0407 0.106 -0.989 0.101 242 224 187 0
-7.4808 34.6884 -20.9008 0.853 -0.360 0.378 147 82 71 0
-10.9640 36.1466 -21.3318 0.289 -0.377 0.880 149 93 74 0
-7.7805 35.8887 -20.6061 0.439 -0.541 0.717 151 95 74 0
-10.5809 36.5606 -21.1070 0.152 -0.647 0.747 148 92 73 0
-10.4773 36.7808 -21.0129 0.081 -0.784 0.616 138 81 63 0
-9.8142 38.3246 -20.3685 0.181 0.096 0.979 151 85 74 0
-9.9671 39.0599 -20.1802 0.117 -0.349 0.930 146 76 68 0
-9.9750 39.2979 -20.1087 0.119 -0.350 0.929 152 81 73 0
-9.9288 39.5262 -20.0265 0.157 0.011 0.988 152 81 74 0
-10.1427 39.8018 -19.9955 0.157 0.011 0.988 144 75 67 0
-13.8428 50.0544 -17.7662 -0.001 0.193 0.981 219 198 164 0
-15.0416 50.6068 -17.8989 -0.008 0.208 0.978 219 200 167 0
-8.3810 96.1081 -2.1663 0.035 -0.589 0.807 178 153 113 0
-6.0109 95.9133 -1.6269 0.429 0.397 0.811 174 148 112 0
16.0046 83.0005 -0.0444 0.977 0.208 0.033 172 147 109 0
20.7290 81.2168 0.6000 0.698 0.671 0.250 162 139 98 0
20.2251 81.7435 0.6351 0.624 0.637 0.453 161 138 97 0
19.7153 82.2761 0.6706 0.630 0.632 0.452 159 135 97 0
-7.4204 -9.1894 -34.6766 0.788 -0.438 -0.433 224 205 172 0
-6.8429 -8.8664 -34.4297 0.800 -0.508 -0.318 224 204 172 0
-21.1306 -7.3051 -37.5898 0.782 -0.510 -0.359 230 210 173 0
-21.3607 -6.8653 -37.5127 0.742 -0.582 -0.333 230 210 173 0
-7.7009 5.2838 -30.2829 0.198 -0.891 0.409 240 223 186 0
-6.7269 5.5791 -29.9435 0.083 -0.742 0.666 239 223 187 0
-6.4044 5.8218 -29.7864 0.100 -0.734 0.672 242 226 190 0
-5.8406 6.0813 -29.5627 0.082 -0.730 0.679 246 228 192 0
-13.4504 29.6385 -24.2346 0.809 -0.529 0.255 210 183 151 0
-7.7152 32.4906 -21.8928 0.446 -0.822 0.354 154 97 79 0
-7.2376 34.7269 -21.0811 0.685 -0.229 0.691 143 76 66 0
-7.1887 34.9500 -20.9999 0.679 -0.293 0.673 144 79 68 0
-7.1660 35.1769 -20.9241 0.679 -0.293 0.673 145 83 70 0
-7.2520 35.4203 -20.8709 0.662 -0.223 0.715 145 85 72 0
-10.4500 36.1444 -21.4626 0.289 -0.370 0.883 144 84 69 0
-7.4220 35.9082 -20.7637 0.441 -0.535 0.720 144 84 69 0
-10.0250 36.5502 -21.2291 0.152 -0.647 0.747 149 87 74 0
-9.5375 39.0628 -20.3297 0.142 -0.416 0.898 146 74 67 0
-9.4685 39.2864 -20.2431 0.142 -0.393 0.909 148 75 68 0
-8.8473 45.0740 -18.2992 0.113 -0.154 0.982 156 89 72 0
-12.6923 50.0991 -17.7289 -0.011 0.148 0.989 220 199 163 0
14.4953 61.9748 -7.1353 0.833 -0.553 -0.040 215 198 162 0
15.5860 61.7087 -6.9394 0.949 -0.301 0.098 213 197 161 0
16.5159 61.5083 -6.7643 0.787 -0.192 0.587 213 197 161 0
9.0114 84.4136 -1.6104 0.437 -0.588 0.681 180 155 114 0
-7.7835 95.8692 -2.3569 0.057 -0.579 0.813 178 153 113 0
-3.7769 94.1467 -1.8672 0.489 -0.302 0.818 175 150 110 0
19.7906 82.3318 0.4948 0.671 0.696 0.256 159 135 99 0
19.9529 82.4293 0.5663 0.764 0.625 0.160 160 135 98 0
-7.4402 -9.1547 -34.9158 0.793 -0.397 -0.463 224 204 171 0
-10.0456 -7.2475 -34.9970 0.479 0.066 0.875 228 209 174 0
-9.7373 -6.9758 -34.8340 0.516 0.035 0.856 230 211 175 0
-5.2141 6.1777 -29.6172 0.152 -0.662 0.734 246 228 192 0
-16.2839 30.9820 -24.8130 0.993 0.094 -0.067 166 119 96 0
-15.9615 31.1903 -24.6660 0.934 0.286 0.214 166 116 94 0
-15.4739 31.3787 -24.4826 0.987 -0.041 0.158 163 111 90 0
-8.2169 31.7040 -22.5187 0.707 -0.382 0.595 165 108 89 0
-8.6254 31.9859 -22.5367 0.761 -0.081 0.643 161 104 85 0
-7.1260 35.0150 -21.2177 0.603 -0.610 0.513 145 80 70 0
-7.1236 35.4756 -21.0751 0.682 -0.217 0.698 143 82 70 0
-9.5682 36.3198 -21.4427 0.166 -0.627 0.761 142 80 68 0
-9.3772 38.4062 -20.7504 0.499 0.358 0.789 140 71 60 0
-9.5347 38.6693 -20.7097 0.526 0.375 0.764 139 68 60 0
-9.2835 38.8610 -20.5861 0.399 -0.630 0.666 141 69 62 0
-9.2932 39.0983 -20.5154 0.392 -0.613 0.686 148 75 68 0
-8.9321 40.6817 -19.9346 0.408 -0.531 0.743 143 67 59 0
-8.9156 40.9142 -19.8586 0.420 -0.407 0.811 141 65 58 0
-8.9096 41.1489 -19.7847 0.472 -0.213 0.855 141 67 61 0
-8.1259 46.1770 -18.0333 0.208 -0.019 0.978 155 95 80 0
15.1577 61.9813 -7.1814 -0.043 -0.217 0.975 211 196 159 0
8.8848 66.4104 -7.4268 0.779 -0.551 -0.301 211 194 161 0
8.5061 85.7269 -1.5689 0.580 -0.809 -0.099 178 153 113 0
19.4994 82.6259 0.2983 0.736 0.608 -0.296 159 135 101 0
-6.8686 -8.5810 -34.8365 0.893 -0.438 0.106 226 205 172 0
-6.6607 -8.3293 -34.7051 0.002 -0.337 0.941 226 206 174 0
11.5362 -4.2222 -28.7315 0.510 0.041 0.859 229 206 175 0
-2.3120 4.9653 -29.4842 0.385 0.480 0.788 238 223 182 0
-2.9546 5.5456 -29.4716 0.589 -0.554 0.588 240 224 184 0
-11.1456 26.7275 -25.0653 0.778 -0.403 0.483 243 224 192 0
-7.2626 31.4289 -22.6122 0.494 -0.865 0.089 167 110 90 0
-7.9086 31.7381 -22.6840 0.723 -0.356 0.592 163 106 87 0
-8.3832 32.0282 -22.7175 0.799 -0.047 0.600 158 101 83 0
-7.6318 32.1643 -22.4811 0.562 -0.826 0.038 157 100 83 0
-8.4868 39.5023 -20.4417 0.649 0.156 0.744 149 74 68 0
-8.8487 39.8036 -20.4425 0.658 -0.422 0.624 144 68 62 0
-8.7538 40.4922 -20.2058 0.393 -0.503 0.770 147 69 61 0
-8.6027 40.6988 -20.1030 0.408 -0.531 0.743 142 65 57 0
-8.5515 40.9243 -20.0203 0.418 -0.406 0.812 141 64 57 0
-8.6110 41.1713 -19.9596 0.454 -0.197 0.869 141 66 60 0
45.8424 53.3217 -2.1270 0.554 -0.659 0.508 209 186 152 0
9.7867 84.6076 -1.8175 0.083 -0.630 0.772 178 153 112 0
-4.6330 95.1823 -2.2906 0.660 -0.736 -0.154 173 151 110 0
23.3698 79.4248 0.1002 0.581 0.792 0.188 164 140 102 0
-6.6730 -8.5057 -35.0070 0.767 -0.282 0.576 226 206 170 0
-8.7600 5.7956 -31.1482 0.494 -0.596 0.632 243 228 192 0
-23.5037 28.3417 -28.0503 -0.002 -0.924 0.382 240 221 188 0
-7.9469 32.0459 -22.8547 0.440 -0.362 0.822 150 92 76 0
-7.3564 32.2015 -22.6529 0.571 -0.819 0.062 149 91 76 0
-5.1103 33.9525 -21.5283 0.879 -0.339 0.336 132 69 59 0
-4.8756 34.1453 -21.4078 0.886 -0.378 0.269 131 67 57 0
-8.3621 40.4977 -20.3610 0.709 -0.408 0.575 154 80 71 0
-8.2562 40.7125 -20.2673 0.902 0.189 0.388 144 68 61 0
-5.2048 41.7353 -19.1569 0.635 -0.421 0.648 142 79 67 0
-8.7645 5.8464 -31.3855 0.376 -0.591 0.714 243 227 192 0
-11.5988 26.1989 -25.8685 0.646 -0.538 0.542 243 225 195 0
-23.8746 28.1935 -28.4786 -0.044 -0.881 0.472 238 219 187 0
-20.0492 28.3660 -27.4210 0.002 -0.933 0.359 237 219 184 0
-4.6867 34.4170 -21.5251 0.954 -0.292 -0.071 135 71 61 0
-7.9133 39.0874 -20.9356 0.695 -0.276 0.664 152 76 70 0
-8.4833 40.3653 -20.6921 0.703 -0.335 0.627 154 84 73 0
-8.2796 40.5619 -20.5782 0.712 -0.393 0.582 157 84 75 0
-8.1183 40.7659 -20.4730 0.900 0.201 0.387 143 69 62 0
-13.8234 53.9916 -17.9025 0.413 -0.764 -0.495 216 203 171 0
6.8969 63.4281 -9.5581 -0.081 -0.308 0.948 214 201 168 0
43.7766 54.3240 -2.6740 0.281 -0.033 0.959 207 189 153 0
11.2722 83.0427 -2.3748 0.732 0.682 -0.009 180 157 115 0
21.5429 79.4063 -0.7963 0.282 -0.667 0.689 171 149 107 0
11.5394 -3.0163 -28.9910 -0.014 -0.474 0.881 230 210 175 0
2.1822 1.6355 -30.0363 0.318 -0.904 -0.285 236 217 179 0
-2.6707 5.2896 -30.1968 0.629 -0.679 0.378 235 225 184 0
-2.3068 5.5309 -30.0263 0.600 -0.700 0.387 236 226 185 0
-14.6077 26.7474 -26.7580 0.608 -0.631 0.482 240 223 192 0
-8.0178 40.5917 -20.7586 0.630 -0.400 0.666 150 77 65 0
-6.6589 47.3435 -18.3234 0.084 -0.104 0.991 132 76 63 0
-11.4031 52.4209 -18.0176 0.037 0.193 0.980 221 197 168 0
-12.2181 52.8917 -18.0884 0.042 0.202 0.979 217 199 166 0
-13.1911 54.4055 -17.8804 0.530 -0.471 -0.705 216 203 172 0
7.5076 63.2684 -9.6801 -0.155 -0.464 0.872 214 201 169 0
6.8349 63.9841 -9.6380 -0.053 -0.190 0.980 213 199 167 0
6.6591 64.2766 -9.5946 -0.052 -0.184 0.982 213 199 167 0
5.8515 64.8363 -9.6362 -0.010 -0.097 0.995 214 198 168 0
4.9846 65.4242 -9.6847 0.056 -0.039 0.998 215 198 168 0
-9.1604 74.4140 -10.6630 0.230 -0.380 0.896 214 195 163 0
25.4303 77.6253 -0.5250 0.006 -0.912 0.411 171 149 107 0
-1.8318 4.5654 -30.4363 0.805 0.051 0.591 240 222 184 0
-3.0317 4.8832 -30.6584 0.733 -0.677 0.067 239 222 184 0
-20.4669 27.5479 -28.3419 -0.056 -0.764 0.642 237 221 187 0
-8.6858 30.9626 -24.1534 0.547 -0.700 0.460 157 99 82 0
-8.9190 31.2226 -24.1357 0.540 -0.550 0.637 154 92 78 0
-5.9057 47.4772 -18.3392 0.137 -0.092 0.986 126 72 59 0
-10.8678 52.6097 -18.0848 0.039 0.196 0.980 218 197 166 0
8.6958 62.8681 -9.7199 -0.147 -0.451 0.880 213 200 168 0
-6.9293 99.7037 -2.5677 0.140 -0.848 0.511 163 139 103 0
12.7756 -8.7176 -30.8321 0.976 -0.107 -0.190 224 205 177 0
-7.9835 3.8469 -32.5473 0.951 0.307 -0.027 239 221 181 0
-1.8153 4.6140 -30.6561 0.798 0.043 0.601 240 222 184 0
-3.0222 4.7195 -30.9477 0.576 0.269 0.772 239 220 186 0
-14.6840 26.6549 -27.3441 0.787 -0.604 0.127 239 222 187 0
-22.6783 27.8078 -29.1361 -0.065 -0.934 0.352 236 219 184 0
-14.1391 27.3320 -26.9900 0.806 -0.554 0.208 235 218 182 0
-7.5253 40.6569 -21.1242 0.362 -0.200 0.911 144 65 59 0
-3.9885 44.0934 -19.1198 0.654 -0.123 0.746 134 59 54 0
-4.0023 44.3262 -19.0521 0.648 -0.127 0.751 128 56 51 0
-4.0869 44.5752 -18.9983 0.656 -0.088 0.749 129 59 54 0
-4.0671 44.8006 -18.9238 0.804 -0.218 0.553 133 65 58 0
-5.8639 48.0203 -18.4177 0.249 0.477 0.843 124 73 60 0
-10.3874 52.8118 -18.1610 0.073 0.242 0.967 216 198 166 0
-11.0650 53.2468 -18.2094 0.081 0.271 0.959 215 199 167 0
-8.1863 54.3604 -17.0948 0.909 0.362 0.208 216 204 176 0
14.4335 61.8026 -8.7384 -0.260 -0.439 0.860 213 198 165 0
46.0253 52.9793 -2.9669 -0.017 -0.346 0.938 209 188 158 0
45.7856 53.3913 -2.9048 -0.072 -0.401 0.913 207 186 156 0
16.5177 78.9246 -2.9227 0.713 0.694 -0.096 189 164 131 0
19.3413 82.9526 -0.9282 0.677 0.735 -0.037 161 137 101 0
17.8303 84.3552 -0.9033 0.673 0.738 -0.049 161 135 100 0
12.8410 -8.8531 -31.0642 0.973 -0.152 -0.174 219 203 176 0
11.8359 -3.5970 -29.7235 0.791 -0.109 0.602 228 209 176 0
9.3578 -2.8991 -30.1795 0.120 -0.691 0.713 230 211 176 0
-1.0608 4.5186 -30.7208 0.489 0.287 0.824 239 221 183 0
-1.2094 4.7147 -30.7009 0.489 0.287 0.824 240 222 185 0
-2.2881 5.0422 -30.8920 0.673 0.480 0.563 239 221 186 0
-14.0605 26.4355 -27.5122 0.827 -0.554 0.090 238 223 188 0
-23.2577 27.6760 -29.6184 -0.036 -0.977 0.211 236 219 185 0
-20.5525 27.7042 -28.8783 -0.050 -0.938 0.342 235 219 183 0
-10.6301 29.4503 -25.6599 -0.032 -0.817 0.576 161 108 91 0
-4.7762 31.7755 -23.3639 0.457 -0.477 0.750 136 76 65 0
-4.8201 32.2337 -23.2352 0.439 -0.412 0.798 134 74 63 0
-4.8353 33.5961 -22.8214 0.634 -0.343 0.693 138 74 60 0
-10.2488 53.1087 -18.2992 0.112 0.417 0.902 217 197 168 0
10.4117 49.7563 -13.7416 0.935 -0.283 0.212 219 206 176 0
18.0627 61.3302 -8.1225 -0.202 -0.242 0.949 210 194 166 0
5.2716 68.7132 -9.3160 0.669 0.743 0.003 210 193 163 0
12.8463 76.7107 -4.8146 0.019 -0.867 0.498 195 174 143 0
14.2214 76.7907 -4.4183 0.516 0.640 0.569 198 175 142 0
16.4698 -3.2873 -28.5781 0.189 -0.012 0.982 228 209 177 0
-0.8298 4.5861 -30.8756 0.623 0.131 0.771 240 221 188 0
-10.6638 29.2900 -25.9807 -0.072 -0.704 0.706 163 108 92 0
-5.9939 30.8601 -24.2277 0.723 0.426 0.544 143 79 67 0
-4.5664 32.0459 -23.4755 0.665 -0.548 0.508 143 83 73 0
-4.5639 32.2717 -23.4056 0.666 -0.527 0.528 141 81 70 0
-4.5936 33.6346 -22.9959 0.627 -0.339 0.701 130 65 52 0
-6.1204 35.2294 -22.9227 0.463 -0.163 0.872 144 74 62 0
-3.3372 42.5095 -19.9331 0.797 -0.173 0.579 143 63 59 0
-3.4599 42.7641 -19.8885 0.800 -0.145 0.582 140 61 56 0
-4.5900 45.0857 -19.4846 0.807 -0.293 0.512 125 54 49 0
-5.9249 48.9119 -18.6752 0.108 -0.173 0.979 122 72 60 0
24.7701 58.2908 -7.4412 -0.237 -0.367 0.900 209 195 166 0
13.1491 76.6448 -4.9795 0.025 -0.867 0.497 197 175 144 0
11.0395 79.7846 -4.5915 0.525 0.428 0.735 195 172 140 0
10.6411 80.2333 -4.5625 0.522 0.426 0.739 195 172 140 0
15.0539 81.7050 -2.9096 0.098 0.227 0.969 185 163 127 0
3.6560 90.1243 -3.4326 0.642 0.751 0.152 179 155 118 0
20.3662 82.0869 -1.3459 0.656 0.751 0.066 164 140 104 0
13.2788 -8.3366 -31.2028 0.776 -0.628 -0.063 223 207 175 0
16.7271 -3.2088 -28.6863 0.165 0.001 0.986 229 211 177 0
16.5821 -3.0587 -28.6801 0.172 0.058 0.983 228 210 176 0
-0.7452 4.6405 -31.0740 0.625 0.171 0.762 240 221 189 0
-13.8430 26.0797 -28.0990 0.883 0.008 0.469 234 221 190 0
-5.9582 30.9268 -24.4516 0.709 0.437 0.554 144 80 67 0
-4.2187 32.2978 -23.5545 0.679 -0.553 0.483 135 73 64 0
-4.0519 32.5013 -23.4464 0.652 -0.526 0.547 132 69 60 0
-4.3813 32.9977 -23.3847 0.728 0.015 0.685 130 65 55 0
-4.2632 33.2077 -23.2880 0.572 0.064 0.818 134 69 58 0
-4.1434 33.4171 -23.1910 0.583 -0.291 0.759 138 72 60 0
-3.0852 36.6412 -21.9131 0.988 -0.116 0.103 161 90 77 0
-3.5234 39.2093 -21.2466 0.901 -0.049 0.430 169 96 86 0
-3.7223 39.4742 -21.2200 0.864 -0.035 0.503 165 91 82 0
-4.8121 45.4517 -19.6879 0.936 -0.054 0.347 123 52 46 0
-4.1318 45.5232 -19.4794 0.886 -0.387 0.255 121 53 44 0
-3.9786 45.7177 -19.3778 0.897 -0.393 0.200 121 53 44 0
-3.0990 46.1962 -18.9900 0.797 -0.480 0.366 119 55 46 0
-2.9963 46.4004 -18.8992 0.841 -0.189 0.508 119 56 47 0
-6.6100 50.5977 -18.6046 0.835 0.287 0.470 122 78 63 0
-11.7859 54.4714 -18.8376 0.080 0.402 0.912 216 197 170 0
-2.0753 74.1584 -10.1436 -0.026 -0.023 0.999 208 189 163 0
14.2245 76.9941 -4.8044 -0.027 -0.191 0.981 195 171 142 0
20.2156 76.0089 -3.4630 0.475 -0.570 -0.671 196 172 137 0
11.9877 83.0444 -3.5645 0.634 0.752 0.183 185 164 131 0
23.4181 81.7862 -0.8149 0.893 -0.214 -0.395 158 134 97 0
23.5308 81.9090 -0.7464 0.887 -0.239 -0.395 158 133 97 0
17.1491 -3.2762 -28.7929 0.125 -0.069 0.990 227 209 175 0
16.9353 -3.1391 -28.8100 0.120 -0.070 0.990 229 211 177 0
-19.0196 27.5474 -29.3483 -0.055 -0.957 0.284 232 214 186 0
-5.5117 35.0562 -23.3186 0.591 -0.254 0.765 149 78 66 0
-5.5370 35.2894 -23.2542 0.600 -0.248 0.761 154 82 68 0
-5.2189 35.6983 -23.0412 0.401 -0.412 0.818 152 82 70 0
-4.6321 35.8341 -22.8375 0.649 -0.193 0.736 155 84 73 0
-3.6477 35.9040 -22.5442 0.979 -0.080 0.190 157 87 75 0
-3.4514 39.2728 -21.4588 0.887 -0.046 0.460 169 95 86 0
-3.6565 39.5391 -21.4339 0.852 0.005 0.524 164 90 80 0
-5.0158 41.1800 -21.3071 0.368 -0.248 0.896 159 83 73 0
-5.1560 41.9017 -21.1249 0.305 0.032 0.952 155 78 72 0
-3.7857 45.5240 -19.6376 0.940 -0.014 0.342 122 53 45 0
-2.7677 46.1981 -19.1500 0.739 -0.577 0.348 117 54 45 0
-2.8686 46.4520 -19.1002 0.818 -0.116 0.563 118 54 47 0
-2.5812 74.2636 -10.5075 0.945 -0.072 -0.319 209 189 164 0
19.6601 76.2341 -3.7607 0.453 -0.587 -0.671 192 168 135 0
20.6908 76.0280 -3.5391 0.133 -0.988 0.078 192 167 136 0
18.2291 79.3410 -3.2050 -0.072 -0.476 0.876 184 164 132 0
23.4867 82.0421 -0.9259 0.887 -0.239 -0.395 158 134 98 0
4.0632 22.7462 -24.6753 0.961 -0.082 -0.264 240 228 201 0
-22.2147 27.3815 -30.5675 -0.054 -0.967 0.250 234 217 189 0
-3.4481 33.9140 -23.3488 0.458 -0.610 0.647 135 64 55 0
-3.2537 34.1108 -23.2345 0.444 -0.603 0.662 139 69 59 0
-4.0031 34.9008 -23.2013 0.584 -0.494 0.644 151 79 65 0
-3.0621 37.0125 -22.2936 0.969 -0.229 0.094 174 105 91 0
-5.8834 40.2719 -22.0815 0.777 0.240 0.583 163 89 77 0
-4.5822 41.1722 -21.4441 0.654 0.071 0.753 165 88 77 0
-4.6687 41.4201 -21.3923 0.654 0.071 0.753 166 88 79 0
-4.5870 41.8644 -21.2337 0.624 -0.343 0.702 152 74 67 0
-4.8761 42.3863 -21.1545 0.491 -0.796 0.354 144 67 61 0
-2.5032 46.2162 -19.3229 0.799 -0.569 0.193 117 49 44 0
-2.6141 46.4722 -19.2754 0.835 -0.194 0.515 117 51 44 0
-6.6839 50.7945 -19.0855 0.853 0.390 0.348 115 70 61 0
-6.3895 50.9516 -18.9555 0.939 0.326 0.114 115 72 61 0
-1.4210 73.5885 -10.6490 0.654 -0.721 -0.229 207 190 164 0
49.0247 51.6958 -3.3126 0.149 0.053 0.987 205 188 159 0
15.0991 76.4920 -5.1653 0.269 -0.546 0.793 194 173 143 0
15.1357 76.6819 -5.0971 0.139 -0.645 0.751 194 173 142 0
20.8450 76.0356 -3.7065 0.133 -0.988 0.078 191 166 136 0
22.2420 77.7836 -2.7832 0.135 0.291 0.947 185 162 128 0
18.6092 83.3431 -2.0932 0.670 0.698 -0.253 173 146 116 0
23.3624 82.2293 -1.1117 0.885 -0.243 -0.398 160 136 100 0
4.1331 22.8017 -24.8725 0.981 -0.057 -0.184 239 229 201 0
3.0484 23.0774 -25.0921 0.948 0.190 -0.257 239 229 201 0
-17.2125 25.0778 -30.1566 -0.012 0.149 0.989 237 227 198 0
-19.6105 25.9908 -30.5493 -0.086 0.059 0.995 236 225 197 0
-6.2139 28.6547 -25.9821 0.588 -0.309 0.748 152 93 78 0
-5.3416 35.1790 -23.7435 0.245 -0.450 0.859 152 80 65 0
-4.6897 35.5359 -23.4518 0.354 -0.582 0.732 162 90 71 0
-3.7432 36.0681 -23.0239 0.579 -0.459 0.674 167 98 79 0
-3.2042 36.6591 -22.6923 0.931 -0.289 0.222 169 101 82 0
-2.9828 36.8480 -22.5725 0.913 -0.344 0.217 173 105 88 0
-4.4921 41.2333 -21.6549 0.982 -0.184 -0.048 166 92 79 0
-4.4973 41.4647 -21.5856 0.979 -0.169 0.111 165 88 77 0
-4.4400 41.6834 -21.5027 0.975 -0.189 0.120 149 71 62 0
-4.4909 41.9243 -21.4434 0.960 -0.159 0.231 149 71 62 0
-3.3088 47.4186 -19.4328 0.288 0.246 0.926 115 51 42 0
-6.0987 50.9603 -19.1318 0.880 -0.075 0.469 113 68 60 0
-4.4302 50.7359 -18.7330 0.758 0.527 0.384 116 74 65 0
-10.5696 54.8917 -19.1826 0.102 0.489 0.866 214 198 174 0
-16.1025 56.7806 -20.1553 0.031 0.494 0.869 215 203 178 0
-24.7877 59.9045 -21.6335 0.031 0.501 0.865 216 205 181 0
-10.3689 72.5480 -13.7295 0.532 0.324 0.782 212 197 169 0
-2.6167 74.2553 -11.0359 0.949 0.313 0.023 206 190 164 0
-0.0919 74.7240 -10.1854 -0.052 0.081 0.995 204 189 160 0
-4.7098 87.3370 -7.6237 0.680 -0.698 0.224 192 174 144 0
-4.4306 87.4287 -7.5174 0.471 -0.838 0.276 195 176 146 0
-2.9866 86.8583 -7.2873 0.343 -0.363 0.866 193 173 142 0
-2.8266 87.0135 -7.1950 0.300 -0.317 0.900 193 172 141 0
18.1631 80.0021 -3.4580 0.114 0.145 0.983 186 164 129 0
26.6646 74.9481 -2.6212 0.198 0.327 0.924 187 164 130 0
16.2430 85.6320 -2.2751 0.644 0.718 -0.263 172 147 117 0
23.2653 82.1995 -1.3570 0.892 -0.188 -0.411 163 139 104 0
23.2911 82.3813 -1.2942 0.917 -0.205 -0.342 160 136 101 0
22.0473 84.2270 -1.0785 0.991 -0.028 0.130 254 255 254 0
-14.9182 -8.4445 -40.0248 0.636 0.693 0.340 227 208 178 0
-5.1652 3.3565 -33.6689 0.500 -0.697 -0.514 236 221 184 0
-5.8233 33.2576 -24.7215 0.304 -0.321 0.897 126 59 52 0
-5.9500 33.5049 -24.6817 0.330 -0.258 0.908 123 54 49 0
-3.1328 33.7878 -23.8006 0.698 0.010 0.716 131 58 51 0
-3.3604 34.7235 -23.5789 0.701 -0.439 0.561 149 77 62 0
-4.5075 41.5463 -21.8186 0.964 -0.267 -0.017 158 83 69 0
-4.5041 41.7763 -21.7474 0.955 -0.296 -0.006 146 68 56 0
-4.4309 41.9918 -21.6609 0.971 -0.209 0.119 152 74 63 0
-4.5300 42.4742 -21.5415 0.567 -0.179 0.804 153 76 68 0
-4.4790 42.6944 -21.4599 0.549 -0.173 0.818 151 76 67 0
-4.7975 50.4557 -19.1791 0.436 0.506 0.744 114 67 61 0
-23.1950 59.7997 -21.5151 0.008 0.426 0.905 217 205 186 0
-16.0232 73.2376 -15.3874 0.947 -0.072 -0.314 212 198 172 0
2.4705 79.8808 -8.1411 -0.174 -0.306 0.936 202 183 153 0
-4.4141 87.5400 -7.7438 0.455 -0.847 0.275 194 175 145 0
-2.5779 86.9912 -7.3935 0.343 -0.363 0.866 195 174 143 0
16.7859 77.8188 -4.7325 -0.010 -0.315 0.949 190 171 141 0
18.8667 82.9746 -2.5707 0.651 0.633 -0.418 178 154 123 0
23.2527 82.5114 -1.4748 0.917 -0.205 -0.342 164 140 105 0
21.8664 84.6599 -1.2097 0.976 -0.200 0.081 255 255 254 0
-10.8843 -9.2517 -39.3900 0.868 0.141 0.477 225 209 177 0
-8.1744 -5.4759 -37.4678 0.329 -0.879 -0.346 227 211 174 0
3.7867 1.8472 -31.8348 0.485 0.458 0.745 233 214 182 0
-15.2155 23.8707 -30.5108 0.557 -0.798 -0.231 237 227 201 0
-14.0588 25.9679 -29.5421 0.808 0.136 0.573 232 221 193 0
-13.8940 26.1963 -29.4256 0.794 0.157 0.587 231 219 191 0
-4.6756 27.7333 -26.3378 0.710 -0.369 0.600 146 99 84 0
-5.8863 29.2163 -26.2290 0.163 -0.950 0.265 157 89 74 0
-5.4292 33.2764 -24.8600 0.322 -0.242 0.915 129 59 53 0
-5.4894 33.5139 -24.8046 0.357 -0.207 0.911 127 56 53 0
-5.5376 33.7500 -24.7462 0.363 -0.188 0.913 123 52 49 0
-4.5499 41.6347 -22.0591 0.955 -0.296 -0.006 156 77 64 0
-4.4822 41.8516 -21.9736 0.955 -0.296 -0.006 151 71 60 0
-1.8354 43.3431 -20.7665 0.705 -0.183 0.686 129 52 44 0
-17.3039 74.1502 -15.7577 0.995 0.087 0.039 211 197 171 0
3.8227 81.1236 -7.6279 0.340 0.273 0.900 198 179 149 0
-0.4942 84.9531 -7.6853 0.744 0.651 0.149 192 176 143 0
-2.7810 87.4734 -7.5657 0.212 -0.900 0.381 196 174 145 0
17.5481 77.6799 -4.7800 0.246 -0.851 0.464 189 169 140 0
6.4732 86.9839 -5.0862 0.678 0.689 0.257 190 166 138 0
15.4696 86.1492 -2.7854 0.671 0.696 -0.256 175 149 122 0
11.0576 89.9496 -2.8788 0.656 0.737 -0.162 173 148 117 0
23.1471 82.4874 -1.7221 0.895 -0.230 -0.381 170 146 112 0
23.1835 82.8624 -1.5973 0.914 -0.352 -0.199 110 95 77 0
21.9905 84.4792 -1.4427 0.949 -0.315 -0.021 254 255 254 0
21.9965 84.6777 -1.3805 0.964 -0.265 -0.021 255 255 255 0
-20.1439 -9.0325 -42.2288 0.452 -0.142 0.881 228 211 178 0
-21.5133 -9.0287 -42.6193 0.528 -0.086 0.845 227 211 178 0
-20.9240 -8.6881 -42.3469 0.430 -0.074 0.900 227 211 177 0
-15.3480 23.4629 -30.9460 0.835 0.049 0.548 238 226 203 0
-15.3387 23.7049 -30.8695 0.616 -0.766 -0.185 238 226 202 0
-15.6405 23.9658 -30.8763 0.675 -0.646 -0.358 237 227 202 0
-15.5983 24.2065 -30.7908 0.665 -0.294 -0.686 237 227 202 0
-14.4322 24.3754 -30.4057 0.787 -0.336 -0.518 237 227 202 0
-14.4247 25.8246 -29.9616 0.538 0.295 0.790 234 221 194 0
-13.8762 26.0247 -29.7436 0.807 0.128 0.576 233 220 192 0
-20.4814 27.0337 -31.3252 -0.073 -0.936 0.345 231 214 188 0
-5.8324 29.0521 -26.5195 0.247 -0.954 0.168 156 91 78 0
-5.5418 29.2495 -26.3761 0.244 -0.947 0.208 153 83 71 0
-5.1785 32.6287 -25.2416 0.436 -0.017 0.900 125 48 42 0
-3.2918 33.0534 -24.5724 0.867 -0.319 0.382 122 50 44 0
-3.1412 33.2578 -24.4670 0.873 -0.225 0.433 129 58 53 0
-5.2504 33.7827 -24.9101 0.330 -0.119 0.936 126 56 52 0
-5.2773 34.0158 -24.8468 0.329 -0.121 0.936 121 51 47 0
-4.5262 41.7096 -22.2853 0.954 -0.298 0.035 152 70 57 0
-1.3049 42.8526 -21.0153 0.854 -0.216 0.473 141 61 54 0
-1.8048 43.4164 -20.9863 0.692 -0.225 0.686 130 49 42 0
-2.0132 62.6554 -15.1781 0.694 -0.107 -0.712 215 204 180 0
-6.1555 76.7422 -12.0665 0.746 -0.075 -0.661 200 189 161 0
-5.9433 76.8892 -11.9610 0.801 0.034 -0.598 200 189 161 0
-1.3807 85.5704 -8.0081 0.601 0.781 0.169 196 177 145 0
13.1982 86.6640 -3.5045 0.512 0.629 0.585 178 153 123 0
22.1613 84.4690 -1.6101 0.931 -0.359 -0.062 254 255 254 0
22.0650 84.7377 -1.5558 0.942 -0.322 -0.090 255 255 255 0
-8.2524 -8.0275 -38.7734 0.226 -0.133 0.965 228 212 179 0
-20.7079 -8.3665 -42.4640 0.260 -0.617 0.743 226 212 175 0
-17.1540 -7.5373 -41.1877 0.331 -0.855 -0.399 224 210 174 0
-16.4535 -7.1885 -40.8797 0.312 -0.888 -0.337 227 212 176 0
-7.5599 -5.0745 -37.6739 0.529 -0.674 -0.516 229 212 176 0
-7.6249 -4.8666 -37.6293 0.443 -0.668 -0.598 229 213 175 0
-22.8874 21.4089 -34.0169 0.249 -0.851 0.462 241 228 203 0
-15.2103 23.5242 -31.1611 0.835 0.049 0.548 238 226 202 0
-15.2170 24.2527 -30.9410 0.387 -0.835 -0.391 236 226 201 0
-13.4910 26.3065 -29.8180 0.949 0.033 0.314 230 215 188 0
-5.7566 28.8855 -26.8044 0.201 -0.537 0.819 152 90 78 0
-3.8756 30.2674 -25.8415 0.382 -0.586 0.714 148 66 59 0
-1.2653 31.0704 -24.8449 0.459 -0.132 0.879 150 68 59 0
-1.4142 31.7541 -24.6795 0.463 -0.048 0.885 131 51 45 0
-5.0525 32.4558 -25.5135 0.306 0.170 0.937 127 48 43 0
-3.1899 33.1112 -24.7773 0.898 -0.303 0.320 119 46 40 0
-3.0252 33.3134 -24.6682 0.801 -0.350 0.486 123 52 46 0
-3.1655 35.3662 -24.0830 0.891 0.032 0.454 149 76 58 0
-3.4428 36.0906 -23.9421 0.841 -0.223 0.492 164 97 65 0
-3.3132 36.2964 -23.8420 0.906 -0.312 0.287 163 101 64 0
-2.6371 36.4111 -23.6123 0.990 -0.122 0.068 164 106 65 0
-1.3302 42.9377 -21.2468 0.790 -0.302 0.534 137 57 50 0
-1.2587 43.1480 -21.1621 0.779 -0.330 0.533 136 53 47 0
-12.5625 57.6206 -20.0068 0.208 0.565 0.798 216 207 188 0
-13.7564 58.2456 -20.1602 0.205 0.558 0.804 216 207 189 0
-12.6600 58.1547 -19.8721 0.261 0.628 0.733 217 208 192 0
-5.7133 64.8803 -15.8216 0.668 -0.207 -0.715 214 202 180 0
-0.1672 69.0535 -12.9523 0.322 0.814 0.483 209 195 169 0
-6.6808 76.1073 -12.6785 0.712 -0.182 -0.678 204 190 163 0
-5.8599 76.7134 -12.2574 0.764 -0.062 -0.642 200 189 161 0
8.4744 76.9838 -8.0465 -0.111 -0.197 0.974 198 179 151 0
-5.2685 86.8818 -8.9880 0.563 -0.826 0.028 198 179 149 0
-4.4412 86.6700 -8.8143 0.706 -0.703 -0.085 197 178 148 0
-3.9934 87.6636 -8.3824 0.539 0.791 0.289 198 175 145 0
22.6007 80.0575 -3.0412 0.485 0.707 0.516 182 159 128 0
13.5454 86.7692 -3.6037 0.558 0.714 0.423 179 154 124 0
22.2200 84.5357 -1.7861 0.926 -0.358 -0.116 254 255 253 0
22.2798 84.6970 -1.7197 0.943 -0.319 -0.090 255 255 255 0
0.1716 -8.3010 -36.6667 0.391 0.664 0.638 230 210 183 0
-21.5894 -8.4682 -43.0280 0.320 -0.862 -0.394 226 212 176 0
-18.3388 -7.6888 -41.8480 0.331 -0.855 -0.399 225 211 176 0
-13.5737 -6.4438 -40.0870 0.310 -0.897 -0.315 229 213 179 0
-9.9731 -5.6377 -38.7974 0.326 -0.882 -0.340 229 213 180 0
-15.1435 24.3180 -31.1737 0.394 -0.829 -0.398 234 224 199 0
-4.0396 32.3939 -25.4942 0.323 0.164 0.932 124 44 40 0
-2.6451 32.4335 -25.0777 0.870 0.014 0.492 122 45 39 0
-2.7054 32.6661 -25.0243 0.866 -0.258 0.428 120 45 39 0
-3.0439 32.9374 -25.0399 0.918 -0.328 0.223 120 45 40 0
-3.0072 33.1576 -24.9622 0.885 -0.354 0.302 118 45 39 0
-2.9191 33.3705 -24.8718 0.809 -0.445 0.384 118 47 41 0
-2.4313 36.6770 -23.7233 0.915 -0.088 0.394 162 109 65 0
-2.4384 36.9040 -23.6563 0.782 -0.373 0.500 166 111 70 0
-2.3652 37.3431 -23.5013 0.917 -0.217 0.336 170 109 77 0
-5.5875 39.0629 -23.9120 0.834 -0.232 0.501 159 91 73 0
-5.5011 39.2792 -23.8210 0.595 -0.622 0.510 161 94 75 0
-5.0231 39.4221 -23.6389 0.961 -0.224 0.162 164 98 77 0
-2.8593 50.2712 -19.7073 0.870 -0.476 0.128 107 56 50 0
-9.6613 56.0755 -19.9121 0.208 0.547 0.811 211 191 171 0
7.9912 64.2821 -12.2938 0.900 -0.378 -0.217 211 199 172 0
-5.3409 71.6580 -13.9136 0.321 0.815 0.483 209 195 169 0
-4.1335 75.2687 -12.4638 0.562 -0.811 0.162 203 191 163 0
-3.9509 75.4268 -12.3627 0.596 -0.789 0.147 201 190 162 0
7.2722 78.6407 -8.1293 0.244 0.364 0.899 196 179 150 0
-5.4431 87.1002 -9.2402 0.692 -0.722 0.024 196 177 147 0
-5.2179 87.2256 -9.1367 0.655 -0.756 -0.008 196 177 147 0
-1.6251 86.9235 -8.1869 0.892 -0.417 0.173 199 175 147 0
25.6567 77.7987 -3.0546 0.465 0.740 0.486 183 160 128 0
22.2759 82.5832 -2.5778 0.749 -0.662 0.042 173 147 120 0
22.1965 84.6589 -1.9687 0.875 -0.443 -0.195 254 255 253 0
22.2303 84.8383 -1.9043 0.936 -0.339 -0.099 255 255 255 0
12.2612 -8.2842 -33.3684 0.976 -0.118 -0.182 225 205 178 0
-19.4666 -7.8299 -42.4935 0.331 -0.857 -0.396 226 212 175 0
-15.3595 -6.9202 -41.0175 0.337 -0.847 -0.412 228 213 178 0
-13.8644 -6.4469 -40.4369 0.342 -0.868 -0.359 229 213 179 0
-2.5858 32.7212 -25.2240 0.837 -0.282 0.468 121 46 40 0
-2.9811 33.0005 -25.2544 0.896 -0.372 0.243 121 46 41 0
-2.9496 33.2215 -25.1780 0.883 -0.333 0.331 118 44 39 0
-2.9223 33.4431 -25.1026 0.794 -0.424 0.436 117 45 41 0
-3.4938 36.4759 -24.3465 0.911 -0.362 0.199 158 101 59 0
-2.4302 37.2036 -23.8145 0.758 -0.337 0.559 165 110 72 0
-4.9697 39.4904 -23.8600 0.964 -0.215 0.158 159 97 72 0
-0.8853 42.9984 -21.5999 0.891 -0.070 0.449 133 52 47 0
-2.6809 49.8452 -20.0405 0.286 0.574 0.767 111 53 49 0
-3.4582 50.5239 -20.0609 0.284 0.267 0.921 107 54 46 0
-11.7686 57.5679 -20.3435 0.111 0.362 0.926 217 204 181 0
7.9818 64.3805 -12.5039 0.900 -0.378 -0.217 210 198 172 0
7.9525 64.6121 -12.4419 0.964 -0.153 -0.219 210 198 172 0
-3.5745 75.3583 -12.5370 0.535 -0.833 0.143 202 191 163 0
16.7671 69.2085 -8.4696 0.661 0.625 -0.415 200 183 157 0
-5.9947 92.8639 -7.9161 -0.228 -0.653 0.722 193 170 139 0
9.8011 85.6134 -5.5109 0.037 -0.211 0.977 186 163 135 0
9.7597 85.8639 -5.4468 -0.013 -0.337 0.941 186 164 135 0
22.5361 79.3038 -3.7130 0.704 -0.488 -0.516 183 159 131 0
22.6782 79.4131 -3.6382 0.702 -0.503 -0.505 183 159 129 0
23.0589 79.3689 -3.5405 0.724 -0.433 -0.537 183 160 129 0
13.6017 86.9581 -3.9921 0.563 0.717 0.411 178 155 124 0
-9.2227 2.8154 -36.5209 0.525 -0.596 -0.608 243 224 192 0
-13.3092 27.2281 -30.2980 0.552 -0.249 0.796 155 116 101 0
-3.0870 28.5903 -26.8791 0.594 0.185 0.783 143 82 70 0
-2.2986 34.5501 -24.8349 0.648 -0.707 0.282 132 59 50 0
-2.1917 34.7587 -24.7401 0.837 -0.360 0.411 132 60 48 0
-2.2932 37.4812 -23.9420 0.961 -0.076 0.266 164 109 73 0
-5.1883 39.3779 -24.2162 0.731 -0.261 0.631 154 93 65 0
-4.9058 39.5568 -24.0787 0.558 -0.589 0.585 158 97 68 0
-4.5109 39.7135 -23.9150 0.653 -0.325 0.684 164 103 73 0
-2.4776 50.1074 -20.1565 0.240 0.498 0.834 111 55 48 0
-2.7694 51.1169 -19.9353 0.651 -0.756 -0.068 106 60 47 0
-2.4360 51.2543 -19.7955 0.649 -0.752 -0.116 105 58 48 0
-2.4440 51.4886 -19.7266 0.797 -0.418 -0.436 106 59 50 0
-9.9057 56.8348 -20.2940 0.196 0.523 0.829 215 198 179 0
8.5015 64.4717 -12.5610 0.887 -0.454 -0.081 209 197 171 0
14.3311 71.5947 -8.6813 0.192 -0.372 0.908 201 181 157 0
16.6847 74.5253 -7.0983 0.321 0.134 0.937 197 177 151 0
-4.7594 86.9597 -9.6202 0.652 -0.749 0.121 195 176 146 0
-5.2877 87.5076 -9.6089 0.752 -0.632 0.189 195 176 144 0
-9.3228 90.5567 -9.8677 0.476 0.821 0.315 193 176 146 0
-13.0506 92.9428 -10.2378 0.487 0.831 0.268 195 176 146 0
-7.3146 92.7544 -8.6091 -0.074 -0.876 0.477 194 172 144 0
-7.1675 92.9243 -8.5142 -0.095 -0.863 0.497 192 171 143 0
-3.8432 93.4559 -7.3754 0.019 -0.947 0.320 187 167 137 0
18.2293 82.3620 -4.2611 0.814 0.501 -0.295 185 161 133 0
18.4520 82.4279 -4.1756 0.791 0.576 -0.209 184 160 132 0
15.2648 84.6887 -4.4249 0.620 0.784 0.035 183 159 131 0
15.5499 84.7196 -4.3317 0.639 0.765 0.084 184 160 131 0
12.6457 -7.7746 -33.5260 0.917 -0.264 -0.300 225 208 180 0
-9.1991 2.8673 -36.7565 0.581 -0.474 -0.662 244 225 193 0
-17.3537 24.1765 -32.6941 0.458 -0.756 -0.468 236 225 206 0
-12.9512 27.2691 -30.4516 0.305 -0.419 0.855 154 113 98 0
-0.8201 32.1777 -25.3700 0.777 -0.461 0.428 117 42 39 0
-3.3712 33.8786 -25.6081 0.393 -0.099 0.914 113 42 40 0
-1.8565 34.5558 -24.9541 0.994 -0.059 -0.087 137 64 55 0
-3.4761 36.6233 -24.8051 0.828 -0.353 0.435 154 99 58 0
-4.4640 37.4777 -24.8378 0.998 -0.065 -0.002 160 109 64 0
-4.7391 39.6039 -24.2731 0.552 -0.613 0.566 161 101 68 0
-13.1247 59.4571 -20.7215 0.655 0.622 0.429 218 207 189 0
-13.3640 74.7327 -16.1504 0.654 -0.715 -0.247 208 196 169 0
9.4310 70.9292 -10.5606 0.936 -0.219 -0.276 204 187 161 0
15.1040 71.0829 -8.8352 0.209 -0.351 0.913 201 183 159 0
14.8500 71.4243 -8.8066 0.157 -0.423 0.892 201 181 159 0
14.9927 71.5604 -8.7230 0.165 -0.444 0.881 199 179 158 0
11.5367 84.7594 -5.7348 0.059 -0.085 0.995 185 166 134 0
11.3269 85.1122 -5.6896 0.058 -0.088 0.994 186 165 134 0
20.0639 80.8825 -4.3895 0.657 0.749 0.090 184 162 135 0
18.4158 82.1407 -4.4949 0.785 0.618 -0.037 184 160 134 0
19.1457 83.7503 -3.7897 0.967 -0.201 -0.155 178 155 124 0
22.2144 84.7657 -2.5731 0.853 -0.408 -0.325 255 255 253 0
10.4042 -7.8474 -34.4288 0.962 -0.019 -0.272 223 209 179 0
-11.1977 24.1049 -31.1616 0.438 -0.711 0.550 234 223 200 0
-0.9342 32.0414 -25.6940 0.774 -0.379 0.508 117 43 42 0
-3.5683 36.0294 -25.2678 0.784 -0.293 0.547 142 76 46 0
-3.9633 37.2385 -25.0183 0.989 -0.144 -0.020 153 103 58 0
-3.7148 37.4249 -24.8877 0.999 -0.031 0.014 156 107 61 0
-5.0421 39.7396 -24.5802 0.968 0.118 0.221 161 102 68 0
-5.6895 54.7505 -20.2149 0.300 0.672 0.678 121 84 75 0
-9.5700 57.1688 -20.6366 0.226 0.571 0.789 206 187 172 0
-12.9359 59.4956 -20.9327 0.676 0.620 0.398 217 205 187 0
-15.0144 63.0111 -20.4844 -0.197 -0.223 0.955 218 209 192 0
15.5419 70.9542 -8.9695 0.398 -0.677 0.620 199 183 160 0
15.4754 71.1978 -8.9153 0.357 -0.703 0.615 199 183 160 0
12.7811 73.0258 -9.1629 0.327 -0.812 0.484 198 181 157 0
-2.4009 85.8757 -9.7838 0.661 0.725 -0.194 194 177 149 0
-6.9548 92.7951 -9.0393 0.031 -0.127 0.991 194 170 146 0
19.8593 81.1178 -4.5970 0.650 0.755 0.080 185 161 137 0
18.6557 84.3909 -3.9617 0.767 0.527 -0.366 179 155 127 0
-9.9514 23.6244 -31.2014 0.752 -0.631 -0.191 234 223 203 0
-3.3263 27.4723 -28.0470 0.515 -0.014 0.857 141 86 78 0
-5.1850 39.6130 -24.9205 0.760 0.609 0.227 158 101 66 0
-5.1820 39.8450 -24.8492 0.917 0.385 0.108 161 104 68 0
-3.2129 40.1591 -24.1634 0.670 0.219 0.710 165 107 67 0
0.5371 43.6704 -21.9733 0.724 -0.652 0.224 124 44 41 0
0.5959 44.7784 -21.6195 0.818 0.081 0.570 123 42 41 0
-2.1622 50.7432 -20.6367 0.167 0.156 0.974 99 45 39 0
-2.2310 50.9945 -20.5811 0.180 0.227 0.957 101 50 41 0
-2.1997 51.4496 -20.4336 0.134 0.410 0.902 105 57 47 0
-0.7661 51.2674 -20.0590 0.488 0.765 0.420 105 56 49 0
-11.9493 61.8033 -20.2158 -0.193 -0.269 0.944 217 208 191 0
-15.1186 64.9694 -20.2056 -0.189 -0.201 0.961 217 209 194 0
-12.2856 74.4891 -16.4674 0.783 -0.610 -0.119 208 196 169 0
-2.7025 86.1647 -10.0507 0.649 0.741 -0.171 194 177 150 0
-3.5666 87.1497 -10.0109 0.664 0.697 -0.272 194 177 149 0
18.0420 82.8036 -4.8493 0.764 0.611 -0.208 187 163 135 0
17.6591 83.2605 -4.8255 0.805 0.555 -0.208 186 162 134 0
15.2664 85.0193 -5.0094 0.641 0.763 0.084 185 161 133 0
18.6750 84.4869 -4.1487 0.775 0.536 -0.334 179 155 127 0
22.2389 83.1363 -3.4898 0.893 0.203 -0.403 177 154 126 0
22.4883 83.1706 -3.4046 0.935 0.112 -0.336 176 152 126 0
21.6782 83.9216 -3.4196 0.971 -0.115 -0.209 176 151 125 0
-22.6150 -7.8721 -44.8400 0.897 -0.205 0.392 229 213 181 0
-12.5862 24.8101 -31.9029 0.877 -0.449 -0.169 230 220 195 0
-6.8871 26.7232 -29.6024 -0.058 -0.959 0.279 147 104 93 0
-0.4757 30.1311 -26.6335 0.557 -0.227 0.799 132 62 54 0
-0.5880 32.5792 -25.9251 0.586 -0.549 0.596 124 51 47 0
-3.9600 37.1607 -25.5539 0.943 0.225 0.244 149 101 56 0
0.7415 43.9271 -22.0830 0.690 -0.414 0.594 121 41 40 0
0.9225 44.1088 -21.9733 0.935 0.019 0.355 119 40 38 0
0.8536 44.3490 -21.9212 0.942 0.032 0.334 121 41 40 0
0.9646 44.5467 -21.8278 0.768 -0.441 0.465 123 44 42 0
1.3851 45.3400 -21.4603 0.704 -0.598 0.382 123 45 45 0
1.5707 45.7411 -21.2827 0.798 0.083 0.596 124 46 44 0
-1.5468 50.6566 -20.7334 0.160 0.174 0.972 99 45 39 0
-6.5491 55.9233 -20.6466 0.290 0.614 0.734 132 104 93 0
-14.5777 60.2294 -21.7647 0.299 0.741 0.601 215 204 185 0
-5.0802 60.2631 -18.8873 -0.238 -0.543 0.805 218 209 192 0
-2.8321 59.7134 -18.3753 -0.262 -0.550 0.793 219 208 192 0
7.5101 56.9458 -16.0922 0.849 0.033 0.527 217 208 193 0
-5.6242 83.8931 -11.8867 0.451 -0.887 0.097 198 181 155 0
-2.5344 86.1895 -10.2576 0.626 0.765 -0.152 193 176 151 0
-3.0986 86.7562 -10.2561 0.629 0.747 -0.215 193 175 150 0
12.3837 84.5660 -6.2463 0.573 0.339 0.746 184 164 136 0
12.2997 84.8394 -6.1888 0.581 0.345 0.738 184 165 135 0
18.0981 82.6653 -5.0975 0.771 0.606 -0.195 185 161 135 0
18.2256 82.7931 -5.0203 0.759 0.640 -0.115 186 163 135 0
17.7809 83.2901 -5.0038 0.814 -0.285 -0.506 184 162 134 0
22.3332 83.1789 -3.6633 0.934 0.122 -0.335 178 154 126 0
22.3086 83.3983 -3.6042 0.934 0.122 -0.335 176 152 124 0
21.9934 83.8150 -3.5730 0.978 0.207 -0.027 175 151 125 0
22.1825 85.1112 -3.1229 0.841 -0.430 -0.328 254 255 255 0
-22.5281 -7.8109 -45.0792 0.866 -0.211 0.452 229 212 181 0
-6.9459 22.8865 -31.0432 0.709 -0.376 -0.596 236 225 204 0
-9.3979 24.6613 -31.2506 0.642 0.289 0.710 231 221 196 0
-0.2247 30.1700 -26.7940 0.587 -0.132 0.799 135 65 57 0
-0.3533 30.4059 -26.7616 0.704 -0.184 0.686 133 62 54 0
-0.0778 31.9165 -26.2202 0.963 -0.256 0.087 127 54 46 0
-0.4507 33.0747 -25.9826 0.708 0.101 0.699 128 53 46 0
1.0591 44.1568 -22.1661 0.967 -0.016 0.256 126 49 45 0
1.1072 44.5930 -22.0193 0.768 -0.441 0.465 126 49 46 0
1.6476 45.5797 -21.5562 0.833 -0.307 0.461 127 49 47 0
1.8473 46.6461 -21.1724 0.920 -0.124 0.372 115 37 41 0
-13.9236 59.8610 -21.9610 0.149 0.591 0.793 213 202 183 0
-11.5431 60.8550 -20.9364 0.866 -0.413 -0.283 216 207 192 0
-2.9861 59.6260 -18.7085 -0.237 -0.546 0.804 217 208 191 0
-20.3303 90.1771 -14.7226 0.819 -0.096 -0.565 198 183 157 0
-2.9446 86.5410 -10.5411 0.626 0.774 -0.100 193 175 151 0
-4.0077 87.3922 -10.6062 0.626 0.774 -0.100 192 174 150 0
-4.7967 88.0918 -10.6340 0.629 0.770 -0.110 194 175 151 0
-1.3101 91.2802 -8.6085 -0.127 -0.895 0.429 188 169 140 0
-7.2018 96.1768 -8.9152 0.826 -0.363 -0.430 189 167 138 0
17.8135 82.9558 -5.3193 0.771 0.606 -0.195 185 162 135 0
16.5868 84.5976 -5.1946 0.048 0.048 0.998 182 161 135 0
16.9315 85.0119 -4.9644 0.040 -0.003 0.999 181 160 133 0
16.8100 85.3051 -4.9125 -0.050 -0.185 0.981 181 160 133 0
21.3457 83.5424 -4.0682 0.607 -0.779 -0.161 177 153 127 0
21.5985 83.5769 -3.9809 0.594 -0.783 -0.186 177 153 127 0
21.7325 83.6908 -3.9057 0.590 -0.786 -0.183 177 154 127 0
22.2519 83.5431 -3.7926 0.981 -0.014 -0.193 177 154 126 0
21.9828 83.9292 -3.7574 0.979 0.205 -0.014 175 153 125 0
-5.5285 -9.1105 -40.5572 0.315 -0.947 0.068 225 212 180 0
-0.0676 32.8698 -26.1770 0.566 -0.348 0.747 130 58 47 0
-5.3930 40.1228 -25.6100 0.723 0.643 0.254 159 107 65 0
1.0715 44.0100 -22.4558 0.895 -0.153 0.419 129 55 52 0
1.1161 44.2234 -22.3775 0.967 -0.016 0.256 126 53 47 0
1.2398 44.6417 -22.2130 0.769 -0.448 0.456 123 50 44 0
1.4027 44.8263 -22.1073 0.778 -0.415 0.472 127 53 48 0
1.5133 45.0231 -22.0139 0.772 -0.412 0.483 128 54 49 0
1.9207 45.5929 -21.7168 0.712 -0.407 0.573 124 47 43 0
1.8854 46.0480 -21.5898 0.944 -0.039 0.327 121 43 44 0
2.0469 46.2303 -21.4852 0.954 -0.236 0.187 118 41 44 0
2.0067 46.4637 -21.4269 0.967 -0.177 0.184 115 40 43 0
2.0520 48.6881 -20.7395 0.610 -0.333 0.719 96 33 33 0
-12.7306 59.5741 -21.9654 0.145 0.590 0.794 213 201 184 0
-10.8532 60.7223 -21.0435 0.981 -0.196 -0.007 215 206 191 0
17.3083 83.1774 -5.6310 0.830 0.165 -0.533 184 160 134 0
17.3337 83.5847 -5.5000 0.811 0.122 -0.572 182 161 134 0
21.4181 83.8056 -4.1837 0.392 -0.915 0.098 178 155 129 0
21.5958 83.8903 -4.1037 0.392 -0.915 0.098 177 155 128 0
-4.8696 -8.9449 -40.5548 0.387 -0.922 -0.005 225 212 180 0
-6.2831 -8.7858 -40.9418 0.840 0.325 0.433 229 211 180 0
-0.2409 33.1870 -26.3835 0.809 0.129 0.574 131 57 44 0
-2.4929 38.0479 -25.6062 0.875 0.480 0.061 146 103 58 0
1.2140 44.0566 -22.6471 0.629 -0.499 0.596 129 56 51 0
1.4381 44.6746 -22.3912 0.623 -0.343 0.703 117 45 39 0
1.4702 44.8906 -22.3159 0.761 -0.475 0.441 116 44 39 0
2.0101 45.6516 -21.9195 0.722 -0.421 0.549 119 43 39 0
2.3162 45.7979 -21.7810 0.760 0.070 0.646 118 42 41 0
1.9428 46.1149 -21.8000 0.949 0.000 0.314 117 39 40 0
2.1133 46.7413 -21.5580 0.986 -0.158 -0.049 110 39 41 0
16.3368 86.2692 -5.2205 0.628 0.736 0.254 179 155 129 0
21.8296 83.8394 -4.2644 0.513 -0.843 -0.163 176 153 126 0
21.9552 83.9584 -4.1898 0.564 -0.807 -0.174 174 153 124 0
21.9857 85.3684 -3.7538 0.882 -0.434 -0.182 246 246 245 0
22.1001 85.4936 -3.6807 0.900 -0.414 -0.138 254 255 254 0
-7.0182 -9.7547 -41.7150 0.353 -0.935 0.033 226 213 181 0
-7.0238 22.3980 -31.9968 0.958 -0.140 -0.248 236 225 203 0
-7.5958 22.6586 -32.0952 0.744 -0.417 -0.522 235 224 202 0
-9.6973 25.5932 -31.8593 0.705 0.184 0.684 224 205 183 0
-10.0788 25.8583 -31.8974 0.730 0.182 0.659 179 153 136 0
-10.1785 26.1027 -31.8544 0.730 0.182 0.659 150 119 106 0
-0.7106 32.6571 -26.9391 0.715 -0.522 0.465 134 57 45 0
-0.8286 32.8964 -26.9033 0.539 -0.716 0.444 137 60 49 0
-0.6577 33.0952 -26.7902 0.539 -0.716 0.444 138 60 49 0
-0.3880 33.2794 -26.6510 0.946 -0.182 0.268 135 59 47 0
2.2803 45.8879 -22.0125 0.816 0.070 0.574 117 43 41 0
3.3559 45.8381 -21.6942 0.936 -0.349 -0.043 116 42 41 0
3.7077 46.8515 -21.2789 0.981 0.137 0.138 106 41 40 0
-1.1569 53.2076 -20.8648 0.863 0.501 0.064 97 56 52 0
2.9355 74.3830 -13.1952 0.532 0.819 -0.214 203 188 163 0
15.5178 87.1437 -5.4385 0.651 0.724 0.228 179 155 127 0
15.9227 87.0892 -5.3296 0.557 0.727 0.401 179 155 127 0
13.3436 89.0395 -5.5392 0.136 -0.177 0.975 179 155 126 0
22.0299 85.4465 -3.9337 0.891 -0.411 -0.192 246 245 245 0
22.1022 85.6009 -3.8646 0.902 -0.392 -0.180 255 255 253 0
-7.1089 -9.7338 -41.9911 0.557 -0.753 -0.351 227 214 182 0
-7.4718 22.7175 -32.3014 0.740 -0.359 -0.569 234 223 201 0
-14.6882 24.0862 -34.1387 0.063 -0.885 0.460 235 222 202 0
0.7876 29.6649 -27.6267 0.984 -0.046 0.172 139 71 62 0
1.1008 30.7224 -27.2096 0.688 -0.314 0.654 142 65 55 0
1.1654 30.9333 -27.1257 0.614 -0.418 0.670 141 65 52 0
-6.0311 40.2498 -26.5559 0.033 0.332 0.943 147 103 58 0
-1.3518 53.3563 -21.1373 0.893 0.438 0.101 94 53 49 0
-12.3830 61.7991 -22.0274 0.061 -0.513 0.856 214 205 188 0
-13.4146 62.4094 -22.1648 -0.037 -0.706 0.707 215 206 189 0
-12.8916 62.4857 -21.9786 -0.100 -0.499 0.861 216 207 190 0
-6.9710 89.3144 -12.0277 0.887 -0.460 -0.044 193 176 150 0
-2.0303 86.9979 -11.1865 0.906 0.101 0.411 192 175 150 0
13.2349 89.2287 -5.7516 0.648 0.660 0.379 179 153 126 0
