ply
format ascii 1.0
element vertex 833
property float x
property float y
property float z
property float nx
property float ny
property float nz
property uchar diffuse_red
property uchar diffuse_green
property uchar diffuse_blue
property uchar class
end_header
-4.4676 41.3979 -16.6117 0.863 -0.289 -0.414 189 152 123 0
-9.5730 46.8765 -16.3566 0.908 -0.419 -0.018 224 205 169 0
-10.2396 47.3198 -16.3943 0.627 -0.466 0.624 223 205 170 0
-11.2726 48.6193 -16.2928 0.933 0.245 -0.265 223 209 171 0
-11.4349 48.9174 -16.2524 0.942 0.275 -0.192 224 210 172 0
-10.9160 49.0050 -16.1103 0.917 0.395 0.054 224 210 174 0
23.8126 80.9274 0.1968 0.906 -0.170 -0.387 159 132 93 0
8.5987 -9.8749 -27.1791 0.887 -0.435 -0.157 221 205 174 0
8.5082 -9.7128 -27.1579 0.921 -0.355 -0.164 224 206 170 0
12.6868 -6.9934 -25.4815 0.716 0.121 -0.687 222 204 166 0
-26.6722 -6.1749 -34.3882 0.968 0.242 -0.069 228 206 169 0
-27.2800 -5.9952 -34.4822 0.980 0.191 -0.052 231 209 172 0
-26.8542 -5.2380 -34.1864 0.885 -0.172 -0.432 229 209 174 0
-20.0461 -4.1598 -32.3281 0.728 -0.661 0.179 227 209 173 0
-19.9364 -3.9220 -32.2408 0.650 -0.743 0.158 226 208 172 0
-3.3396 7.3219 -25.4671 0.568 -0.769 -0.293 246 227 190 0
-13.0213 29.8876 -21.8340 0.683 -0.664 0.305 240 224 190 0
-19.3116 37.7116 -21.2540 0.354 0.227 0.907 162 120 94 0
-16.8956 38.4536 -20.5010 -0.053 -0.068 0.996 162 120 93 0
-8.3999 37.5268 -18.7738 0.773 -0.569 -0.281 167 119 95 0
-8.2285 37.7234 -18.6829 0.783 -0.571 -0.245 166 116 91 0
-8.3934 37.9973 -18.6497 0.954 0.281 -0.103 165 113 89 0
-8.3868 38.2320 -18.5871 0.961 0.151 -0.232 163 112 87 0
-10.9124 40.0265 -18.7050 0.157 -0.154 0.975 163 115 92 0
-5.2906 41.4543 -17.0306 0.959 -0.078 -0.271 163 118 94 0
-5.2099 41.6661 -16.9567 0.807 -0.329 -0.491 164 118 95 0
-8.3411 47.5558 -16.1484 0.380 -0.894 0.237 224 206 170 0
-10.1939 48.6137 -16.3023 0.836 0.549 0.020 223 208 172 0
-15.3417 50.9732 -16.8806 0.765 -0.149 -0.627 222 208 173 0
-14.3311 51.6753 -16.4636 0.606 -0.550 -0.575 224 207 175 0
-14.9317 52.1254 -16.4856 0.667 -0.477 -0.572 226 207 175 0
16.9565 73.2540 -3.5946 0.421 0.001 0.907 198 176 126 0
14.8428 75.0272 -3.6226 0.494 0.107 0.863 197 175 124 0
-7.3075 91.1950 -4.5447 0.294 0.102 0.950 193 168 123 0
-6.1979 98.0865 -2.4929 0.542 0.757 0.366 177 152 109 0
29.9952 74.3886 -0.2779 0.723 0.582 -0.372 168 145 103 0
28.4246 75.7378 -0.2905 0.674 0.736 0.061 167 144 102 0
26.4099 77.8323 -0.2119 0.423 -0.798 -0.430 163 140 99 0
25.1990 79.1457 -0.1505 0.696 0.090 -0.712 161 138 97 0
24.7370 79.6995 -0.1133 0.831 0.239 -0.502 160 135 96 0
8.4420 -10.0528 -27.4627 0.918 -0.361 -0.162 217 201 172 0
8.5868 -9.8525 -27.3768 0.881 -0.445 -0.162 221 204 173 0
8.4772 -9.6933 -27.3610 0.925 -0.349 -0.152 224 206 171 0
8.8418 -9.4585 -27.2148 0.344 -0.889 0.301 223 206 172 0
-20.8118 -12.3630 -34.8961 0.980 0.034 0.195 226 206 174 0
7.4025 -6.9919 -26.9095 0.596 -0.164 -0.786 221 204 163 0
-25.9619 -5.1167 -34.2145 0.373 0.061 0.926 229 209 172 0
-26.4305 -4.9208 -34.2730 0.418 -0.022 0.908 228 208 171 0
-4.2773 2.7865 -27.0945 0.126 -0.983 -0.135 237 220 177 0
-2.9144 7.5737 -25.5312 0.459 -0.858 -0.232 247 229 193 0
-12.1562 29.3367 -22.0301 0.618 -0.676 0.402 241 225 192 0
-13.0892 29.7237 -22.1473 0.962 -0.268 0.045 239 224 189 0
-13.6211 30.0490 -22.1870 0.774 -0.469 0.425 237 223 188 0
-13.4428 30.2595 -22.0906 0.783 -0.429 0.451 236 221 188 0
-15.1660 31.2717 -22.2298 0.648 0.379 0.661 235 222 183 0
-16.6225 36.2187 -21.2835 0.128 0.269 0.955 162 111 91 0
-9.3033 38.7534 -18.9148 0.673 -0.052 0.737 159 104 84 0
-9.8371 41.5213 -18.3197 0.917 -0.110 -0.383 157 103 82 0
-8.2521 45.1887 -16.9957 0.832 0.536 -0.144 185 146 112 0
-8.9228 46.3513 -16.8501 0.933 -0.326 0.156 230 200 161 0
-9.1482 46.6610 -16.8221 0.606 -0.696 0.387 229 201 161 0
-9.6434 47.2969 -16.7725 0.875 -0.472 0.105 225 203 164 0
-9.6810 48.2885 -16.5233 0.440 -0.887 -0.143 226 205 171 0
-14.9173 51.6912 -16.8614 0.738 -0.198 -0.645 222 206 173 0
14.9869 75.7017 -3.6328 0.695 -0.630 -0.347 194 171 123 0
-6.9930 91.3799 -4.6892 0.287 0.125 0.950 192 168 125 0
-7.7017 92.1149 -4.6636 0.297 0.081 0.951 192 165 125 0
-4.9274 97.3090 -2.6648 0.552 0.748 0.370 177 153 109 0
29.7012 74.2982 -0.5611 0.703 0.457 -0.544 171 148 105 0
8.4141 -10.0330 -27.6654 0.918 -0.361 -0.162 219 204 174 0
8.5598 -9.8325 -27.5791 0.881 -0.445 -0.162 222 206 174 0
8.4316 -9.6760 -27.5686 0.931 -0.334 -0.146 224 206 171 0
9.0275 -9.4045 -27.3578 0.343 -0.881 0.326 223 206 172 0
-26.8433 -6.1130 -34.9475 0.525 0.583 0.620 228 208 172 0
-25.3660 -4.5485 -34.1934 0.531 0.355 0.769 229 210 173 0
-4.7702 7.3961 -26.2428 0.609 -0.766 -0.206 244 227 193 0
-13.8685 29.4330 -22.6616 0.617 -0.785 0.054 240 225 193 0
-15.0395 32.7778 -22.0686 0.354 -0.228 0.907 191 159 127 0
-14.1750 35.2993 -21.2102 0.102 0.300 0.948 171 116 99 0
-10.6717 35.5484 -20.3208 0.633 -0.020 0.774 165 110 95 0
-10.2461 37.6071 -19.6859 0.705 0.021 0.709 166 112 94 0
-10.1035 37.8142 -19.5986 0.696 -0.711 -0.098 168 113 96 0
-9.8289 37.9908 -19.4881 0.756 -0.647 0.094 167 111 93 0
-9.0740 38.0559 -19.2934 0.671 -0.723 0.164 161 105 86 0
-8.8761 38.4853 -19.1354 0.982 0.154 -0.108 155 98 80 0
-8.9503 38.7405 -19.0866 0.697 0.035 0.716 155 98 80 0
-9.0462 39.0012 -19.0414 0.690 0.028 0.724 156 97 82 0
-9.2053 39.2776 -19.0071 0.713 -0.002 0.701 160 101 86 0
-9.2495 39.5270 -18.9527 0.742 0.031 0.670 161 102 87 0
-9.2431 39.7645 -18.8895 0.824 0.150 0.546 157 98 85 0
-9.6108 40.0937 -18.8906 0.902 0.224 0.369 152 93 81 0
-9.6625 40.3465 -18.8371 0.894 0.213 0.394 150 92 78 0
-9.9648 40.6619 -18.8264 0.879 0.269 0.394 150 93 78 0
-9.1110 40.9286 -18.5561 0.931 0.291 0.220 150 95 77 0
-8.0524 43.0465 -17.7569 0.956 0.153 -0.250 164 108 87 0
-8.3547 45.2937 -17.2444 0.841 0.537 -0.069 175 125 93 0
-9.9476 46.4856 -17.3099 0.955 -0.190 0.229 188 148 112 0
-9.8918 46.7140 -17.2374 0.920 -0.280 0.273 198 161 124 0
-9.8588 46.9492 -17.1686 0.883 -0.368 0.291 215 180 142 0
-9.6944 47.1451 -17.0790 0.893 -0.334 0.302 226 195 156 0
-9.7360 47.4025 -17.0220 0.911 -0.339 0.233 226 199 160 0
-9.6261 47.6144 -16.9410 0.956 -0.199 0.217 226 201 163 0
-9.2971 47.7594 -16.8260 0.967 -0.179 -0.182 227 202 166 0
-5.3059 48.2074 -15.7700 0.776 0.123 -0.619 222 206 172 0
-11.4655 51.1655 -16.4518 0.908 0.218 -0.359 224 205 173 0
4.2805 63.7263 -9.4829 0.897 0.311 -0.313 220 202 168 0
15.1235 74.3731 -4.1653 0.461 -0.646 -0.608 199 177 128 0
15.5024 74.3570 -4.0802 0.457 -0.643 -0.615 198 176 128 0
15.0631 75.9732 -3.7639 0.577 -0.686 -0.443 195 171 126 0
15.2445 76.0801 -3.6935 0.577 -0.686 -0.443 194 170 125 0
-5.0999 97.5553 -2.9056 0.552 0.748 0.370 176 153 109 0
29.3150 74.6707 -0.7471 0.703 0.457 -0.544 171 148 107 0
28.3304 75.7911 -0.6879 0.694 0.717 0.072 170 148 106 0
8.3861 -10.0133 -27.8685 0.918 -0.361 -0.162 219 204 173 0
8.5327 -9.8124 -27.7817 0.881 -0.445 -0.162 222 206 172 0
8.4074 -9.6553 -27.7707 0.931 -0.334 -0.146 224 207 171 0
8.9582 -9.3909 -27.5714 0.460 -0.865 0.202 223 206 172 0
8.3511 -0.6508 -25.4487 0.970 -0.231 0.072 231 213 177 0
8.2582 -0.4748 -25.4251 0.942 -0.172 -0.288 231 213 177 0
-6.9221 5.7174 -27.4210 0.153 -0.797 0.584 238 221 183 0
-9.8120 37.5789 -19.8434 0.937 0.046 0.347 162 104 89 0
-9.2107 37.6812 -19.6742 0.611 -0.653 0.448 164 106 92 0
-9.0692 37.8867 -19.5874 0.635 -0.631 0.445 164 106 91 0
-8.8837 38.0816 -19.4928 0.627 -0.643 0.440 161 104 87 0
-8.8784 38.3180 -19.4302 0.590 -0.529 0.610 158 100 84 0
-8.8713 38.5540 -19.3673 0.480 -0.462 0.745 152 94 78 0
-8.7612 38.7659 -19.2863 0.422 -0.442 0.792 152 93 78 0
-8.7181 38.9935 -19.2170 0.428 -0.436 0.791 154 94 81 0
-8.5433 39.1895 -19.1247 0.486 -0.233 0.842 162 100 88 0
-8.5139 39.4201 -19.0579 0.485 -0.240 0.841 159 98 87 0
-8.5918 39.6769 -19.0098 0.394 -0.259 0.882 152 91 80 0
-8.5613 41.1006 -18.6333 0.450 -0.128 0.884 149 92 75 0
-7.5324 43.9344 -17.6543 0.742 -0.203 0.639 170 108 87 0
-8.3014 44.3895 -17.7187 0.845 -0.317 0.431 169 106 84 0
-8.3282 44.6380 -17.6606 0.819 -0.374 0.434 167 108 84 0
-8.5436 44.9403 -17.6333 0.733 -0.638 0.234 167 109 81 0
-8.6681 45.2176 -17.5909 0.931 -0.365 0.001 171 113 86 0
-8.8384 45.5088 -17.5558 0.911 0.394 0.121 172 115 88 0
-10.1723 46.3835 -17.6455 0.925 -0.136 0.356 174 122 91 0
-9.9532 46.5645 -17.5465 0.943 -0.242 0.229 177 128 95 0
-9.9502 46.8087 -17.4825 0.779 -0.406 0.477 185 138 105 0
-9.8685 47.0297 -17.4058 0.649 -0.533 0.542 194 151 116 0
-9.7452 47.2380 -17.3225 0.891 -0.354 0.285 206 168 131 0
-9.6367 47.4506 -17.2416 0.920 -0.298 0.253 218 184 146 0
-9.5718 47.6761 -17.1677 0.984 -0.104 0.142 224 194 156 0
-9.1953 47.8065 -17.0446 0.964 -0.203 -0.174 226 197 159 0
-10.9686 51.0855 -16.6149 0.921 0.180 -0.345 224 205 173 0
-10.9655 51.3344 -16.5496 0.920 0.232 -0.315 222 206 173 0
-14.9006 52.8821 -17.0819 0.676 -0.370 -0.637 222 207 174 0
-14.5566 53.0257 -16.9630 0.643 -0.367 -0.672 222 207 174 0
-13.0894 52.7936 -16.6751 0.670 -0.284 -0.686 222 207 174 0
-13.1786 53.0782 -16.6225 0.644 -0.363 -0.673 222 207 176 0
4.9010 63.0545 -9.7454 0.909 0.415 -0.043 220 202 167 0
4.6889 63.6194 -9.6492 0.919 0.089 -0.385 220 200 167 0
-6.2470 77.3390 -8.6858 0.401 -0.893 -0.203 215 193 156 0
-5.6764 77.2871 -8.5639 0.396 -0.887 -0.238 214 192 155 0
27.8110 76.2654 -0.8833 0.743 0.669 0.023 167 147 105 0
23.6061 81.4816 -0.5282 0.908 -0.171 -0.383 158 133 95 0
8.2741 -10.1845 -28.1416 0.873 -0.460 -0.162 70 64 55 0
8.3726 -9.9911 -28.0679 0.914 -0.373 -0.159 220 205 174 0
8.5056 -9.7923 -27.9846 0.881 -0.445 -0.162 222 207 173 0
8.3831 -9.6345 -27.9731 0.931 -0.334 -0.146 223 206 170 0
2.9234 -7.1340 -28.6310 0.871 0.489 -0.037 224 204 165 0
-30.1717 -6.1117 -36.2803 0.778 0.628 -0.020 230 210 175 0
-26.3133 -5.5061 -35.2008 0.638 0.610 0.470 230 210 173 0
-7.7580 -2.9360 -30.0980 0.172 -0.415 0.893 232 212 175 0
-8.6089 37.3767 -19.8608 0.654 -0.267 0.708 154 95 81 0
-8.7113 38.1113 -19.6950 0.627 -0.643 0.440 155 96 82 0
-8.6274 38.3292 -19.6185 0.598 -0.546 0.586 153 91 78 0
-8.4718 38.7675 -19.4678 0.476 -0.452 0.755 147 84 71 0
-8.3503 38.9760 -19.3847 0.443 -0.429 0.787 151 88 77 0
-8.8911 45.6001 -17.7985 0.547 -0.293 0.784 170 110 87 0
-9.1534 45.9192 -17.7785 0.614 -0.148 0.776 171 112 89 0
-8.7120 46.0335 -17.6434 0.492 -0.335 0.803 171 115 88 0
-9.9411 46.6383 -17.7806 0.684 -0.495 0.535 170 116 86 0
-9.8846 46.8669 -17.7079 0.690 -0.496 0.528 171 119 88 0
-9.9415 47.1292 -17.6536 0.657 -0.564 0.500 178 129 97 0
-9.6812 47.2967 -17.5480 0.665 -0.309 0.680 185 142 107 0
-9.6184 47.5231 -17.4743 0.559 0.101 0.823 190 153 116 0
-9.5386 47.7443 -17.3980 0.583 0.177 0.793 199 165 127 0
-9.3518 47.9326 -17.3045 0.950 -0.219 0.223 215 183 145 0
-3.3753 48.9230 -15.6188 0.854 -0.510 -0.097 223 206 173 0
4.5783 63.5279 -9.9343 0.919 0.089 -0.385 220 201 166 0
4.5813 63.7592 -9.8737 0.919 0.089 -0.385 220 201 166 0
4.6309 63.9681 -9.8077 0.897 0.160 -0.412 218 201 166 0
-6.4653 77.5627 -8.9403 0.506 -0.849 -0.152 215 192 156 0
27.8180 75.7451 -1.2129 0.299 -0.726 0.619 170 148 109 0
27.9854 76.0282 -1.0995 0.236 -0.743 0.626 168 146 105 0
24.9758 79.7023 -0.8677 0.678 0.160 -0.718 160 139 96 0
23.5526 81.6223 -0.7107 0.904 -0.174 -0.391 157 134 93 0
8.1210 -10.5406 -28.4729 0.938 -0.306 -0.163 255 255 255 0
8.3452 -9.9711 -28.2716 0.914 -0.373 -0.159 220 205 174 0
8.4785 -9.7722 -28.1880 0.881 -0.445 -0.162 221 207 173 0
27.4079 -2.2662 -21.6849 -0.035 -0.559 0.828 225 207 171 0
-26.1747 -5.4535 -35.4221 0.644 0.605 0.468 230 210 173 0
-5.4735 -3.1129 -29.8280 0.171 0.008 0.985 231 211 175 0
-6.2833 -2.7727 -29.9352 0.472 -0.068 0.879 230 211 174 0
-6.7242 2.8375 -28.5904 0.017 -0.987 0.157 235 217 181 0
15.9678 4.1456 -22.7835 0.017 -0.988 0.152 237 219 183 0
-8.7040 32.9908 -21.2687 0.578 0.088 0.811 165 109 86 0
-6.6979 33.5294 -20.6460 0.936 -0.124 0.329 160 101 81 0
-8.4337 38.3537 -19.8166 0.593 -0.560 0.578 150 84 72 0
-8.3866 38.5799 -19.7467 0.551 -0.536 0.640 146 79 68 0
-8.0395 38.9719 -19.5617 0.443 -0.429 0.787 148 84 74 0
-8.3396 41.4273 -18.9990 0.696 -0.388 0.604 145 83 70 0
-8.4832 45.3161 -18.0278 0.593 -0.010 0.805 164 102 80 0
-9.0002 45.7079 -18.0510 0.428 -0.073 0.901 167 106 83 0
-9.5731 46.1180 -18.0830 0.418 -0.117 0.901 167 107 84 0
-9.4760 46.3341 -18.0037 0.467 -0.612 0.638 166 108 85 0
-9.5579 46.6027 -17.9540 0.405 -0.806 0.432 164 108 83 0
-9.6177 46.8653 -17.9005 0.405 -0.783 0.472 162 109 82 0
-9.4557 47.0620 -17.8106 0.470 -0.636 0.612 162 113 84 0
-9.4249 47.2977 -17.7422 0.648 -0.321 0.691 163 118 87 0
-9.3369 47.5161 -17.6645 0.559 0.101 0.823 164 124 90 0
-9.3926 47.7782 -17.6101 0.525 0.270 0.807 172 134 97 0
-9.3796 48.0195 -17.5446 0.953 0.007 0.302 185 146 110 0
-8.6682 49.0240 -17.1134 0.785 -0.426 0.449 223 199 166 0
-8.7152 49.2839 -17.0575 0.767 -0.325 0.554 222 200 166 0
-8.7510 50.0317 -16.8727 0.794 -0.393 0.463 220 204 171 0
6.5252 62.2285 -10.0367 0.766 0.643 0.017 220 204 170 0
26.4616 77.8593 -1.1896 0.770 0.638 0.011 164 143 100 0
25.7175 78.6186 -1.1725 0.728 0.679 0.093 163 143 100 0
23.0993 81.6359 -1.0231 0.742 0.201 -0.639 158 135 94 0
8.2223 -10.1444 -28.5488 0.876 -0.454 -0.164 70 63 56 0
8.3178 -9.9511 -28.4756 0.914 -0.373 -0.159 220 203 174 0
8.4513 -9.7520 -28.3918 0.881 -0.445 -0.162 221 205 174 0
-17.6274 -6.8597 -33.9781 0.259 -0.923 -0.283 226 209 170 0
-6.0315 -2.7159 -30.0917 0.586 0.124 0.801 231 211 174 0
-14.3584 31.9481 -23.1609 0.879 -0.070 0.472 166 120 101 0
-6.4711 33.0878 -20.9511 0.947 -0.273 0.168 158 97 80 0
-6.4198 33.3083 -20.8817 0.947 -0.273 0.168 154 92 76 0
-7.8521 33.8246 -21.0962 0.946 0.216 0.241 150 89 74 0
-7.9091 34.0695 -21.0468 0.655 -0.410 0.635 154 92 77 0
-8.1114 39.2967 -19.7458 0.375 -0.627 0.683 147 79 72 0
-8.3581 45.3560 -18.2407 0.783 0.093 0.615 156 93 76 0
-8.9300 47.4709 -17.8334 0.591 0.294 0.751 157 115 86 0
-9.0293 47.7457 -17.7865 0.558 0.317 0.767 163 119 90 0
-9.1904 48.0401 -17.7496 0.696 0.119 0.708 167 122 92 0
-8.4486 49.0337 -17.3128 0.871 -0.333 0.363 219 188 156 0
-8.4014 49.2635 -17.2420 0.906 -0.185 0.382 222 197 162 0
-8.6063 49.5740 -17.2116 0.882 -0.269 0.388 220 199 164 0
-0.5725 48.8470 -15.4483 0.936 -0.033 -0.351 219 205 174 0
-0.3885 49.0163 -15.3599 0.928 -0.091 -0.360 220 204 174 0
-13.3616 76.6193 -11.3812 0.990 -0.011 -0.138 217 197 165 0
-12.9722 76.6919 -11.2679 0.978 -0.115 -0.171 218 197 165 0
27.5568 75.5120 -1.7300 0.245 -0.838 0.487 174 151 109 0
29.2906 74.8562 -1.4783 0.452 -0.891 0.032 171 150 106 0
27.7097 76.2144 -1.5114 0.781 -0.539 -0.315 169 148 103 0
27.6934 76.4300 -1.4597 0.721 -0.590 -0.363 167 146 102 0
27.1006 77.0707 -1.4382 0.731 0.679 0.065 166 145 101 0
26.4445 77.7609 -1.4193 0.769 0.618 -0.163 166 145 102 0
26.2345 78.1235 -1.3766 0.772 0.611 -0.172 166 144 103 0
25.5735 78.8224 -1.3566 0.731 0.675 0.100 165 143 103 0
22.5782 82.1297 -1.2298 0.748 0.299 -0.592 159 134 94 0
23.4664 81.8887 -1.0764 0.899 -0.162 -0.407 158 134 94 0
8.1915 -10.1251 -28.7543 0.873 -0.460 -0.162 71 63 56 0
8.2903 -9.9311 -28.6801 0.914 -0.373 -0.159 221 203 175 0
8.4240 -9.7318 -28.5960 0.881 -0.445 -0.162 222 205 176 0
52.3018 -2.2687 -15.9333 0.048 -0.751 0.659 225 204 177 0
7.1548 2.9316 -25.6404 0.871 0.104 0.481 234 216 179 0
-3.5772 6.5713 -27.3280 0.557 -0.505 0.659 244 228 192 0
-15.7397 28.5896 -24.6253 0.869 0.245 0.430 242 224 193 0
-7.7578 33.8714 -21.3097 0.774 -0.265 0.575 146 83 72 0
-7.7284 34.0989 -21.2438 0.649 -0.408 0.642 144 82 70 0
-7.9258 34.3727 -21.2215 0.754 -0.247 0.609 143 81 68 0
-7.8994 39.0787 -20.0013 0.422 -0.637 0.644 142 74 66 0
-7.8486 39.3036 -19.9309 0.597 -0.368 0.713 145 76 69 0
-7.9842 39.5740 -19.8943 0.562 -0.338 0.755 144 74 66 0
-7.3137 39.6469 -19.7114 0.453 -0.369 0.812 143 73 63 0
-7.3241 39.8861 -19.6523 0.424 -0.500 0.755 142 73 64 0
-8.0004 45.3286 -18.4140 0.929 0.269 -0.256 148 85 70 0
-7.3556 45.6235 -18.1802 0.586 0.611 0.532 151 89 73 0
-7.6283 46.1860 -18.1018 0.660 0.540 0.522 154 97 80 0
-7.9681 46.5289 -18.0965 0.615 0.556 0.559 154 99 83 0
-8.7385 47.9796 -17.9109 0.708 0.146 0.691 160 111 87 0
-5.8370 47.8054 -17.2458 0.399 -0.703 0.589 168 124 94 0
-8.2683 49.0558 -17.5183 0.903 -0.254 0.347 197 159 128 0
-8.2998 49.3105 -17.4603 0.906 -0.185 0.382 208 177 144 0
-5.7633 50.4266 -16.5517 0.885 0.042 -0.464 218 205 172 0
-5.8224 50.6879 -16.4988 0.731 -0.628 -0.267 218 206 174 0
-0.6136 49.1689 -15.6158 0.934 -0.086 -0.347 219 205 175 0
14.9116 68.3368 -6.8727 0.587 0.761 0.277 211 189 150 0
13.8914 69.1390 -6.9154 0.587 0.761 0.277 210 189 150 0
28.2533 75.5046 -1.7589 0.822 0.433 -0.371 172 151 108 0
28.1369 75.7922 -1.7133 0.820 0.439 -0.367 171 150 105 0
26.6019 77.5337 -1.6398 0.753 0.652 -0.091 167 145 103 0
25.9200 78.4532 -1.5695 0.774 0.609 -0.177 168 146 105 0
24.5665 80.0926 -1.4779 0.857 0.505 0.101 163 140 99 0
22.5385 82.2610 -1.4149 0.694 0.170 -0.699 160 135 95 0
23.4229 82.0225 -1.2599 0.905 -0.148 -0.398 159 134 94 0
8.1639 -10.1051 -28.9593 0.873 -0.460 -0.162 70 62 56 0
8.2628 -9.9110 -28.8849 0.914 -0.373 -0.159 223 203 177 0
8.3967 -9.7115 -28.8005 0.881 -0.445 -0.162 225 206 179 0
-7.3678 6.1340 -28.6066 0.417 -0.836 -0.356 242 225 190 0
-2.6212 7.0394 -27.2030 0.495 -0.413 0.764 243 227 193 0
-16.2747 28.4894 -25.0450 0.772 0.201 0.603 241 222 192 0
-7.6853 33.2228 -21.7078 0.725 -0.231 0.649 158 96 83 0
-7.6688 33.4527 -21.6445 0.725 -0.231 0.649 166 102 90 0
-7.9187 36.0809 -21.0292 0.694 -0.402 0.598 142 83 71 0
-7.7759 36.2851 -20.9414 0.725 -0.420 0.546 144 86 73 0
-7.7644 36.5178 -20.8786 0.664 -0.582 0.470 141 82 68 0
-7.0569 36.5959 -20.6840 0.662 -0.376 0.648 137 77 65 0
-7.1390 36.8486 -20.6392 0.575 -0.154 0.803 143 82 69 0
-7.6320 39.3215 -20.1238 0.673 -0.464 0.575 145 75 68 0
-7.5977 39.5502 -20.0565 0.683 -0.436 0.586 144 72 64 0
-5.1015 47.6519 -17.3542 0.338 -0.601 0.724 157 112 86 0
-8.4275 48.9406 -17.8425 0.659 -0.752 -0.011 161 119 91 0
-8.1707 49.1041 -17.7370 0.903 -0.254 0.347 174 133 105 0
-7.7805 49.2241 -17.6099 0.841 0.308 0.446 184 149 119 0
-6.2626 49.7049 -17.1118 0.920 0.183 -0.346 220 200 168 0
-6.2049 50.1698 -16.9778 0.916 0.136 -0.377 218 201 168 0
-3.7769 51.9874 -15.9109 0.722 -0.353 -0.595 221 207 177 0
-5.6116 53.1192 -16.0718 0.085 -0.840 0.535 220 207 175 0
8.1362 -10.0852 -29.1647 0.873 -0.460 -0.162 70 63 56 0
8.2352 -9.8909 -29.0901 0.914 -0.373 -0.159 223 203 178 0
8.3621 -9.6924 -29.0076 0.880 -0.448 -0.159 225 205 179 0
7.2311 -9.5130 -29.2424 0.712 -0.397 0.579 226 206 176 0
-10.9752 -5.6045 -32.7607 0.987 0.054 0.153 228 209 172 0
-12.6860 5.1974 -30.4074 0.181 -0.983 0.030 239 223 187 0
-9.1695 5.9298 -29.3453 0.493 -0.860 -0.129 241 224 187 0
-8.9684 6.1508 -29.2385 0.904 0.272 -0.330 244 227 191 0
-20.2562 27.8888 -26.4519 -0.159 -0.600 0.784 240 226 195 0
-7.7916 32.3764 -22.2007 0.573 -0.694 0.435 152 95 75 0
-7.6489 33.0478 -21.9926 0.908 0.028 0.417 142 81 69 0
-7.7479 33.3003 -21.9523 0.905 -0.053 0.423 144 82 70 0
-7.4669 33.4782 -21.8367 0.721 -0.234 0.652 145 82 71 0
-7.6518 34.9174 -21.5125 0.841 -0.344 0.418 134 72 59 0
-7.6441 35.1501 -21.4507 0.908 0.015 0.419 135 73 60 0
-7.5329 36.0647 -21.1878 0.738 -0.305 0.602 136 76 63 0
-7.6143 36.3175 -21.1430 0.718 -0.401 0.569 138 79 65 0
-7.0364 36.4249 -20.9718 0.741 -0.295 0.604 139 79 65 0
-6.4324 45.5043 -18.4865 0.651 -0.685 0.327 144 81 67 0
-7.4070 48.4539 -17.9700 0.737 -0.674 0.041 149 103 80 0
-7.4854 48.7218 -17.9205 0.757 -0.653 0.012 150 106 82 0
-7.5301 48.9795 -17.8654 0.839 0.301 0.453 155 111 88 0
-7.6543 49.2630 -17.8233 0.839 0.301 0.453 158 118 93 0
-7.4298 51.8807 -17.0942 0.948 0.165 0.272 216 202 170 0
-3.8419 51.8513 -16.2103 0.792 -0.190 -0.580 221 206 177 0
-2.7397 51.9395 -15.9138 0.046 -0.708 0.704 220 206 177 0
22.9103 83.7007 -1.3716 0.793 0.576 0.196 253 254 255 0
8.1084 -10.0652 -29.3705 0.873 -0.460 -0.162 69 62 55 0
8.1997 -9.8720 -29.2981 0.918 -0.368 -0.149 221 202 176 0
8.3419 -9.6709 -29.2108 0.881 -0.445 -0.162 225 206 179 0
7.2950 -9.4777 -29.4233 0.831 -0.459 0.315 224 206 174 0
-8.7302 5.9805 -29.4645 0.894 0.223 -0.390 241 225 188 0
-8.7637 6.1972 -29.4172 0.894 0.223 -0.390 244 227 192 0
-8.7041 6.6328 -29.2904 0.818 0.482 -0.313 243 227 193 0
-11.4755 24.1435 -25.4866 0.992 0.116 0.056 246 228 198 0
-18.7763 27.2499 -26.5164 0.243 -0.386 0.890 239 228 196 0
-7.3054 33.5117 -22.0365 0.744 -0.200 0.637 134 72 61 0
-7.4066 34.9328 -21.6968 0.717 0.055 0.695 126 66 52 0
-7.4252 36.3438 -21.3391 0.707 -0.394 0.588 130 68 55 0
-7.6400 36.6265 -21.3202 0.757 -0.525 0.389 133 70 57 0
-6.7457 36.6623 -21.0872 0.751 -0.255 0.610 136 72 60 0
-6.6365 37.3402 -20.8857 0.683 -0.241 0.689 146 82 70 0
-6.0791 40.0236 -20.0570 0.732 -0.271 0.625 151 78 71 0
-6.4506 41.0618 -19.8833 0.681 -0.071 0.729 137 68 61 0
-6.2012 41.4697 -19.7161 0.635 -0.680 0.366 138 71 61 0
-4.3304 46.3781 -17.9871 0.863 -0.450 0.228 131 81 66 0
-4.4320 46.6460 -17.9437 0.830 -0.499 0.249 133 83 68 0
-4.1487 46.7953 -17.8344 0.607 -0.784 0.130 140 87 72 0
-3.9235 46.9619 -17.7353 0.427 -0.490 0.760 142 89 74 0
-6.4361 48.2265 -18.0394 0.778 0.357 0.516 144 95 78 0
-6.6026 48.5208 -18.0055 0.828 0.396 0.397 143 95 77 0
-2.5456 51.0023 -16.3526 0.728 -0.678 -0.099 218 203 174 0
23.2487 82.4591 -1.8158 0.905 -0.166 -0.392 159 134 94 0
8.0863 -10.0443 -29.5751 0.879 -0.448 -0.163 71 63 56 0
8.1746 -9.8514 -29.5033 0.918 -0.368 -0.149 222 204 177 0
8.3167 -9.6501 -29.4159 0.879 -0.448 -0.163 225 206 179 0
-14.5772 -10.0591 -35.2948 0.274 -0.832 -0.483 225 209 177 0
-12.5712 5.2872 -30.8528 0.100 -0.974 0.201 239 223 187 0
-9.2776 5.7959 -29.8916 0.091 -0.970 0.226 239 224 185 0
-8.1576 6.0331 -29.5483 0.442 -0.894 -0.077 242 226 189 0
-8.7793 6.2400 -29.6520 0.905 0.290 -0.310 243 227 192 0
-11.7208 23.7637 -25.8993 0.951 0.291 -0.107 244 229 195 0
2.2336 23.1723 -22.5315 0.542 0.115 0.832 243 226 198 0
-15.8687 27.8891 -25.8873 0.856 -0.183 0.484 236 222 191 0
-14.7001 28.2043 -25.5117 0.691 -0.535 0.486 236 220 189 0
-14.4707 28.4121 -25.4006 0.779 -0.380 0.499 236 219 189 0
-13.7340 29.9887 -24.8104 0.559 -0.232 0.796 165 124 101 0
-13.9329 30.2629 -24.7902 0.363 0.026 0.931 167 122 103 0
-7.3301 32.4183 -22.5721 0.451 -0.735 0.506 147 90 74 0
-7.0271 32.8248 -22.3914 0.866 0.129 0.484 142 84 70 0
-7.2847 36.3807 -21.5443 0.778 -0.184 0.601 128 66 53 0
-7.6497 36.6968 -21.5553 0.842 -0.329 0.428 129 66 54 0
-5.7089 41.6480 -19.7959 0.672 -0.600 0.435 140 72 61 0
-5.2940 41.7733 -19.6591 0.697 -0.329 0.637 143 75 64 0
-4.0935 46.3812 -18.1745 0.781 -0.622 0.063 133 77 64 0
-2.6278 51.3474 -16.5310 0.910 -0.393 -0.135 216 200 174 0
-1.1101 51.5199 -16.1040 0.001 -0.657 0.753 219 204 178 0
-3.1333 52.4789 -16.3683 -0.086 -0.838 0.539 220 204 178 0
-17.4248 73.3713 -14.6142 0.185 0.377 0.908 217 200 171 0
19.3626 62.5863 -8.1022 0.709 0.500 0.498 213 194 161 0
8.0582 -10.0243 -29.7818 0.879 -0.448 -0.163 70 63 56 0
8.1494 -9.8308 -29.7090 0.918 -0.368 -0.149 222 205 177 0
8.2385 -9.6378 -29.6369 0.918 -0.368 -0.149 224 207 179 0
-9.8767 -9.1820 -34.1231 0.271 -0.834 -0.481 226 208 174 0
-7.6649 -8.0612 -33.2740 0.374 -0.916 0.144 226 208 173 0
-13.3476 -7.2693 -34.5151 0.095 -0.607 0.789 227 207 175 0
-9.2843 5.1845 -30.2929 0.458 -0.165 0.874 240 222 187 0
-11.3791 23.5485 -26.1216 0.963 0.179 -0.202 245 229 196 0
-11.7988 24.0659 -26.0957 0.927 -0.081 -0.367 244 229 196 0
-12.2696 24.3577 -26.1406 0.990 0.134 0.039 242 227 195 0
-13.1000 24.6956 -26.2651 0.889 0.199 -0.412 243 227 197 0
-14.7351 27.7887 -25.8883 0.742 -0.348 0.574 236 220 188 0
-14.6339 28.0159 -25.8044 0.742 -0.366 0.562 236 220 188 0
-14.5207 28.2411 -25.7180 0.676 -0.534 0.508 237 219 187 0
-13.3194 30.7096 -24.7805 0.330 -0.277 0.903 164 114 97 0
-6.8141 32.8484 -22.5797 0.913 -0.263 0.311 142 83 70 0
-6.7614 33.0701 -22.5096 0.909 -0.278 0.310 139 79 68 0
-6.8174 33.3132 -22.4615 0.896 -0.246 0.369 138 76 65 0
-5.8642 41.5250 -20.1161 0.694 -0.575 0.433 141 72 64 0
-5.5807 41.6860 -20.0028 0.681 -0.587 0.437 141 73 63 0
-4.3935 46.3119 -18.5163 0.432 -0.283 0.856 133 74 62 0
-6.7473 50.4261 -18.0606 0.949 -0.043 -0.311 148 115 92 0
-6.7509 50.6711 -17.9988 0.969 -0.027 -0.245 156 125 101 0
0.1022 50.9342 -16.1901 0.024 -0.751 0.659 215 203 175 0
-6.9129 54.6551 -17.0195 -0.068 -0.695 0.716 221 207 178 0
23.0923 83.6514 -1.9688 0.837 0.538 0.095 246 246 243 0
8.0300 -10.0042 -29.9888 0.879 -0.448 -0.163 69 63 56 0
8.1242 -9.8101 -29.9151 0.918 -0.368 -0.149 220 204 176 0
8.2134 -9.6169 -29.8428 0.918 -0.368 -0.149 223 206 178 0
-15.3496 -7.2462 -35.2679 0.176 -0.979 -0.106 227 207 176 0
-11.3179 23.3663 -26.4062 0.839 0.541 -0.055 244 227 197 0
-11.4213 23.6118 -26.3699 0.860 0.499 -0.106 244 228 197 0
-11.5046 23.8555 -26.3289 0.858 0.497 -0.134 243 228 196 0
-21.8836 27.8707 -27.9586 0.819 0.408 0.404 238 223 191 0
-14.5579 27.8261 -26.0949 0.742 -0.348 0.574 236 218 184 0
-14.3488 28.0373 -25.9873 0.718 -0.364 0.593 237 217 184 0
-12.4017 30.1404 -24.9510 0.529 0.564 0.634 163 112 93 0
-6.8915 32.2321 -23.0056 0.446 -0.726 0.524 137 74 62 0
-6.0672 38.8209 -21.1094 0.855 -0.087 0.512 155 82 71 0
-5.7362 38.9752 -20.9852 0.791 -0.378 0.482 156 82 73 0
-4.2722 45.8770 -18.8452 0.528 0.124 0.840 126 64 53 0
-3.9040 46.2381 -18.6586 0.426 -0.304 0.852 129 67 58 0
-4.0808 46.5288 -18.6295 0.724 -0.684 0.088 128 68 58 0
-6.2761 49.3788 -18.4625 0.533 0.716 0.450 128 87 69 0
-6.7688 50.5135 -18.2984 0.969 -0.036 -0.244 141 104 84 0
-6.8099 50.7714 -18.2430 0.969 -0.027 -0.245 144 109 87 0
0.2803 51.1819 -16.3231 0.000 -0.660 0.751 215 205 175 0
5.3173 65.8396 -11.2848 0.913 -0.280 -0.297 214 198 167 0
2.6922 67.6323 -11.4982 0.707 -0.689 -0.158 214 197 168 0
-0.0819 83.5858 -8.1279 0.794 -0.175 -0.582 199 178 147 0
-0.1041 83.8561 -8.0645 0.896 -0.289 -0.337 199 178 147 0
22.9936 83.8310 -2.1586 0.999 -0.023 0.047 246 246 243 0
8.1332 -9.7839 -30.1113 0.887 -0.432 -0.161 218 202 174 0
5.9351 -9.2218 -30.5345 0.999 -0.028 -0.037 225 205 178 0
4.7906 -9.2111 -30.8269 0.980 0.125 -0.156 226 205 178 0
3.0981 -9.0903 -31.2324 0.750 0.547 0.371 229 207 180 0
3.0232 -8.7248 -31.1584 0.824 0.478 0.304 228 207 180 0
-7.6392 -4.2488 -32.7645 0.274 -0.728 0.629 228 207 176 0
-8.2350 -3.6753 -32.7717 0.378 -0.131 0.916 231 212 178 0
-7.8308 4.6561 -30.5396 0.390 -0.884 0.259 239 221 185 0
-7.3953 6.1739 -30.0396 0.431 -0.763 -0.481 245 226 192 0
-6.7913 6.3983 -29.8266 0.428 -0.772 -0.471 245 226 192 0
-10.7121 23.1223 -26.5662 0.784 0.104 0.611 243 227 197 0
-12.0560 23.7446 -26.7538 0.846 0.029 0.532 242 227 196 0
-11.5843 23.9236 -26.5864 0.858 0.497 -0.134 241 227 195 0
-11.6257 24.1630 -26.5359 0.747 -0.524 -0.409 241 228 196 0
-5.6880 39.0332 -21.2069 0.748 -0.376 0.547 156 82 73 0
-3.7216 45.7859 -18.9752 0.681 -0.678 0.275 124 60 51 0
-4.5111 49.6025 -18.2040 0.927 -0.179 0.330 131 90 73 0
-5.7834 50.7510 -18.2387 0.857 -0.426 -0.291 141 105 81 0
-6.5750 51.5063 -18.2499 0.704 -0.629 -0.330 154 122 97 0
-6.3840 51.6855 -18.1549 0.717 -0.604 -0.349 173 145 118 0
-6.0765 51.8241 -18.0402 0.719 -0.540 -0.439 205 180 151 0
1.8533 68.3914 -11.7641 0.941 -0.302 -0.150 211 195 166 0
19.2159 66.4929 -7.7719 0.208 -0.756 0.620 206 188 157 0
-8.9470 86.7732 -9.8542 0.984 -0.029 0.173 202 184 149 0
22.9634 83.9579 -2.3450 0.997 0.039 0.066 246 246 243 0
7.9734 -9.9640 -30.4042 0.879 -0.448 -0.163 68 62 56 0
8.0893 -9.7661 -30.3236 0.879 -0.448 -0.163 219 202 176 0
3.0849 -8.8769 -31.3967 0.806 0.517 0.289 227 208 178 0
-8.8859 -8.3298 -34.3665 0.963 -0.152 0.224 227 210 178 0
-7.5666 -4.2072 -32.9723 0.365 -0.661 0.655 228 207 176 0
-7.5153 6.2148 -30.3009 0.446 -0.787 -0.426 244 227 194 0
-11.9250 23.7880 -26.9643 0.846 0.029 0.532 241 227 197 0
-17.6729 25.4455 -28.0346 0.462 -0.880 0.112 240 226 197 0
-14.6932 26.7619 -26.9249 0.831 -0.511 0.219 234 220 188 0
-15.3128 27.0897 -27.0022 0.758 -0.650 0.060 234 219 187 0
-15.2077 27.3179 -26.9167 0.514 -0.858 -0.003 235 219 186 0
-4.9763 35.9082 -22.0683 0.679 -0.405 0.612 145 74 63 0
-3.6166 47.4840 -18.7628 0.954 0.166 0.250 122 64 55 0
-3.6017 47.7163 -18.6996 0.965 0.235 0.114 119 64 54 0
-5.7560 50.0942 -18.6527 0.940 -0.332 -0.081 125 82 67 0
-5.9149 50.6326 -18.5567 0.902 -0.282 -0.327 127 90 73 0
-5.9743 50.8957 -18.5050 0.902 -0.289 -0.321 132 96 74 0
-6.8614 51.4400 -18.5966 0.731 -0.593 -0.336 137 103 78 0
-6.5686 51.5854 -18.4835 0.713 -0.611 -0.344 142 109 84 0
-6.4217 51.7799 -18.3957 0.717 -0.604 -0.349 150 119 94 0
-6.1869 51.9436 -18.2930 0.764 -0.477 -0.435 163 136 109 0
-5.9664 52.1115 -18.1929 0.775 -0.413 -0.478 198 172 144 0
-12.1574 76.1432 -13.6717 0.316 -0.796 0.517 209 195 166 0
-0.4236 84.0192 -8.6152 0.888 -0.285 -0.361 199 180 150 0
14.6054 87.4897 -3.8265 0.394 -0.731 -0.557 182 156 126 0
22.1946 85.1000 -2.4648 0.882 0.453 0.134 254 255 255 0
7.8357 -10.1412 -30.6914 0.893 -0.424 -0.152 133 133 133 0
5.8874 -9.1771 -30.9556 0.989 0.064 -0.134 228 209 179 0
4.7090 -9.1705 -31.2622 0.982 0.105 -0.157 228 209 179 0
-7.8419 -8.3720 -34.3425 0.976 -0.056 0.210 226 208 178 0
-1.9094 -5.2230 -31.9884 0.211 -0.976 -0.055 229 210 176 0
2.8779 1.6879 -28.9758 0.938 -0.301 -0.173 234 215 181 0
2.6278 1.8701 -28.9949 0.911 -0.366 -0.191 234 216 181 0
-7.8203 5.1714 -30.8876 0.376 0.315 0.871 238 224 186 0
-7.7884 5.6042 -30.7690 0.284 0.309 0.908 243 228 193 0
-24.5985 25.8574 -30.0089 0.235 -0.972 0.013 240 227 198 0
-10.7722 28.4049 -25.7427 0.252 -0.551 0.796 155 115 96 0
-6.8546 29.6415 -24.4028 0.919 -0.134 0.372 154 98 79 0
-7.0474 29.9048 -24.3862 0.892 -0.204 0.402 154 96 77 0
-4.9595 34.1243 -22.7653 0.622 0.034 0.782 138 71 61 0
-4.7818 35.9321 -22.2584 0.691 -0.391 0.607 148 76 64 0
-5.0999 36.2343 -22.2647 0.724 0.085 0.684 148 76 63 0
-3.2287 45.5516 -19.4021 0.679 -0.491 0.546 121 54 48 0
-3.9391 47.1876 -19.1713 0.863 0.443 0.245 121 60 51 0
-3.7840 47.8513 -18.9617 0.738 0.527 0.421 118 60 52 0
-6.0185 50.9912 -18.7466 0.769 0.127 0.627 126 89 69 0
-7.1673 51.6254 -18.8857 0.680 -0.586 -0.442 128 93 70 0
-7.4142 52.2026 -18.8033 0.838 -0.224 0.498 142 111 88 0
-6.2609 52.0508 -18.5402 0.764 -0.477 -0.435 149 120 95 0
-7.3657 52.6797 -18.6691 0.935 -0.273 -0.227 166 139 112 0
-5.9459 52.4305 -18.3611 0.740 -0.395 -0.545 190 164 138 0
-5.6502 52.5711 -18.2479 0.743 -0.384 -0.547 215 191 165 0
-4.4008 55.2877 -17.2291 0.892 -0.383 -0.240 220 206 183 0
-0.4425 69.0065 -12.6996 0.501 -0.722 -0.478 211 196 170 0
-7.2232 92.7781 -8.4194 0.650 0.639 0.412 200 178 143 0
-8.0074 93.5743 -8.4217 0.637 0.668 0.386 200 178 142 0
8.1401 91.9459 -4.6118 0.792 0.013 -0.610 184 160 126 0
23.0677 84.0841 -2.7086 0.996 0.079 -0.052 246 246 244 0
21.9720 85.3793 -2.6654 0.901 0.399 0.167 254 255 255 0
5.7765 -9.1678 -31.1929 0.980 0.049 0.190 229 208 179 0
-14.1019 -6.9657 -35.8713 0.181 -0.978 -0.107 227 208 175 0
-7.5242 -5.1803 -33.6839 0.633 0.346 0.692 229 212 179 0
-6.4672 -4.0319 -33.1133 0.326 -0.736 0.593 228 209 177 0
-6.4797 -3.8252 -33.0640 0.550 -0.038 0.834 229 210 178 0
3.8147 1.5813 -28.9762 0.809 0.087 0.581 234 216 181 0
3.5242 1.7593 -29.0075 0.864 0.219 0.453 235 216 181 0
2.7268 1.9112 -29.1790 0.970 -0.204 0.129 236 218 182 0
-7.3889 5.4391 -30.9475 0.276 0.177 0.945 240 226 189 0
-22.1982 25.6297 -29.7151 0.506 -0.818 -0.273 240 226 199 0
-21.2124 25.7618 -29.4217 0.368 -0.812 -0.454 239 225 197 0
-13.0189 26.1777 -27.1568 0.931 -0.276 -0.237 234 221 189 0
-11.6888 27.4201 -26.4904 0.889 -0.433 0.148 219 201 174 0
-11.3745 27.6113 -26.3589 0.809 -0.448 0.381 173 151 124 0
-10.9359 28.4926 -26.0192 0.473 -0.618 0.628 156 113 96 0
-4.6609 34.1279 -22.9324 0.593 -0.015 0.805 141 73 64 0
-4.8432 35.7811 -22.5600 0.700 -0.450 0.554 146 74 61 0
-4.9131 36.2598 -22.4567 0.864 0.122 0.489 155 82 67 0
-5.0501 36.5225 -22.4260 0.811 0.318 0.491 152 79 66 0
-4.9965 48.7965 -19.2903 0.463 0.714 0.526 117 64 53 0
-2.7483 49.0159 -18.6421 0.938 0.149 0.312 121 74 64 0
-2.5789 49.6702 -18.4310 0.598 0.481 0.641 121 80 65 0
-7.2421 51.9790 -19.0727 0.774 -0.099 0.626 127 93 72 0
-7.4798 52.3075 -19.0518 0.982 -0.164 -0.095 132 99 78 0
-7.4408 52.5412 -18.9821 0.966 -0.249 -0.071 138 106 85 0
-7.3581 52.7597 -18.9047 0.973 -0.219 -0.068 147 118 94 0
-7.2527 52.9701 -18.8234 0.956 -0.253 -0.148 157 129 107 0
-5.8789 52.7337 -18.5215 0.741 -0.379 -0.555 183 157 133 0
-5.5720 52.8699 -18.4060 0.753 -0.453 -0.477 212 189 163 0
-5.1403 54.1809 -17.9588 0.892 -0.451 -0.012 217 203 176 0
-4.5247 55.1744 -17.5439 0.894 -0.387 -0.226 220 205 181 0
-2.1403 62.5196 -15.0476 0.434 0.814 0.387 218 206 180 0
-3.7169 63.4660 -15.2223 0.435 0.819 0.375 218 206 180 0
14.7993 59.9233 -11.2439 0.840 -0.489 -0.236 212 201 173 0
23.0746 84.1826 -2.8935 0.942 -0.148 -0.302 246 246 244 0
7.1278 -3.2456 -29.5413 0.179 -0.983 -0.038 228 212 178 0
-21.4590 25.6033 -29.8023 0.518 -0.842 -0.153 238 226 197 0
-5.8054 29.5885 -24.6355 0.815 -0.406 0.413 155 94 76 0
-5.9877 29.8487 -24.6178 0.898 -0.409 0.166 153 90 73 0
-6.0250 30.0846 -24.5678 0.853 -0.517 0.070 149 84 68 0
-4.2882 33.8865 -23.1413 0.445 -0.046 0.894 129 60 54 0
-5.8412 37.0027 -22.7621 0.699 -0.182 0.692 157 85 72 0
-3.1900 44.7492 -20.0911 0.652 -0.285 0.703 129 53 48 0
-2.0145 49.0863 -18.6777 0.968 0.135 0.213 118 71 61 0
-7.1519 52.5236 -19.1683 0.919 0.110 0.377 129 95 76 0
-7.0114 52.7216 -19.0807 0.694 0.148 0.705 135 103 83 0
-7.0719 52.9897 -19.0287 0.682 0.143 0.717 139 109 88 0
-7.3060 53.3195 -19.0071 0.898 -0.438 -0.032 151 122 102 0
-5.7773 53.0250 -18.6761 0.775 -0.413 -0.478 176 152 129 0
-6.6749 53.5902 -18.7708 0.519 -0.766 -0.379 210 189 163 0
-6.3823 53.7322 -18.6571 0.519 -0.766 -0.379 217 199 172 0
-6.0907 53.8736 -18.5438 0.519 -0.766 -0.379 215 199 171 0
-5.8165 54.0204 -18.4338 0.548 -0.752 -0.368 215 200 173 0
-5.3239 54.0866 -18.2862 0.805 -0.188 -0.563 214 202 174 0
-4.9678 54.2011 -18.1626 0.913 -0.015 0.408 214 203 177 0
-3.7956 63.5926 -15.4664 0.479 0.837 0.264 215 203 179 0
-10.5728 81.3388 -12.7584 0.170 -0.974 0.150 205 190 161 0
-9.9849 81.2829 -12.6166 0.243 -0.969 -0.048 205 191 162 0
14.7560 88.6485 -4.1794 0.429 -0.745 -0.511 180 154 126 0
23.0355 84.3172 -3.0819 0.942 -0.148 -0.302 246 246 244 0
-8.2650 -7.7060 -34.9980 0.761 -0.644 0.072 225 208 178 0
7.3342 -3.3796 -29.7310 0.333 -0.942 0.031 226 210 176 0
-7.4403 5.3066 -31.4777 0.428 -0.690 -0.583 240 224 192 0
-5.0541 28.8402 -24.8718 0.532 -0.558 0.637 162 101 84 0
-4.9881 29.0567 -24.7992 0.457 -0.692 0.559 160 98 80 0
-2.7061 38.6473 -21.7571 0.714 -0.390 0.581 162 89 77 0
-4.3537 40.2213 -21.7984 0.968 -0.223 0.112 165 91 79 0
-3.2402 42.0284 -21.0425 0.780 -0.581 0.233 148 73 67 0
-1.1344 44.9094 -19.7489 0.938 0.049 0.343 123 46 45 0
-2.9837 46.8808 -19.7433 0.064 -0.335 0.940 119 54 49 0
-3.1903 49.3187 -19.1803 0.237 0.148 0.960 121 69 61 0
-1.9887 49.1554 -18.9005 0.514 -0.090 0.853 119 70 60 0
-5.0443 51.3878 -19.1512 0.534 0.432 0.727 118 79 63 0
-5.4307 51.7642 -19.1590 0.552 0.533 0.641 119 81 65 0
-6.7815 52.4775 -19.3392 0.870 0.319 0.376 124 87 71 0
-6.8123 52.7348 -19.2822 0.672 0.152 0.725 127 92 75 0
-6.9269 53.0218 -19.2401 0.667 0.129 0.734 130 97 81 0
-7.0760 53.3216 -19.2039 0.723 -0.027 0.690 139 108 92 0
-5.9708 53.1765 -18.9453 0.780 -0.429 -0.457 145 118 99 0
-5.8013 53.3615 -18.8530 0.755 -0.643 -0.130 173 149 127 0
-5.6772 54.2991 -18.5821 0.815 -0.149 -0.560 214 202 177 0
-4.9427 54.2754 -18.3918 0.889 -0.035 0.457 215 204 181 0
-4.9630 54.5275 -18.3332 0.889 -0.035 0.457 216 205 182 0
-13.0998 58.8355 -19.4158 0.124 0.497 0.859 218 203 180 0
-13.5274 59.2599 -19.4225 0.168 0.514 0.841 219 205 180 0
-9.8000 81.2899 -12.8394 0.196 -0.954 0.227 202 190 161 0
9.7762 83.0407 -7.1625 0.774 -0.426 -0.468 193 172 140 0
30.2509 74.7510 -3.7916 0.096 -0.595 0.798 188 163 134 0
25.5794 79.4590 -3.8464 0.679 0.427 0.597 184 159 129 0
25.3142 79.8700 -3.8131 0.695 0.429 0.577 182 157 127 0
24.9271 80.3743 -3.7886 0.616 0.359 0.701 180 157 126 0
24.4519 81.1616 -3.7160 0.566 0.244 0.787 181 157 126 0
15.5612 88.6156 -4.2023 0.446 -0.645 -0.620 179 152 123 0
22.5341 85.2545 -3.1907 0.871 0.453 0.190 254 255 255 0
0.0560 -8.4012 -33.1728 0.970 0.143 0.196 226 206 179 0
0.1697 -8.1912 -33.0890 0.785 0.422 0.453 225 207 179 0
-4.7421 40.3917 -22.1086 0.953 -0.278 0.119 166 92 79 0
-3.2340 42.0985 -21.2703 0.771 -0.591 0.238 155 78 70 0
-2.5963 44.7219 -20.4344 0.677 -0.284 0.679 127 48 44 0
-2.6038 44.9583 -20.3765 0.745 -0.068 0.664 127 47 45 0
-1.2544 45.9489 -19.7624 0.864 -0.102 0.493 119 51 46 0
-1.2259 46.1728 -19.6980 0.913 -0.198 0.356 119 52 47 0
-6.6882 52.5275 -19.5593 0.765 -0.001 0.644 122 82 68 0
-6.8365 52.8260 -19.5237 0.607 -0.032 0.794 126 89 74 0
-6.0414 53.2845 -19.1935 0.867 -0.492 -0.082 139 110 93 0
-5.8513 53.4624 -19.0973 0.750 -0.649 -0.131 148 122 103 0
-5.5723 53.6078 -18.9854 0.767 -0.631 -0.119 173 151 130 0
-6.1209 54.2984 -18.9582 0.683 -0.595 -0.423 216 200 178 0
-5.8322 54.4396 -18.8447 0.815 -0.149 -0.560 216 202 181 0
-5.0284 54.3905 -18.6407 0.906 -0.077 0.416 217 205 184 0
-4.8876 54.5834 -18.5540 0.886 -0.051 0.461 217 207 186 0
-5.0005 54.8703 -18.5117 0.846 -0.163 0.508 216 208 188 0
-14.4440 60.2301 -19.6967 0.066 0.358 0.932 218 206 182 0
-10.1975 81.3508 -13.2051 0.334 -0.929 -0.163 203 191 163 0
-10.0430 89.2509 -11.1630 0.606 0.403 0.686 202 182 154 0
-10.4285 89.7694 -11.1354 0.496 0.427 0.756 202 182 154 0
-2.9847 88.3092 -9.5012 0.657 0.114 0.745 196 177 145 0
9.6884 83.2068 -7.3816 0.776 -0.429 -0.463 193 173 140 0
31.1418 73.9879 -3.9406 -0.084 -0.491 0.867 187 162 132 0
25.5843 79.5540 -4.0272 0.187 -0.278 0.942 182 158 130 0
24.4712 81.0331 -3.9524 0.468 0.254 0.846 180 157 126 0
24.6897 81.0815 -3.8813 0.569 0.249 0.783 180 157 126 0
15.4714 88.7952 -4.4096 0.443 -0.651 -0.616 179 152 122 0
15.9790 88.6402 -4.3122 0.657 -0.713 -0.246 178 151 121 0
22.7255 83.6697 -3.7547 0.954 0.223 -0.200 177 150 120 0
10.5416 -7.8143 -30.4046 0.467 0.819 0.333 224 208 177 0
9.6876 -7.7603 -30.6225 0.559 0.777 0.290 224 207 176 0
-0.3239 -8.6199 -33.5541 0.390 0.483 0.784 226 206 179 0
0.1669 -8.1627 -33.3054 0.781 0.401 0.479 225 207 179 0
-7.1546 -5.4241 -34.5979 0.331 -0.726 -0.602 228 212 179 0
-16.1378 28.3227 -28.4999 0.978 0.067 -0.200 152 119 100 0
-3.1382 42.1443 -21.4805 0.808 -0.491 0.325 157 80 69 0
-1.3749 45.8281 -20.0709 0.797 -0.328 0.507 122 48 42 0
-6.6548 52.8452 -19.7280 0.609 -0.048 0.791 126 86 74 0
-7.1920 53.2816 -19.7633 0.831 -0.381 0.405 125 87 76 0
-6.9657 53.4494 -19.6595 0.763 -0.077 0.642 128 93 81 0
-6.0204 53.3601 -19.4258 0.867 -0.492 -0.082 133 101 87 0
-5.8946 53.5611 -19.3409 0.747 -0.648 -0.150 139 112 95 0
-5.7042 53.7385 -19.2444 0.747 -0.651 -0.132 148 122 104 0
-5.4328 53.8860 -19.1335 0.741 -0.662 -0.113 180 158 140 0
-6.1816 54.4045 -19.2054 0.683 -0.595 -0.423 217 199 179 0
-5.9572 54.5695 -19.1029 0.685 -0.590 -0.427 218 202 183 0
-5.6642 54.7084 -18.9883 0.661 -0.651 -0.372 217 205 186 0
-5.6086 54.9343 -18.9161 0.415 -0.906 -0.079 217 206 187 0
-4.7259 54.8523 -18.6975 0.969 -0.216 0.117 216 208 189 0
-17.7753 62.9695 -20.1828 0.005 0.055 0.998 219 207 185 0
-13.3477 61.7452 -19.2920 0.286 -0.752 0.594 218 206 183 0
-5.2906 80.0291 -12.4842 0.785 0.602 -0.143 203 186 159 0
-5.6092 80.4755 -12.4577 0.783 0.603 -0.153 204 187 159 0
-6.2340 81.0995 -12.4693 0.869 0.385 -0.310 204 187 159 0
-2.6475 88.2059 -9.7000 0.515 0.093 0.852 196 177 145 0
-3.1999 88.8312 -9.6916 0.300 -0.370 0.879 195 177 144 0
-3.5523 89.8641 -9.5260 0.172 -0.461 0.870 195 177 146 0
-2.5023 89.7052 -9.2815 0.650 0.758 0.063 195 177 147 0
-5.8052 92.4398 -9.4855 0.619 0.775 0.128 197 176 145 0
14.2118 79.7869 -7.2581 0.442 -0.868 -0.226 196 176 142 0
31.0221 74.5651 -4.0210 0.001 -0.684 0.729 187 161 134 0
22.6351 83.8433 -3.9487 0.955 0.216 -0.202 177 151 118 0
8.8995 -8.9256 -31.3371 0.522 -0.837 -0.163 224 207 176 0
10.5803 -7.9601 -30.6345 0.452 0.796 0.402 226 210 178 0
9.7319 -7.7280 -30.8075 0.557 0.776 0.294 225 209 176 0
2.0156 -7.8824 -32.9532 0.930 0.163 -0.330 226 208 180 0
-16.1458 27.6500 -28.9395 0.890 -0.399 -0.220 173 146 123 0
-16.1518 27.8968 -28.8788 0.802 -0.565 -0.191 157 128 107 0
-16.2030 28.1504 -28.8288 0.959 -0.175 -0.225 152 120 100 0
-3.0522 35.7179 -23.3276 0.847 -0.530 -0.039 161 91 66 0
-2.4464 40.6351 -21.9206 0.884 0.060 0.463 171 100 85 0
-3.2504 42.2472 -21.7330 0.857 -0.265 0.442 155 77 66 0
-1.5197 45.7143 -20.3851 0.782 0.065 0.619 125 49 44 0
-5.5262 52.0420 -19.8811 0.346 -0.231 0.910 112 70 57 0
-5.6460 52.3285 -19.8415 0.643 -0.126 0.755 118 77 64 0
-6.9770 53.2891 -19.9624 0.885 -0.332 0.326 121 82 71 0
-6.8760 53.5011 -19.8812 0.941 -0.144 0.307 122 84 75 0
-7.1067 53.8314 -19.8608 1.000 -0.000 -0.017 126 92 80 0
-5.5202 54.0013 -19.3848 0.746 -0.661 -0.084 146 122 103 0
-5.2272 54.1402 -19.2697 0.695 -0.717 -0.053 186 164 148 0
-4.9232 54.2741 -19.1529 0.878 -0.465 0.115 216 198 182 0
-4.7477 54.4545 -19.0594 0.858 -0.509 0.075 218 202 187 0
-4.7888 54.9599 -18.9431 0.987 -0.152 0.058 218 206 189 0
-4.9046 55.2486 -18.9017 0.591 -0.591 -0.549 217 206 189 0
-15.3524 62.1046 -20.0230 0.046 0.082 0.996 218 209 188 0
-13.3277 61.5660 -19.6063 0.386 -0.566 0.729 219 209 188 0
-13.0397 61.9792 -19.4233 0.353 -0.640 0.683 217 208 186 0
-12.3737 61.9742 -19.2427 0.413 -0.413 0.812 217 208 184 0
7.6651 65.0076 -13.0058 0.949 -0.257 -0.182 212 197 173 0
7.4579 65.5756 -12.9190 0.988 -0.146 -0.046 210 196 170 0
-7.5817 89.0524 -11.0971 0.287 -0.886 -0.364 198 178 151 0
-2.3016 88.0965 -9.8969 0.515 0.093 0.852 194 177 145 0
10.8769 -7.8910 -30.7392 0.507 0.813 0.285 227 211 178 0
-3.3501 -7.5779 -34.5716 0.670 0.295 0.682 225 209 176 0
-8.4998 -0.1760 -34.1211 0.484 -0.160 0.861 232 215 185 0
-16.0762 27.9500 -29.1125 0.734 -0.655 -0.177 152 122 102 0
-5.8406 30.8259 -25.5733 0.214 -0.533 0.819 142 63 55 0
-2.8361 35.2787 -23.6246 0.765 -0.439 0.472 151 79 57 0
-2.7526 35.4889 -23.5486 0.837 -0.308 0.452 158 87 64 0
-2.3065 40.6687 -22.1200 0.911 0.050 0.409 173 102 82 0
-3.1818 42.3006 -21.9492 0.796 -0.408 0.447 156 77 67 0
0.4542 47.9497 -19.5252 0.512 -0.174 0.841 113 49 43 0
-3.6102 50.7344 -19.9405 0.775 0.630 0.059 113 65 56 0
-6.8046 54.0554 -19.9813 0.992 0.114 -0.054 124 92 78 0
-5.2716 54.2401 -19.5133 0.744 -0.657 -0.117 153 129 114 0
-5.0965 54.4216 -19.4194 0.744 -0.657 -0.117 195 174 160 0
-4.8938 54.5923 -19.3206 0.949 -0.310 0.063 219 202 186 0
-4.7884 54.7986 -19.2396 0.981 -0.192 0.013 219 203 187 0
-4.7402 55.0260 -19.1690 0.999 -0.026 -0.028 218 205 188 0
-4.7206 55.2641 -19.1036 1.000 -0.014 -0.011 217 205 189 0
-4.2040 55.3147 -18.9488 0.981 -0.147 0.125 217 207 191 0
-6.5013 56.4314 -19.2989 0.541 0.435 0.720 217 208 191 0
-15.7777 60.4875 -20.8265 0.240 0.690 0.683 218 207 192 0
-9.6106 58.8911 -19.5335 0.582 0.082 0.809 223 212 195 0
-13.6737 61.5321 -19.9847 0.057 0.104 0.993 220 212 191 0
-9.0396 60.4600 -18.9809 0.274 -0.914 0.301 219 211 191 0
-8.4058 60.4598 -18.8067 0.247 -0.963 0.109 218 210 190 0
-13.6558 63.6518 -19.4453 0.172 0.440 0.881 216 208 186 0
-14.9713 64.4646 -19.6020 -0.079 0.001 0.997 217 208 185 0
7.7593 65.2813 -13.1469 0.949 -0.307 -0.067 211 197 171 0
5.7425 66.7734 -13.3251 0.982 0.108 0.156 209 195 169 0
-2.2074 87.6211 -10.2543 0.027 -0.816 0.577 196 179 147 0
13.6797 81.2821 -7.4848 -0.165 -0.670 0.724 192 170 139 0
12.3522 91.2883 -5.3268 0.223 -0.520 0.824 181 157 128 0
8.3177 -9.1445 -31.9668 0.703 -0.681 -0.203 226 207 174 0
-0.3445 -7.9492 -34.0638 0.420 -0.796 0.436 227 210 180 0
-0.9189 -7.8291 -34.1926 0.814 -0.106 0.571 227 210 180 0
-2.9223 -7.6933 -34.7130 0.708 0.327 0.626 227 211 178 0
-2.8340 -7.4815 -34.6353 0.698 0.335 0.633 225 209 176 0
-24.1751 -9.2575 -40.9904 0.873 0.465 0.145 228 210 180 0
-0.1346 -3.3896 -32.8577 0.096 -0.988 0.123 231 213 180 0
4.2659 -2.5832 -31.4365 0.147 -0.823 0.549 230 214 180 0
-16.0297 27.5152 -29.4771 0.627 -0.719 0.300 162 134 111 0
-3.9079 37.8954 -23.5080 0.760 -0.615 0.210 158 96 70 0
-2.5098 39.6356 -22.6828 0.602 0.026 0.798 166 99 72 0
-2.1144 40.2264 -22.4246 0.971 -0.105 0.214 171 101 76 0
-2.2097 40.4824 -22.3865 0.993 -0.037 0.112 175 104 79 0
-2.3898 40.9931 -22.3078 0.979 -0.204 0.024 169 97 74 0
-0.7671 47.0284 -20.3390 0.950 -0.222 0.218 112 39 39 0
0.6261 47.9689 -19.7166 0.673 -0.124 0.729 114 48 44 0
0.3180 48.5356 -19.6592 0.775 -0.203 0.599 115 53 50 0
-0.1943 49.1746 -19.6401 0.297 -0.561 0.773 116 59 55 0
-1.9409 50.4793 -19.7951 0.957 0.069 -0.280 110 61 54 0
-5.8205 53.7848 -20.0369 0.686 0.534 0.495 119 86 73 0
-5.1194 53.7772 -19.8447 0.879 -0.317 0.355 123 91 76 0
-5.3225 54.3426 -19.7586 0.760 -0.647 -0.054 139 112 98 0
-5.0819 54.5002 -19.6523 0.926 -0.307 0.219 158 134 121 0
-4.8559 54.6623 -19.5489 0.949 -0.310 0.063 204 184 169 0
-4.7910 54.8838 -19.4752 0.977 -0.211 0.033 219 201 185 0
-4.6934 55.0929 -19.3956 0.982 -0.187 0.020 218 204 187 0
-4.6185 55.3104 -19.3201 0.999 -0.014 -0.035 216 204 187 0
-4.1187 55.3670 -19.1675 0.976 -0.183 0.117 217 206 188 0
-4.4329 55.7313 -19.1627 0.963 0.084 0.258 218 208 190 0
-15.8199 60.8652 -21.0225 0.245 0.711 0.659 219 211 193 0
-12.0528 60.1948 -20.1484 0.252 0.741 0.622 220 210 195 0
-9.3866 60.4337 -19.3502 0.248 -0.896 0.368 222 213 196 0
-9.1722 60.6044 -19.2478 0.225 -0.907 0.358 221 212 195 0
-11.9638 62.5204 -19.5382 0.439 -0.327 0.837 221 212 195 0
-11.2722 62.4988 -19.3522 0.280 0.534 0.797 219 212 193 0
-12.1020 63.1042 -19.4295 0.166 0.420 0.892 220 212 192 0
-12.9380 63.9813 -19.4401 -0.079 0.001 0.997 220 209 188 0
-16.9790 66.7665 -19.8576 -0.033 0.114 0.993 218 207 186 0
1.8074 82.5832 -10.6746 0.568 -0.807 -0.162 198 179 152 0
7.0343 80.7706 -9.6840 0.988 -0.139 0.064 197 178 151 0
18.5119 77.1870 -7.4089 0.057 -0.492 0.869 193 171 140 0
7.1321 93.6381 -6.4173 0.968 -0.221 0.123 182 158 132 0
7.5452 93.5796 -6.3176 0.759 -0.351 -0.548 180 158 134 0
8.2733 -9.1259 -32.1827 0.703 -0.681 -0.203 227 208 175 0
-0.1779 -8.0933 -34.2788 0.368 -0.660 0.655 226 209 178 0
-0.0297 -7.8778 -34.1833 0.421 -0.790 0.447 226 209 179 0
-0.7476 -7.7769 -34.3581 0.807 -0.109 0.580 226 209 179 0
-16.0658 27.5842 -29.7380 0.594 -0.748 0.294 155 124 103 0
-7.1950 27.0183 -27.4076 0.117 -0.741 0.662 150 112 95 0
-2.1202 40.5293 -22.5963 0.962 -0.203 0.183 173 104 78 0
-0.9809 46.4719 -20.7847 0.885 0.275 0.377 124 45 47 0
-0.7588 47.1016 -20.5645 0.950 -0.216 0.227 115 41 42 0
0.2612 48.6315 -19.8955 0.998 0.063 0.013 114 51 49 0
0.4384 48.8045 -19.8026 0.980 0.169 -0.103 115 55 52 0
-0.6123 49.3943 -19.9472 0.323 -0.346 0.881 117 58 54 0
-2.1484 50.1542 -20.1844 0.260 0.330 0.908 115 59 56 0
-5.8128 53.6190 -20.3347 0.743 0.655 0.136 119 80 71 0
-1.9671 52.4763 -19.5500 0.208 0.031 0.978 122 86 76 0
-5.2803 54.4112 -19.9871 0.760 -0.647 -0.054 133 103 91 0
-5.0102 54.5578 -19.8750 0.926 -0.307 0.219 144 118 105 0
-4.8864 54.7578 -19.7902 0.950 -0.288 0.117 175 152 138 0
-4.7670 54.9592 -19.7063 0.977 -0.211 0.033 209 187 173 0
-4.6718 55.1693 -19.6269 0.985 -0.170 0.014 219 201 185 0
-4.6257 55.3978 -19.5567 0.999 -0.014 -0.035 219 202 186 0
-13.3420 61.5868 -20.4303 0.249 -0.875 0.415 220 211 196 0
-11.8922 62.5848 -19.7753 0.713 -0.213 0.668 220 213 197 0
-10.5835 62.3082 -19.4800 0.187 0.394 0.900 220 213 196 0
5.6671 72.7238 -12.3317 0.501 -0.845 -0.186 202 189 162 0
5.3351 73.1517 -12.3167 0.587 -0.769 -0.252 200 188 162 0
3.0721 81.3955 -10.8750 0.572 -0.803 -0.166 197 180 152 0
6.7618 81.2956 -9.8716 0.564 0.499 0.658 194 177 149 0
-1.5833 87.7101 -10.5851 0.709 -0.249 0.660 194 174 147 0
-2.1449 89.1377 -10.3827 0.503 -0.586 0.635 194 174 147 0
20.2429 76.3324 -7.3615 0.307 -0.595 0.743 193 172 141 0
19.6187 76.9766 -7.3736 0.144 -0.560 0.816 192 172 141 0
3.5774 95.3929 -7.2151 0.119 -0.973 0.200 186 162 136 0
8.0838 94.0468 -6.2974 0.796 -0.266 -0.544 178 156 130 0
22.3999 84.6648 -4.6655 0.872 -0.233 -0.430 176 151 120 0
7.8822 -9.3422 -32.5553 0.886 -0.435 -0.162 224 206 176 0
8.2289 -9.1073 -32.3990 0.703 -0.681 -0.203 227 208 175 0
11.9239 -7.6613 -30.9990 0.511 -0.759 -0.404 230 211 179 0
0.3408 -7.7991 -34.2845 0.423 -0.775 0.470 226 210 177 0
-16.0918 27.1592 -30.1206 0.840 -0.294 0.457 197 172 149 0
-6.8439 27.0268 -27.5583 0.300 -0.860 0.412 150 108 94 0
