ply
format ascii 1.0
element vertex 834
property float x
property float y
property float z
property float nx
property float ny
property float nz
property uchar diffuse_red
property uchar diffuse_green
property uchar diffuse_blue
property uchar class
end_header
-3.9734 6.7688 -26.8166 0.788 -0.043 0.615 245 227 191 0
-3.9964 6.9745 -26.7727 0.788 -0.043 0.615 246 228 192 0
-4.0168 7.1805 -26.7282 0.787 -0.027 0.616 246 228 192 0
-18.8102 29.4042 -24.8355 0.111 -0.665 0.738 240 223 195 0
-22.9696 31.0230 -25.4105 -0.159 -0.773 0.614 236 219 189 0
-14.9073 31.2815 -23.4839 0.891 -0.445 -0.087 170 131 106 0
-14.7907 31.4996 -23.4048 0.891 -0.445 -0.087 168 126 102 0
-14.6862 31.7201 -23.3278 0.898 -0.438 -0.048 168 124 101 0
-14.1270 32.0798 -23.1125 0.794 -0.607 0.023 167 119 97 0
-13.8235 32.2528 -23.0009 0.806 -0.590 0.041 168 120 98 0
-13.8431 32.5009 -22.9461 0.692 -0.706 0.148 169 120 98 0
-7.6536 34.5533 -21.0237 0.594 -0.561 0.577 146 82 65 0
-8.6661 35.5323 -21.0238 0.541 -0.045 0.840 144 85 71 0
-8.7108 35.7825 -20.9743 0.537 -0.029 0.843 146 87 73 0
-8.7711 36.5149 -20.8131 0.282 -0.483 0.829 149 87 74 0
-8.7096 36.7370 -20.7458 0.299 -0.397 0.868 140 79 64 0
-8.0803 37.5157 -20.4140 0.651 -0.405 0.642 151 87 74 0
-7.8218 38.3970 -20.1435 0.661 -0.154 0.734 142 74 64 0
-8.1384 47.5173 -18.0358 0.614 0.410 0.675 153 103 80 0
-8.3911 47.8582 -18.0127 0.614 0.410 0.675 156 106 81 0
-7.6552 50.5756 -17.1927 0.838 -0.457 -0.299 220 202 168 0
-7.4937 51.5145 -16.9309 0.484 -0.734 -0.477 222 205 175 0
-7.5140 53.2853 -16.5121 0.865 -0.501 0.034 221 210 180 0
-5.4678 52.9399 -16.1214 0.499 -0.833 -0.237 221 210 180 0
13.0317 71.4869 -7.4074 0.592 0.533 0.605 208 186 147 0
5.5622 80.2983 -7.0280 -0.063 -0.346 0.936 205 182 140 0
3.9470 86.9867 -5.8022 0.530 0.333 0.780 194 166 126 0
2.4437 88.6534 -5.7514 0.536 0.438 0.722 191 166 125 0
1.2920 89.7944 -5.7449 0.619 0.559 0.551 191 167 125 0
32.8135 71.9127 -2.7301 0.757 -0.460 0.465 173 147 110 0
30.6678 73.8923 -2.7530 0.222 -0.548 0.807 172 147 109 0
30.0303 74.6329 -2.7234 0.354 -0.727 0.588 172 147 107 0
29.9234 75.1503 -2.6244 0.317 -0.720 0.618 169 145 104 0
29.0762 76.2903 -2.5477 0.698 -0.566 0.438 166 143 101 0
29.0117 76.5619 -2.4977 0.916 -0.347 0.201 164 141 99 0
7.7776 -9.7458 -28.2438 0.824 -0.541 -0.170 221 203 174 0
-7.7056 5.7100 -28.1646 0.931 -0.361 0.057 237 221 185 0
-7.0090 5.8952 -27.9580 0.717 -0.648 0.257 239 223 187 0
-4.7326 6.2248 -27.3487 0.424 -0.622 0.658 240 221 188 0
-3.7267 6.5936 -27.0262 0.383 -0.535 0.753 243 225 188 0
-3.8303 6.8025 -27.0005 0.440 -0.629 0.641 245 227 190 0
-3.8905 7.0099 -26.9650 0.704 -0.084 0.705 246 228 191 0
-3.9668 7.2184 -26.9331 0.504 -0.332 0.797 245 228 191 0
-14.1435 27.3126 -24.5099 0.921 -0.375 -0.108 240 225 195 0
-13.8370 27.4919 -24.3957 0.943 -0.321 -0.087 240 225 195 0
-13.9238 27.7485 -24.3547 0.911 -0.399 -0.106 238 224 193 0
-15.1347 30.9067 -23.8833 0.967 0.026 -0.255 169 132 106 0
-14.9403 31.3524 -23.7316 0.846 -0.530 0.056 170 126 102 0
-10.6811 32.0585 -22.5702 0.057 -0.737 0.674 167 115 93 0
-10.6673 32.2935 -22.5109 0.016 -0.691 0.723 165 110 89 0
-7.3593 34.3051 -21.2597 0.686 -0.602 0.409 141 76 61 0
-7.2796 34.5190 -21.1900 0.610 -0.649 0.455 142 79 64 0
-8.5168 36.0338 -21.1169 0.586 -0.236 0.775 140 79 67 0
-6.2308 40.6116 -19.4915 0.657 -0.467 0.592 139 67 59 0
-4.8391 43.7413 -18.4202 0.866 -0.232 0.443 143 76 64 0
-4.8307 43.9780 -18.3617 0.919 0.109 0.379 139 72 60 0
-5.2618 46.3008 -17.9079 0.484 -0.565 0.668 141 88 70 0
-4.8218 46.3830 -17.7857 0.454 -0.703 0.548 143 92 70 0
-4.9801 46.6831 -17.7510 0.397 -0.587 0.705 146 95 72 0
-3.9217 47.0170 -17.4246 0.391 -0.542 0.744 149 103 79 0
-8.2449 49.6289 -17.8090 0.772 -0.555 0.309 158 125 94 0
-8.1518 49.8439 -17.7360 0.777 -0.547 0.312 166 135 103 0
-7.8590 50.7338 -17.4554 0.903 -0.213 -0.374 218 199 166 0
-8.3854 52.9630 -17.0461 0.798 -0.587 -0.133 223 207 181 0
-6.7542 53.3044 -16.5844 0.804 -0.576 -0.146 221 210 181 0
15.8202 48.9514 -12.3607 0.321 -0.813 0.485 221 208 182 0
13.4692 71.0528 -7.6342 0.698 0.219 0.681 208 188 151 0
13.1789 71.4827 -7.5993 0.579 0.540 0.611 207 187 150 0
10.6515 74.3844 -7.4960 0.495 0.492 0.716 207 184 145 0
15.1458 81.6319 -4.7187 0.696 -0.324 -0.641 184 162 117 0
12.0789 87.3115 -4.0782 0.734 -0.460 -0.500 177 154 113 0
30.4101 74.1985 -2.9343 0.451 -0.877 0.166 172 148 108 0
30.1522 74.6257 -2.8925 0.493 -0.868 -0.053 171 147 107 0
7.1424 -10.4751 -28.7630 0.766 -0.616 -0.185 255 255 255 0
7.2920 -10.2873 -28.6831 0.799 -0.572 -0.183 255 255 255 0
7.7507 -9.7246 -28.4413 0.824 -0.541 -0.170 220 202 174 0
-8.1303 5.5541 -28.5334 0.219 -0.886 0.409 240 222 187 0
-4.3843 6.2509 -27.4874 0.503 -0.580 0.641 241 222 190 0
-4.1150 6.6500 -27.3291 0.492 -0.575 0.653 245 226 192 0
-3.5268 6.8290 -27.1482 0.472 -0.522 0.711 245 227 191 0
-3.6026 7.0368 -27.1166 0.681 -0.076 0.728 245 227 192 0
-15.0899 30.7156 -24.1757 0.971 -0.239 -0.004 168 129 104 0
-15.0883 30.9597 -24.1172 0.920 -0.367 0.140 168 127 104 0
-15.0186 31.1888 -24.0463 0.835 -0.545 0.077 168 125 101 0
-14.8859 31.4037 -23.9639 0.835 -0.545 0.077 169 121 99 0
-8.2537 32.4815 -22.1490 0.528 -0.837 0.147 157 98 74 0
-8.0060 32.6552 -22.0495 0.528 -0.837 0.147 155 95 71 0
-7.5760 38.2211 -20.6228 0.753 -0.489 0.440 136 71 62 0
-7.5083 38.4403 -20.5547 0.763 -0.483 0.430 138 71 61 0
-4.8802 43.8271 -18.6542 0.862 -0.110 0.495 138 69 61 0
-3.8864 47.0782 -17.6464 0.660 -0.562 0.498 141 95 74 0
-8.1581 49.6738 -18.0318 0.596 -0.642 0.483 143 108 79 0
-8.1321 49.9145 -17.9684 0.611 -0.594 0.523 150 115 86 0
-8.1233 50.1620 -17.9074 0.930 -0.363 -0.051 157 125 96 0
-7.9460 50.3445 -17.8223 0.919 -0.086 -0.385 163 135 104 0
-3.3478 52.4613 -16.2378 0.475 0.169 0.864 221 209 181 0
-3.5599 52.7962 -16.2078 0.590 0.032 0.806 220 210 181 0
16.0506 48.7049 -12.5750 0.316 -0.834 0.452 222 209 183 0
15.7789 49.0416 -12.5586 0.243 -0.801 0.548 220 208 183 0
12.3088 72.8768 -7.6970 0.577 0.559 0.596 208 185 150 0
-6.4353 95.8721 -6.6238 0.455 -0.768 -0.450 192 167 126 0
-3.3704 93.8393 -6.3879 0.568 -0.608 -0.555 190 165 125 0
13.2155 83.7371 -4.8973 0.811 -0.548 0.205 185 161 117 0
21.6535 78.7482 -4.1031 0.639 0.608 -0.471 179 158 113 0
12.5888 87.5190 -4.1438 0.684 0.610 -0.400 172 149 111 0
30.3244 74.3629 -3.1104 0.402 -0.915 0.038 171 149 108 0
30.1390 74.7305 -3.0664 0.644 -0.765 -0.003 171 149 108 0
28.9897 76.1197 -3.0056 0.572 -0.809 -0.136 168 144 107 0
29.1270 76.4396 -2.8971 0.489 -0.854 -0.178 166 142 107 0
29.0968 76.6827 -2.8463 0.654 -0.493 -0.575 164 140 105 0
7.7238 -9.7033 -28.6392 0.824 -0.541 -0.170 221 203 173 0
0.4931 -6.9241 -29.6906 0.670 -0.459 -0.583 227 206 174 0
-12.3954 -5.7643 -32.4665 0.940 -0.316 -0.130 227 206 175 0
-3.0111 -4.0868 -29.8459 0.455 -0.410 -0.791 230 210 173 0
0.0667 -3.3788 -28.9489 0.316 -0.626 -0.713 228 211 174 0
-6.7133 5.7563 -28.3828 0.111 -0.896 0.429 242 223 185 0
-5.6280 6.1327 -28.0363 0.108 -0.886 0.450 243 224 191 0
-3.6819 6.4670 -27.4961 0.649 -0.690 0.319 244 225 192 0
-3.8950 6.6805 -27.4958 0.513 -0.573 0.639 246 226 193 0
-3.4763 6.8667 -27.3524 0.530 -0.569 0.629 246 226 191 0
-12.9686 26.9642 -24.8228 0.850 -0.306 0.430 240 226 196 0
-9.0549 31.5614 -22.8035 0.269 -0.759 0.592 166 108 89 0
-9.1642 32.2950 -22.6549 0.891 0.392 0.229 161 104 84 0
-7.1079 34.3671 -21.6755 0.670 -0.521 0.529 129 66 52 0
-4.7111 44.8011 -18.6279 0.947 0.087 0.308 136 71 62 0
-4.3017 46.5823 -18.1077 0.507 -0.799 0.324 132 79 62 0
-4.1995 46.7861 -18.0350 0.465 -0.882 0.080 131 79 61 0
-3.7628 47.1065 -17.8555 0.665 -0.574 0.479 135 85 68 0
-4.7603 47.7228 -17.9451 0.424 -0.772 0.473 134 87 67 0
-4.6453 47.9229 -17.8703 0.467 -0.760 0.452 134 90 70 0
-6.3379 48.8095 -18.0604 0.286 -0.310 0.907 135 93 72 0
-7.8556 49.6362 -18.2232 0.691 -0.564 0.452 136 97 74 0
-8.0047 49.9438 -18.1854 0.606 -0.586 0.537 140 102 79 0
-8.1078 50.2345 -18.1407 0.930 -0.363 -0.051 144 107 83 0
-7.9513 50.4251 -18.0583 0.981 -0.006 -0.195 151 116 90 0
-7.9182 51.1665 -17.8743 0.975 -0.193 -0.110 185 161 133 0
-3.6456 52.9120 -16.4477 0.509 0.191 0.839 220 210 181 0
10.6339 51.0604 -13.5070 0.570 -0.506 -0.647 221 209 181 0
-14.4618 72.0676 -14.4555 0.790 -0.570 0.225 218 204 177 0
0.6083 83.2794 -8.2224 0.906 -0.392 -0.160 204 182 144 0
-2.7272 86.7087 -8.1970 0.268 0.330 0.905 205 183 142 0
-3.9642 87.8610 -8.2159 0.253 0.301 0.919 205 183 142 0
-3.4291 94.0044 -6.6290 0.568 -0.608 -0.555 195 170 130 0
13.3275 83.7561 -5.0976 0.797 -0.572 0.196 183 160 118 0
30.6561 74.1815 -3.2706 0.656 -0.677 0.335 172 148 109 0
30.4206 74.5904 -3.2292 0.693 -0.655 0.300 171 148 108 0
29.2215 76.4562 -3.0696 0.551 -0.817 -0.170 165 141 105 0
26.3173 79.5750 -3.0159 0.678 0.566 -0.469 163 139 103 0
25.8400 80.2068 -2.9787 0.673 0.573 -0.467 164 138 103 0
25.0542 81.1046 -2.9514 0.664 0.527 -0.530 163 137 102 0
24.1448 82.1123 -2.9272 0.670 0.520 -0.529 161 135 100 0
7.0767 -10.4350 -29.1641 0.789 -0.591 -0.167 255 255 255 0
7.6969 -9.6820 -28.8375 0.824 -0.541 -0.170 220 203 172 0
-9.5926 -9.2186 -32.8528 0.872 -0.487 0.045 224 207 174 0
-9.3612 -8.9990 -32.7454 0.900 -0.435 0.027 225 207 175 0
-12.1637 -5.9266 -32.6853 0.925 -0.219 -0.312 226 205 174 0
-12.3956 -5.7315 -32.6944 0.939 -0.323 -0.122 225 205 174 0
9.9545 -1.5527 -26.3704 0.739 -0.524 0.424 229 212 176 0
-10.0964 5.4861 -29.4848 0.019 -0.879 0.476 239 222 183 0
-4.0516 6.7273 -27.7481 0.782 -0.579 0.231 244 226 193 0
-21.7603 27.9768 -26.9325 0.852 0.290 0.435 240 227 196 0
-17.4510 27.6513 -25.9816 0.756 0.608 0.244 239 226 193 0
-13.9659 28.4188 -24.9680 0.988 0.091 0.127 231 217 185 0
-9.6060 31.7541 -23.1365 0.116 -0.866 0.486 164 105 87 0
-8.7964 32.2686 -22.8213 0.892 0.363 0.271 159 101 82 0
-7.3595 39.7306 -20.7084 0.618 -0.707 0.345 148 74 67 0
-5.8483 40.2217 -20.2313 0.925 -0.332 0.186 159 85 76 0
-5.0444 40.4445 -19.9867 0.907 -0.295 0.301 143 70 63 0
-3.8482 44.0915 -18.8361 0.578 -0.245 0.778 137 68 60 0
-7.0231 46.4269 -19.0396 0.088 -0.019 0.996 130 69 58 0
-7.3641 46.7961 -19.0334 0.033 -0.306 0.952 129 70 59 0
-4.5846 47.2459 -18.2635 0.830 -0.448 -0.331 132 81 67 0
-4.3811 47.4126 -18.1754 0.771 -0.502 -0.391 135 85 70 0
-4.3142 47.6302 -18.1079 0.771 -0.493 -0.403 132 84 67 0
-4.0751 47.7825 -18.0147 0.886 0.335 0.321 131 85 67 0
-7.4813 49.8208 -18.3439 0.735 -0.334 0.591 137 96 76 0
-7.7048 50.1573 -18.3174 0.948 -0.301 0.107 139 100 79 0
-7.9799 50.5149 -18.2982 0.980 -0.060 -0.189 145 108 85 0
-7.8487 50.7152 -18.2194 0.969 -0.204 -0.142 151 116 91 0
-5.2118 51.9102 -17.3067 0.590 -0.186 0.786 222 204 177 0
-5.2685 52.1819 -17.2558 0.592 0.029 0.806 220 206 177 0
-0.4088 51.3840 -16.2856 -0.025 -0.448 0.893 220 209 181 0
-0.9008 51.8320 -16.2967 0.140 -0.813 0.564 220 209 181 0
-0.3960 51.8589 -16.1699 0.134 -0.893 0.429 221 209 183 0
-0.0640 51.9578 -16.0672 0.134 -0.893 0.429 221 208 183 0
10.3691 51.2570 -13.7442 0.559 -0.518 -0.647 221 210 183 0
10.6317 51.3579 -13.6576 0.558 -0.524 -0.644 222 209 183 0
-1.1085 84.3093 -8.6421 0.788 -0.605 -0.116 206 183 146 0
11.1043 84.8420 -5.6019 0.395 -0.917 0.050 187 163 124 0
13.0507 83.8293 -5.3777 0.394 -0.908 -0.144 186 163 123 0
13.3679 83.8311 -5.3016 0.796 -0.577 0.185 185 162 120 0
14.9942 85.0307 -4.6290 0.667 0.587 -0.460 178 156 117 0
8.7440 91.1428 -4.6704 0.679 0.619 -0.395 176 152 115 0
30.5114 74.6087 -3.3989 0.693 -0.655 0.300 171 148 107 0
30.6178 74.7337 -3.3439 0.455 -0.866 -0.207 170 147 106 0
30.6964 75.0955 -3.2393 0.626 -0.777 0.064 167 143 107 0
29.4548 76.3558 -3.2366 0.599 -0.773 -0.208 166 142 106 0
25.4653 80.3993 -3.2293 0.674 0.561 -0.480 163 139 103 0
24.9473 81.0686 -3.1941 0.673 0.562 -0.481 163 138 104 0
28.9619 78.5258 -2.8395 0.663 -0.638 -0.390 159 133 97 0
7.6699 -9.6607 -29.0362 0.824 -0.541 -0.170 221 203 172 0
-14.9240 -9.6312 -34.4613 0.590 -0.732 -0.342 224 209 174 0
-14.5454 -9.3911 -34.3134 0.643 -0.736 -0.214 224 208 175 0
-8.9117 -8.7328 -32.8031 0.819 -0.527 -0.228 226 207 175 0
-6.6287 -5.9816 -31.6029 0.784 0.249 0.568 226 207 175 0
-12.0332 -5.8867 -32.8798 0.889 -0.383 -0.250 226 207 175 0
-12.6859 -5.7145 -32.9960 0.960 -0.266 -0.092 225 206 174 0
-12.2752 5.3788 -30.2710 0.118 -0.987 0.106 239 221 184 0
-10.1950 5.5302 -29.7351 0.049 -0.850 0.525 239 221 184 0
-21.1530 28.1765 -27.0084 0.886 0.206 0.416 239 226 192 0
-7.1499 36.6328 -21.6398 0.510 0.253 0.822 131 67 55 0
-7.3536 39.5573 -20.9964 0.638 -0.698 0.326 152 77 71 0
-7.1678 39.7410 -20.9083 0.631 -0.698 0.338 154 77 71 0
-4.8870 47.4337 -18.5388 0.873 -0.407 -0.270 131 79 68 0
-4.6217 47.5780 -18.4409 0.716 -0.576 -0.395 136 86 73 0
-4.3757 47.7286 -18.3460 0.771 -0.493 -0.403 133 84 69 0
-7.8167 50.2790 -18.5696 0.977 -0.070 -0.203 134 92 75 0
-8.0959 50.6389 -18.5515 0.983 -0.027 -0.184 138 97 79 0
-0.7482 51.8456 -16.4993 0.343 -0.777 0.527 221 207 180 0
-0.3593 51.9214 -16.3878 0.125 -0.796 0.592 221 207 180 0
-0.4128 52.1850 -16.3383 0.301 -0.800 0.518 221 207 181 0
-0.2091 52.3385 -16.2529 0.299 -0.794 0.530 221 207 181 0
9.9489 51.9734 -13.8972 0.635 -0.492 -0.595 222 210 184 0
-6.2369 87.4112 -9.3992 0.452 -0.068 0.890 208 184 149 0
12.6568 83.7416 -5.7254 0.568 -0.818 -0.089 191 168 129 0
13.1120 83.8882 -5.5812 0.394 -0.908 -0.144 189 167 128 0
2.5500 96.6139 -5.1079 0.233 -0.895 -0.381 174 151 112 0
14.3308 87.4373 -4.4480 0.714 -0.605 -0.351 174 150 112 0
14.4882 87.5595 -4.3812 0.697 -0.633 -0.336 173 149 111 0
23.9214 80.6589 -3.7469 0.822 0.309 -0.479 169 145 108 0
7.6429 -9.6393 -29.2352 0.824 -0.541 -0.170 220 202 173 0
-15.0406 -10.0290 -34.8225 0.701 -0.620 -0.352 224 208 173 0
-14.7175 -9.7924 -34.6883 0.723 -0.629 -0.285 223 208 172 0
-14.0945 -9.3238 -34.4267 0.554 -0.750 -0.362 226 209 176 0
-13.8481 -5.5335 -33.4715 0.762 -0.526 -0.377 226 210 176 0
-12.2604 -5.2414 -33.0179 0.969 -0.147 -0.201 227 211 177 0
9.5899 -1.3273 -26.7997 0.619 -0.779 0.097 231 214 177 0
9.8007 -1.1460 -26.7058 0.633 -0.593 0.498 230 214 175 0
9.8096 -0.9698 -26.6621 0.626 -0.550 0.552 229 214 174 0
9.8264 -0.7932 -26.6163 0.492 -0.503 0.711 229 214 173 0
-19.2373 26.6281 -27.1786 0.431 -0.605 -0.670 240 226 197 0
-4.2243 40.7948 -20.1947 0.674 -0.090 0.733 145 75 67 0
-5.2594 47.4037 -18.8840 0.883 -0.383 -0.270 126 70 62 0
-4.9954 47.5495 -18.7856 0.888 -0.366 -0.279 126 72 62 0
-4.8969 47.7567 -18.7128 0.731 -0.570 -0.376 128 75 63 0
-4.5659 47.8758 -18.6045 0.906 -0.348 -0.239 126 75 62 0
-6.1508 49.7117 -18.5547 0.949 0.119 0.291 130 84 71 0
-5.5641 49.7311 -18.4079 0.957 -0.086 0.276 131 86 72 0
-5.1619 50.0674 -18.2311 0.761 -0.400 0.510 137 98 79 0
-11.4269 57.5045 -17.9917 0.755 -0.634 0.167 221 208 182 0
9.7921 51.4498 -14.2818 0.971 0.240 -0.001 222 212 187 0
9.9626 51.5948 -14.2062 0.913 -0.107 0.394 221 211 186 0
-16.7922 73.9037 -15.4171 0.988 0.063 -0.143 216 202 173 0
-6.2213 87.5149 -9.6405 0.501 -0.026 0.865 207 184 151 0
-6.3043 87.8578 -9.5796 0.439 -0.096 0.893 204 183 149 0
-7.1771 88.7507 -9.5801 0.557 -0.175 0.812 202 183 148 0
-5.3390 96.7029 -7.2560 0.591 0.644 0.486 195 172 134 0
12.7728 83.7583 -5.9266 0.566 -0.800 -0.196 193 171 132 0
13.1309 83.7296 -5.8466 0.392 -0.913 -0.110 192 171 132 0
13.1734 83.9472 -5.7849 0.394 -0.908 -0.144 191 170 131 0
4.4783 95.1499 -5.2446 0.141 -0.975 -0.169 175 153 114 0
5.4785 94.6008 -5.1320 0.016 -0.984 -0.177 173 151 112 0
17.1650 85.9411 -4.3468 0.666 -0.446 -0.598 169 145 107 0
29.7367 79.1503 -2.9056 0.409 -0.794 -0.450 253 255 254 0
7.6158 -9.6179 -29.4346 0.824 -0.541 -0.170 221 203 174 0
-15.2446 -10.0160 -35.1084 0.691 -0.647 -0.322 224 208 175 0
-14.7717 -9.7665 -34.9342 0.692 -0.622 -0.367 224 207 173 0
-6.6192 -5.9190 -32.0371 0.792 0.320 0.521 226 207 174 0
-9.9736 -5.9115 -32.8541 0.956 0.292 -0.019 226 207 174 0
-12.3922 -5.6326 -33.3787 0.909 -0.384 -0.160 226 207 175 0
10.2578 -2.5037 -27.1123 0.712 -0.337 -0.616 227 211 176 0
10.1319 -2.3339 -27.1030 0.709 -0.412 -0.573 228 212 177 0
10.1184 -1.4596 -26.9002 0.787 -0.615 0.051 231 213 178 0
9.7848 -1.2926 -26.9422 0.691 -0.723 0.012 232 214 178 0
9.9526 -1.1126 -26.8589 0.633 -0.593 0.498 232 214 177 0
10.0376 -0.9348 -26.7962 0.591 -0.617 0.519 230 214 175 0
10.1776 -0.7560 -26.7199 0.633 -0.593 0.498 232 214 176 0
-7.8771 21.4348 -25.8948 0.170 -0.708 0.686 241 230 200 0
-8.1268 22.1513 -25.7868 0.408 -0.786 0.464 241 229 201 0
-6.4302 38.4599 -21.5274 0.848 -0.275 0.454 145 74 63 0
-4.0772 40.8165 -20.3975 0.669 -0.114 0.734 149 76 69 0
-3.5221 41.8174 -20.0260 0.557 -0.495 0.667 142 68 64 0
-3.9817 43.1592 -19.8218 0.657 -0.707 0.260 137 64 59 0
-4.1335 45.3687 -19.3379 0.774 0.017 0.633 125 58 50 0
-3.7841 45.4836 -19.2255 0.812 0.175 0.556 124 59 50 0
-4.3419 47.3802 -18.9145 0.694 -0.156 0.702 121 64 53 0
-6.0074 49.9818 -18.7077 0.936 -0.179 0.303 126 79 67 0
-5.0119 50.0860 -18.4401 0.761 -0.400 0.510 131 89 73 0
-11.7087 57.7128 -18.2765 0.810 -0.580 0.086 220 208 182 0
-8.9561 57.0406 -17.7631 0.323 -0.882 0.343 220 209 183 0
-11.5984 58.9911 -17.9482 -0.002 -0.987 0.161 221 209 185 0
18.9659 72.7241 -7.2498 0.667 0.695 0.270 202 180 143 0
14.4082 76.9585 -7.3639 0.666 0.719 0.197 201 179 143 0
10.1362 82.5934 -7.0781 0.642 0.719 0.266 198 174 136 0
11.9036 83.7840 -6.3660 0.739 -0.627 -0.246 195 173 134 0
12.7222 83.9049 -6.1377 0.570 -0.817 -0.087 191 172 132 0
12.9630 84.2197 -6.0047 0.398 -0.904 -0.158 191 170 131 0
14.0979 83.8268 -5.8203 0.888 0.411 -0.209 190 171 131 0
4.3555 95.3719 -5.4762 0.396 -0.870 -0.294 180 156 118 0
5.4599 94.7362 -5.3565 0.055 -0.968 -0.243 178 154 116 0
27.7417 79.2072 -3.5792 0.479 -0.779 -0.404 163 139 105 0
7.5886 -9.5965 -29.6344 0.824 -0.541 -0.170 221 203 176 0
7.6850 -9.4143 -29.5678 0.820 -0.547 -0.169 224 205 178 0
-11.4071 -5.9610 -33.4505 0.940 -0.249 -0.232 229 210 178 0
-14.3746 -5.4939 -34.0704 0.697 -0.368 -0.615 225 209 176 0
10.0079 -1.4330 -27.1186 0.592 -0.805 0.038 232 213 179 0
10.2756 -1.2506 -27.0098 0.626 -0.220 0.748 232 214 178 0
10.2349 -1.0762 -26.9788 0.720 -0.306 0.622 232 214 178 0
10.1273 -0.9028 -26.9645 0.369 -0.929 -0.039 232 214 177 0
10.3289 -0.7229 -26.8726 0.633 -0.593 0.498 234 216 178 0
-6.4168 6.3648 -29.3231 0.736 0.675 0.054 243 227 195 0
-8.0849 21.7467 -26.1140 0.306 -0.817 0.488 240 228 198 0
-7.7223 22.1389 -25.9326 0.526 -0.671 0.522 241 229 199 0
-20.2443 26.9354 -27.8834 0.452 -0.487 -0.747 239 226 197 0
-7.2989 30.5225 -23.8558 0.889 -0.136 0.436 155 96 82 0
-7.1682 30.9568 -23.7215 0.906 -0.416 0.081 149 86 74 0
-7.5726 32.2209 -23.5235 0.128 -0.706 0.696 136 72 64 0
-7.1978 32.3629 -23.3979 0.145 -0.707 0.692 135 70 62 0
-6.3078 38.4912 -21.7371 0.848 -0.275 0.454 149 79 64 0
-3.3037 43.7117 -19.7699 0.665 -0.600 0.445 136 63 57 0
-3.0668 44.1049 -19.6191 0.685 -0.600 0.414 131 60 53 0
-3.3150 44.9086 -19.4910 0.647 -0.284 0.708 125 56 49 0
-3.9253 47.5416 -19.0216 0.547 -0.084 0.833 119 62 50 0
-4.9100 49.8770 -18.7143 0.872 0.176 0.458 127 82 69 0
-8.3325 52.2371 -19.0006 0.888 -0.172 0.427 133 96 76 0
-12.2360 58.0280 -18.5980 0.562 -0.528 0.637 218 208 182 0
-16.5738 73.4166 -16.0439 0.775 0.362 0.518 215 202 173 0
11.6792 79.5408 -7.6548 0.648 0.701 0.299 199 177 143 0
6.0503 86.5618 -7.3870 0.711 0.699 0.078 198 174 139 0
10.5823 85.6847 -6.4789 0.330 -0.877 -0.348 191 172 131 0
13.7178 84.2346 -6.0490 0.970 -0.036 -0.241 189 170 130 0
2.8254 96.7553 -5.7817 0.219 -0.931 -0.291 184 160 122 0
25.2091 79.8804 -4.2475 0.662 0.451 -0.598 172 148 113 0
21.2992 84.6032 -4.0978 0.680 0.446 -0.582 163 139 104 0
25.6666 83.3885 -3.3096 0.673 -0.594 -0.441 255 255 255 0
7.5379 -9.5773 -29.8409 0.824 -0.541 -0.169 220 203 177 0
7.6583 -9.3926 -29.7677 0.820 -0.547 -0.169 222 204 177 0
-5.6241 5.3352 -29.6003 0.701 0.708 0.084 236 222 186 0
-6.4395 6.1969 -29.6000 0.706 0.693 0.148 242 226 193 0
-13.0878 23.3119 -27.2284 0.341 -0.534 0.774 240 226 197 0
-7.0719 30.2988 -24.0972 0.895 -0.442 0.054 148 90 76 0
-7.1686 30.5532 -24.0615 0.875 -0.473 0.104 145 87 73 0
-7.0889 30.7669 -23.9915 0.876 -0.474 0.090 141 80 67 0
-6.2355 38.5373 -21.9555 0.894 -0.400 0.202 154 83 69 0
-6.2644 38.7842 -21.9047 0.896 -0.392 0.208 157 86 71 0
-3.8958 40.6599 -20.8774 0.481 -0.535 0.695 154 80 69 0
-3.8645 40.8862 -20.8165 0.463 -0.565 0.683 153 80 71 0
-3.3307 42.3670 -20.3365 0.748 -0.480 0.458 134 59 54 0
-3.3340 48.6047 -18.8726 0.789 0.500 0.358 123 70 61 0
-7.3070 53.1711 -18.7847 0.574 -0.373 -0.729 162 131 109 0
-6.8654 53.2422 -18.6586 0.615 -0.472 -0.632 193 165 143 0
-13.9365 59.1232 -19.0297 0.017 -0.986 0.169 218 208 183 0
-6.5702 56.6773 -17.7789 0.486 -0.831 -0.270 221 209 184 0
20.2819 64.1343 -9.3748 0.266 -0.242 0.933 206 191 157 0
16.5937 75.0919 -7.7157 0.660 0.660 0.361 202 180 147 0
28.8316 78.9117 -3.7866 0.396 -0.789 -0.470 161 135 103 0
7.5169 -9.5552 -30.0398 0.819 -0.537 -0.203 220 203 177 0
7.6710 -9.3670 -29.9572 0.788 -0.591 -0.171 223 206 178 0
7.3350 -9.2262 -30.0081 0.882 -0.409 -0.234 225 206 176 0
8.5873 -1.9441 -27.9891 0.456 -0.827 -0.329 232 214 178 0
-5.6121 5.3744 -29.8184 0.831 0.541 -0.127 237 223 186 0
-7.9549 22.0591 -26.4934 0.656 -0.748 -0.099 238 227 197 0
-14.2544 23.3255 -27.7690 0.288 -0.314 0.905 239 228 198 0
-21.3960 26.7666 -28.7453 0.913 -0.001 -0.408 238 224 197 0
-20.3719 27.0823 -28.4157 0.225 -0.855 -0.467 236 222 193 0
-10.1807 29.1807 -25.3801 0.151 -0.868 0.473 149 101 84 0
-6.9528 30.3320 -24.3047 0.957 -0.040 0.288 146 86 73 0
-6.9904 30.5727 -24.2576 0.403 -0.619 0.674 144 84 73 0
-7.0461 30.8180 -24.2141 0.879 -0.123 0.461 139 78 66 0
-7.2149 31.0905 -24.1923 0.910 -0.120 0.398 135 73 62 0
-5.1505 35.4620 -22.6527 0.336 -0.712 0.617 143 69 60 0
-6.1017 38.5651 -22.1629 0.908 -0.413 -0.070 156 84 70 0
-3.7792 40.6914 -21.0850 0.483 -0.513 0.709 159 85 74 0
-3.5300 40.8472 -20.9863 0.713 -0.231 0.662 158 85 75 0
-3.3213 41.7238 -20.7288 0.548 -0.610 0.573 153 79 72 0
-5.3335 48.9635 -19.5345 0.341 0.607 0.718 125 66 61 0
-1.9876 48.1581 -18.8881 0.921 0.262 0.289 122 67 62 0
-1.9335 48.3774 -18.8232 0.869 0.487 0.083 123 70 61 0
-2.2882 48.7572 -18.8227 0.886 0.461 0.060 124 73 63 0
-0.9031 48.9308 -18.4363 0.890 0.456 -0.009 121 76 66 0
-7.2964 53.5021 -18.9609 0.543 -0.449 -0.709 157 127 106 0
-12.7036 58.6734 -19.0988 0.107 -0.829 0.549 219 207 184 0
-12.6314 58.9097 -19.0254 0.304 -0.928 0.215 218 206 184 0
24.2276 61.4829 -9.2222 0.843 0.465 -0.270 206 192 155 0
23.7610 62.2050 -9.1694 0.658 -0.553 0.512 205 191 156 0
3.8608 82.8211 -9.3057 0.011 -0.033 0.999 200 181 149 0
-5.2454 92.1699 -9.3879 0.681 0.718 0.146 199 180 144 0
3.9574 95.2305 -6.3736 0.190 -0.979 -0.068 186 162 124 0
4.5322 95.3126 -6.2109 0.333 -0.922 -0.200 187 163 125 0
3.0086 96.8499 -6.2310 0.225 -0.895 -0.385 185 162 123 0
7.0363 -10.0995 -30.4870 0.806 -0.559 -0.192 255 255 255 0
7.3246 -9.7233 -30.3265 0.792 -0.584 -0.177 69 63 55 0
7.4800 -9.5346 -30.2433 0.819 -0.537 -0.203 219 203 176 0
7.6439 -9.3453 -30.1578 0.788 -0.591 -0.171 221 205 177 0
7.2916 -9.2058 -30.2138 0.877 -0.417 -0.239 225 206 176 0
4.5822 -9.1085 -30.8723 0.306 -0.939 -0.157 225 207 178 0
4.8887 4.5066 -27.6114 0.195 -0.833 -0.517 239 221 185 0
-7.4342 5.6834 -30.4348 0.899 -0.329 -0.291 239 224 188 0
-6.3082 5.8543 -30.1117 0.887 0.196 -0.418 241 225 190 0
-8.1581 21.6936 -26.8728 0.555 -0.827 -0.092 239 228 198 0
-7.7269 21.8500 -26.7278 0.560 -0.819 -0.123 238 227 197 0
-21.4819 26.8440 -29.0187 0.921 -0.100 -0.377 237 223 194 0
-8.5400 30.2900 -24.9586 0.205 -0.898 0.390 149 86 71 0
-6.8763 30.3751 -24.5204 0.567 -0.446 0.693 145 82 71 0
-6.2410 38.6745 -22.4198 0.951 0.027 0.307 156 84 70 0
-6.3503 38.9460 -22.3838 0.969 0.046 0.242 158 86 73 0
-3.3063 41.5521 -21.0090 0.719 -0.236 0.654 154 80 71 0
-3.2481 41.7693 -20.9435 0.724 -0.232 0.650 150 77 69 0
-0.9549 49.0273 -18.6696 0.890 0.456 -0.009 119 71 63 0
-3.6444 50.3453 -19.0377 0.991 0.022 -0.131 118 73 64 0
-7.4756 53.6582 -19.2263 0.703 -0.486 -0.519 141 109 90 0
-7.2347 53.8126 -19.1297 0.620 -0.669 -0.410 146 117 96 0
-6.7974 53.8839 -19.0030 0.669 -0.658 -0.344 168 143 121 0
-12.0075 58.9908 -19.1189 0.101 -0.927 0.362 219 207 183 0
23.0880 62.7206 -9.4219 0.752 -0.512 0.415 203 190 156 0
4.8204 76.2640 -10.8482 0.597 0.259 0.759 204 187 157 0
2.4912 78.0614 -11.0135 0.648 0.156 0.745 204 187 157 0
-4.6608 90.9971 -9.7869 0.741 -0.174 0.649 201 178 146 0
-6.0512 92.5907 -9.7639 0.835 0.546 0.063 200 178 143 0
3.7699 90.8121 -7.7103 0.537 0.222 0.814 193 171 135 0
-6.0301 102.3432 -7.4780 0.472 0.598 0.648 189 166 129 0
7.5521 93.4808 -6.1352 0.871 -0.357 0.339 185 162 124 0
21.3810 83.8964 -4.8992 0.681 0.367 -0.634 179 155 119 0
7.2950 -9.7021 -30.5287 0.792 -0.584 -0.177 69 62 54 0
7.6224 -9.3230 -30.3573 0.783 -0.595 -0.182 222 205 178 0
3.1127 -5.2038 -30.5383 0.363 -0.744 -0.561 226 207 175 0
-7.0167 5.9199 -30.5081 0.820 -0.157 -0.551 242 226 192 0
-6.2700 6.1024 -30.2764 0.922 0.093 -0.375 242 226 191 0
-23.9517 28.1292 -29.6149 0.296 -0.953 -0.065 232 219 187 0
-21.7624 28.2271 -29.0375 -0.030 -0.912 0.410 232 219 187 0
-11.4584 28.1499 -26.4455 0.779 -0.321 0.539 156 114 98 0
-10.9640 28.2849 -26.2888 0.578 -0.140 0.804 156 110 95 0
-11.2551 28.5829 -26.2930 0.613 -0.719 0.326 154 108 93 0
-7.5466 28.9627 -25.2650 0.954 0.205 -0.221 155 97 83 0
-6.5429 30.3587 -24.6850 0.421 -0.514 0.747 148 81 71 0
-6.2897 35.6706 -23.3812 0.663 -0.521 0.537 145 72 60 0
-7.2032 36.1594 -23.4986 0.196 -0.565 0.801 148 74 60 0
-6.1716 38.7217 -22.6393 0.951 0.027 0.307 156 84 70 0
-6.2628 38.9879 -22.6003 0.954 0.008 0.298 157 85 71 0
-5.4300 38.9745 -22.3925 0.771 -0.255 0.583 160 88 75 0
-3.8282 39.1933 -21.9357 0.918 -0.280 0.281 160 88 75 0
-4.6543 39.6856 -22.0300 0.757 -0.641 -0.129 159 87 73 0
-3.1804 50.2369 -19.1944 0.969 0.007 -0.248 117 70 62 0
-3.9364 50.7867 -19.2576 0.488 0.494 0.720 118 75 64 0
-7.3054 53.1608 -19.5569 0.990 -0.116 0.083 129 92 77 0
-7.5323 53.5088 -19.5332 0.900 -0.406 -0.158 130 94 78 0
-7.6454 53.8108 -19.4913 0.686 -0.514 -0.514 133 100 83 0
-7.4176 53.9710 -19.3962 0.644 -0.662 -0.384 137 107 87 0
-7.1242 54.1031 -19.2911 0.584 -0.744 -0.324 144 116 95 0
-6.7044 54.1809 -19.1666 0.644 -0.684 -0.343 169 146 123 0
20.0526 70.3609 -8.6133 0.705 -0.706 0.063 195 179 147 0
-6.1030 92.7491 -10.0138 0.817 0.576 0.041 201 176 145 0
4.9600 87.5708 -8.4200 0.725 0.686 -0.056 200 178 141 0
3.6077 88.8698 -8.4594 0.716 0.698 -0.033 197 175 138 0
2.4912 89.9953 -8.4796 0.724 0.683 -0.097 195 172 138 0
23.1840 76.2234 -6.4520 0.117 -0.395 0.911 193 169 137 0
26.3607 81.1281 -4.5028 0.063 -0.987 -0.150 174 147 118 0
6.9609 -10.0592 -30.8970 0.804 -0.570 -0.171 255 255 255 0
7.1063 -9.8705 -30.8160 0.792 -0.584 -0.177 133 133 133 0
7.2690 -9.6804 -30.7302 0.798 -0.577 -0.175 70 62 55 0
7.4344 -9.4904 -30.6437 0.819 -0.545 -0.181 219 203 174 0
7.5917 -9.3015 -30.5596 0.783 -0.595 -0.182 223 206 178 0
7.3969 -9.1465 -30.5732 0.817 -0.552 -0.169 225 207 177 0
-22.6698 25.9115 -30.0803 0.218 -0.741 -0.635 237 223 195 0
-21.4438 27.4677 -29.4050 0.326 -0.945 -0.031 231 218 189 0
-10.7056 28.2914 -26.4734 0.578 -0.140 0.804 155 109 96 0
-4.1789 29.6435 -24.4933 0.753 -0.536 0.382 147 79 65 0
-4.5663 29.9606 -24.5183 0.632 -0.428 0.647 145 77 66 0
-6.5273 35.5648 -23.7135 0.414 -0.689 0.595 144 71 60 0
-6.2185 35.7163 -23.5994 0.414 -0.683 0.601 145 73 59 0
-6.2796 36.2060 -23.5010 -0.058 -0.875 0.481 151 80 62 0
-4.5341 37.5923 -22.7328 0.869 -0.202 0.452 164 93 77 0
-5.7494 38.6630 -22.7935 0.796 -0.032 0.604 158 87 71 0
-5.8506 38.9317 -22.7568 0.813 -0.030 0.581 157 86 71 0
-4.7871 39.3208 -22.3948 0.907 -0.299 0.296 161 89 77 0
-5.1460 39.6691 -22.4053 0.935 -0.104 0.338 161 89 77 0
-5.8497 40.1264 -22.4783 0.998 -0.036 -0.057 161 89 75 0
-5.6635 40.3078 -22.3886 0.864 -0.475 0.168 163 92 77 0
-4.3663 50.7915 -19.6161 0.288 0.479 0.829 116 68 59 0
-6.8860 53.5768 -19.6104 0.993 0.004 0.117 127 93 78 0
-7.3741 54.0351 -19.6282 0.647 -0.694 -0.316 131 99 82 0
-7.2137 54.2230 -19.5435 0.575 -0.761 -0.300 137 107 87 0
-6.9252 54.3564 -19.4388 0.604 -0.724 -0.334 150 124 104 0
-13.7692 60.4906 -19.7565 0.667 -0.642 0.377 219 208 189 0
-13.2722 61.8980 -19.3020 0.206 -0.673 0.710 219 206 190 0
-11.8815 61.5288 -19.0331 -0.125 -0.390 0.912 220 207 191 0
-11.3828 61.8367 -18.8342 -0.064 -0.247 0.967 220 208 187 0
1.9118 79.4474 -11.3409 0.475 0.753 0.455 202 185 156 0
20.5393 70.5638 -8.6570 0.498 -0.634 0.592 198 181 152 0
19.7148 71.3749 -8.6785 0.866 -0.289 -0.408 198 181 153 0
-4.2543 90.9374 -10.2383 0.428 0.176 0.887 198 178 146 0
-5.9331 92.4537 -10.3136 0.603 0.317 0.732 198 177 145 0
3.2012 89.2946 -8.7187 0.718 0.693 -0.057 197 175 138 0
1.9574 90.5199 -8.7507 0.727 0.678 -0.111 196 173 139 0
29.3340 78.4309 -4.5810 0.384 -0.763 -0.520 175 148 121 0
28.7019 79.2000 -4.5632 0.385 -0.827 -0.409 174 147 118 0
6.7263 -10.2336 -31.1985 0.785 -0.599 -0.160 255 255 255 0
6.9328 -10.0380 -31.0999 0.804 -0.570 -0.171 255 255 255 0
7.0777 -9.8492 -31.0189 0.788 -0.590 -0.173 133 133 133 0
7.2432 -9.6587 -30.9320 0.784 -0.601 -0.153 70 62 55 0
7.3999 -9.4694 -30.8478 0.814 -0.550 -0.187 219 203 173 0
7.5625 -9.2799 -30.7619 0.784 -0.596 -0.173 222 206 175 0
7.5743 -9.1050 -30.7183 0.747 -0.664 0.019 226 207 175 0
-7.9768 5.6116 -31.2947 0.266 -0.798 -0.541 242 226 196 0
-20.3019 26.0616 -29.7097 0.077 -0.917 -0.392 234 221 194 0
-19.2313 27.1171 -29.1893 0.151 -0.987 0.046 229 217 187 0
-6.6226 36.1303 -23.8543 -0.074 -0.814 0.576 150 79 60 0
-4.8594 37.0481 -23.1878 0.940 0.032 0.339 161 93 70 0
-4.6144 37.2122 -23.0868 0.926 -0.034 0.377 165 97 74 0
-3.3955 37.0903 -22.8018 0.550 -0.776 0.308 166 99 76 0
-5.1632 39.7431 -22.6396 0.861 -0.338 0.381 163 91 76 0
-5.2852 40.0195 -22.6068 0.872 -0.095 0.480 164 92 76 0
-6.1614 40.5334 -22.7125 0.883 -0.354 0.308 166 94 78 0
-3.3349 39.8811 -22.1377 0.854 -0.448 0.265 167 97 80 0
-1.6752 44.7543 -20.5787 0.530 -0.637 0.560 131 50 49 0
-3.0656 46.7000 -20.4838 0.949 -0.079 -0.306 122 48 45 0
-0.0016 47.9215 -19.4125 0.403 -0.057 0.914 118 58 50 0
-0.1690 48.2252 -19.3849 0.397 -0.032 0.917 114 55 48 0
-6.5183 52.9989 -19.9073 0.937 -0.314 -0.151 119 80 67 0
-6.7826 53.8697 -19.7728 0.858 -0.497 0.130 128 94 77 0
-6.8932 54.1707 -19.7313 0.816 -0.563 0.132 131 100 81 0
-6.8186 54.3939 -19.6603 0.812 -0.565 0.143 135 107 87 0
-6.7757 54.6306 -19.5942 0.633 -0.678 -0.374 150 126 104 0
-6.2954 54.6805 -19.4592 0.476 -0.728 -0.494 181 160 137 0
-4.4253 55.3886 -18.8141 0.737 -0.385 -0.556 220 207 192 0
-13.6818 60.5416 -19.9954 0.731 -0.528 0.433 221 209 192 0
-16.3185 64.7888 -19.6860 -0.144 -0.123 0.982 220 209 185 0
22.0654 48.3422 -13.6436 0.944 -0.303 0.130 219 207 186 0
20.5707 49.2755 -13.8108 0.716 -0.693 -0.084 217 206 184 0
7.4944 61.0873 -14.4264 0.768 -0.295 0.569 214 202 179 0
24.0201 62.5819 -9.8320 0.956 0.293 0.032 200 189 160 0
19.7942 70.9547 -8.9723 0.621 -0.760 0.194 199 180 152 0
19.9946 71.0413 -8.9006 0.654 -0.750 0.099 197 178 151 0
19.4549 71.6525 -8.8973 0.871 -0.135 -0.473 198 180 151 0
6.0420 95.3723 -6.8319 0.286 0.272 0.919 184 160 124 0
6.9164 -10.0156 -31.2999 0.789 -0.592 -0.166 255 255 255 0
7.0492 -9.8279 -31.2220 0.788 -0.590 -0.173 133 133 133 0
7.2209 -9.6366 -31.1332 0.784 -0.601 -0.153 69 62 55 0
7.3675 -9.4481 -31.0516 0.814 -0.550 -0.187 219 203 173 0
7.5389 -9.2576 -30.9630 0.788 -0.594 -0.164 223 206 174 0
7.3019 -9.1062 -30.9892 0.800 -0.595 -0.077 227 208 175 0
-8.3211 5.6638 -31.6079 0.275 -0.748 -0.604 242 225 196 0
6.3542 19.3587 -24.6333 0.971 0.229 0.071 238 227 199 0
-21.6224 27.6263 -29.9576 -0.048 -0.990 0.130 227 216 186 0
-4.2489 30.6910 -24.7498 0.529 -0.836 0.148 133 60 54 0
-3.8052 32.8722 -24.1291 0.737 -0.611 0.288 121 53 52 0
-3.4963 36.9525 -23.1028 0.896 -0.385 0.222 164 99 70 0
-3.4801 38.5842 -22.7203 0.911 -0.299 0.285 157 89 71 0
-3.9933 40.1578 -22.4882 0.700 -0.714 -0.004 168 97 76 0
-3.3436 43.7501 -21.4869 0.305 -0.511 0.804 140 61 56 0
-2.6234 47.0913 -20.5256 0.945 -0.092 -0.313 123 49 46 0
-6.6491 53.6418 -20.0485 0.573 -0.600 0.558 124 86 73 0
-5.8281 53.5513 -19.8570 0.522 -0.843 0.132 127 91 76 0
-6.2134 53.9665 -19.8605 0.656 -0.722 0.220 128 95 78 0
-6.6896 54.4219 -19.8781 0.821 -0.563 0.096 130 101 83 0
-6.6760 54.6710 -19.8168 0.835 -0.540 0.105 136 111 90 0
-6.4801 54.8423 -19.7264 0.634 -0.691 -0.347 146 123 101 0
-14.5819 61.3096 -20.3237 0.855 -0.519 0.021 223 212 194 0
-11.4086 60.6847 -19.6472 0.060 -0.278 0.959 223 211 196 0
-12.3309 61.3764 -19.7255 0.320 -0.889 0.327 223 212 198 0
-12.0481 61.5169 -19.6197 0.320 -0.889 0.327 223 212 197 0
-14.5269 64.5940 -19.5478 -0.101 -0.075 0.992 217 209 187 0
19.4414 50.3158 -14.0664 0.967 -0.254 0.005 218 207 185 0
19.6883 50.4016 -13.9826 0.955 -0.294 -0.024 218 207 185 0
16.4983 72.4324 -9.6991 0.217 -0.931 0.295 201 182 152 0
19.2888 70.7164 -9.3748 0.548 -0.833 0.072 201 181 152 0
19.5447 71.2237 -9.1909 0.569 -0.817 0.088 198 178 151 0
19.7768 71.2883 -9.1158 0.319 -0.829 0.458 196 179 151 0
18.3609 80.8021 -7.2760 0.470 0.232 0.852 190 167 138 0
7.0206 -9.8065 -31.4256 0.788 -0.590 -0.173 133 133 133 0
7.1914 -9.6151 -31.3368 0.802 -0.577 -0.155 69 62 55 0
7.3350 -9.4269 -31.2558 0.814 -0.550 -0.187 219 203 175 0
12.5890 -7.7490 -29.4978 0.178 -0.982 -0.066 226 210 177 0
-31.0778 -6.0588 -40.4907 0.111 -0.174 0.979 229 210 180 0
-8.7657 27.8321 -26.8307 0.059 -0.996 -0.063 147 102 88 0
-5.6398 31.0841 -25.2631 -0.069 -0.532 0.844 133 55 50 0
-3.2941 34.4109 -23.8817 0.911 -0.278 0.306 130 59 52 0
-3.3009 40.0071 -22.5884 0.941 -0.329 -0.081 168 98 74 0
-3.5753 43.9027 -21.7584 0.642 -0.737 0.213 137 58 54 0
-3.9877 52.3617 -19.9083 0.430 -0.447 0.785 117 75 65 0
-5.9191 53.4183 -20.1673 0.650 -0.754 0.093 120 81 69 0
-4.9945 53.2826 -19.9577 0.743 -0.531 -0.407 123 86 73 0
-6.5282 54.6909 -20.0316 0.846 -0.525 0.091 128 100 81 0
-6.5092 54.9379 -19.9695 0.634 -0.691 -0.347 133 108 88 0
-15.2748 62.8194 -20.4307 0.413 0.619 0.668 222 213 198 0
-10.8688 61.6004 -19.5642 0.301 -0.654 0.694 221 212 197 0
-11.7563 62.2843 -19.6373 0.350 -0.835 0.424 222 213 197 0
-13.7088 64.8514 -19.5522 -0.212 -0.190 0.959 223 212 193 0
20.9396 49.2361 -14.1330 0.605 -0.793 -0.072 221 210 192 0
19.4590 50.3791 -14.2545 0.967 -0.254 0.005 221 210 189 0
19.1498 50.9508 -14.2028 0.876 -0.473 -0.097 218 208 187 0
-7.7577 64.6468 -18.0481 0.597 0.012 0.802 218 207 188 0
9.0290 59.9603 -14.7563 0.804 -0.594 0.034 214 203 177 0
19.7615 71.1634 -9.3656 0.709 -0.701 0.079 199 179 152 0
24.9747 71.4140 -7.9485 0.014 -0.589 0.808 195 174 143 0
1.2915 97.0218 -8.1965 0.394 0.499 0.772 190 165 135 0
31.7235 75.1503 -5.3244 0.026 -0.802 0.597 183 161 126 0
6.8875 -9.9701 -31.6998 0.794 -0.587 -0.155 255 255 255 0
6.9920 -9.7850 -31.6296 0.788 -0.590 -0.173 133 133 133 0
7.1460 -9.5952 -31.5453 0.795 -0.584 -0.165 70 63 55 0
7.3024 -9.4055 -31.4605 0.814 -0.550 -0.187 220 204 175 0
11.7471 -7.7976 -29.9221 0.183 -0.982 -0.046 227 210 177 0
-21.0345 27.1347 -30.4621 0.940 0.194 0.280 230 219 191 0
-3.4358 29.9360 -25.1944 0.580 -0.168 0.797 144 61 55 0
-5.3894 30.8545 -25.4953 0.876 -0.037 0.480 140 56 53 0
-4.8970 30.9674 -25.3399 0.406 -0.641 0.651 136 54 50 0
-2.7660 33.6428 -24.1625 0.705 -0.637 0.313 122 51 47 0
-2.6687 33.8459 -24.0901 0.709 -0.618 0.340 129 58 51 0
-3.6802 37.6061 -23.4873 0.855 -0.418 0.308 161 97 67 0
-3.9728 38.1629 -23.4355 0.970 -0.212 -0.115 156 90 68 0
-1.5204 44.9154 -21.2322 0.892 -0.450 0.044 131 51 50 0
1.2641 45.3018 -20.4119 0.436 -0.255 0.863 128 49 47 0
-1.0501 47.3616 -20.5438 0.867 -0.436 -0.240 116 43 37 0
0.8014 49.9675 -19.4559 0.737 0.327 0.591 113 67 59 0
-3.5351 52.2532 -20.0666 0.473 -0.550 0.688 117 74 65 0
-6.1096 53.5798 -20.4362 0.691 -0.723 0.024 119 79 69 0
-4.4791 53.1468 -20.1081 0.902 -0.377 -0.211 122 82 72 0
-6.9821 54.9678 -20.3448 0.482 -0.858 -0.177 125 95 79 0
-6.9829 55.2243 -20.2857 0.528 -0.841 0.120 128 100 84 0
-15.0133 62.7921 -20.6465 0.657 0.656 0.371 221 213 197 0
-12.8973 62.3639 -20.1898 0.633 -0.589 0.502 221 212 198 0
-12.5945 62.4958 -20.0799 0.641 -0.619 0.454 220 213 197 0
-4.2460 60.3953 -18.3730 -0.226 -0.239 0.944 222 213 196 0
-3.1924 60.9094 -17.9776 -0.217 -0.208 0.954 220 211 196 0
19.4167 50.4723 -14.4517 0.800 -0.519 -0.302 221 212 193 0
-7.8368 64.5124 -18.3650 0.864 -0.102 0.493 218 210 191 0
9.0413 60.5082 -14.8581 0.911 0.293 0.290 213 202 180 0
9.6780 60.3984 -14.7163 0.942 0.317 -0.111 213 202 180 0
9.2952 60.8414 -14.7146 0.957 0.097 0.272 213 203 178 0
-5.4329 83.1222 -13.4361 0.260 -0.040 0.965 203 187 161 0
-4.4345 84.1435 -12.9381 0.601 0.314 0.735 202 185 159 0
-3.3738 83.9867 -12.6958 0.795 0.606 -0.032 198 182 157 0
19.3596 71.0816 -9.7072 0.645 -0.750 0.147 200 179 152 0
19.7533 71.4915 -9.5091 0.720 -0.693 -0.027 197 179 151 0
26.1445 70.4105 -8.0807 0.813 -0.437 -0.385 197 176 145 0
25.0101 71.4797 -8.1316 0.777 0.009 -0.630 195 176 144 0
24.9648 71.7348 -8.0846 0.766 0.002 -0.643 196 176 145 0
23.7262 74.9205 -7.6741 0.795 0.345 -0.499 193 172 142 0
23.4660 75.3498 -7.6433 0.803 0.321 -0.503 193 171 143 0
9.0025 93.2518 -7.3066 0.080 -0.070 0.994 185 159 132 0
8.8003 93.6912 -7.2582 0.057 -0.129 0.990 183 158 130 0
9.1498 93.6659 -7.1723 0.025 -0.113 0.993 182 158 128 0
32.2166 74.8254 -5.4668 -0.073 -0.717 0.694 183 161 128 0
27.5698 80.1352 -5.4607 0.057 -0.757 0.651 178 153 123 0
6.8419 -9.9505 -31.9091 0.796 -0.583 -0.164 255 255 255 0
6.9634 -9.7636 -31.8339 0.788 -0.590 -0.173 133 133 133 0
7.1252 -9.5728 -31.7472 0.788 -0.590 -0.173 71 62 56 0
7.2951 -9.3817 -31.6582 0.787 -0.596 -0.159 220 203 176 0
7.6020 -8.8293 -31.4498 0.672 -0.693 -0.259 222 204 174 0
8.6502 -8.5595 -31.1104 0.401 -0.694 -0.598 224 206 176 0
11.8830 -7.7614 -30.0717 0.183 -0.982 -0.046 226 209 177 0
-3.3680 29.7531 -25.4591 0.693 -0.310 0.651 143 62 55 0
-4.6043 30.9581 -25.5083 0.425 -0.636 0.644 144 59 55 0
-2.8108 33.4883 -24.4510 0.690 -0.626 0.363 125 52 50 0
-2.7426 33.6993 -24.3843 0.831 -0.520 0.199 123 49 46 0
-3.7482 37.9276 -23.6759 0.990 -0.072 0.125 157 93 66 0
-5.6543 40.4122 -23.6073 0.809 -0.561 0.173 165 100 76 0
-1.4417 44.9594 -21.4455 0.638 -0.303 0.708 133 53 53 0
-0.2225 46.4054 -20.7899 0.952 0.205 -0.228 122 46 43 0
-0.8922 47.3755 -20.7434 0.849 -0.470 -0.241 119 45 39 0
-1.7888 50.1408 -20.3432 0.162 0.265 0.951 110 53 46 0
-6.7109 55.4472 -20.4218 0.111 -0.957 0.270 132 104 88 0
-4.2726 84.1461 -13.1634 0.587 0.280 0.760 202 185 158 0
-3.4955 83.9011 -13.0144 0.595 0.450 0.666 201 184 159 0
22.6231 69.3207 -9.4681 0.860 -0.485 -0.156 199 179 154 0
25.1154 70.8314 -8.4610 0.936 -0.321 -0.147 199 174 146 0
24.6650 71.3879 -8.4518 0.922 -0.386 0.013 195 172 144 0
6.7939 -9.9311 -32.1196 0.798 -0.583 -0.155 255 255 255 0
6.9358 -9.7419 -32.0384 0.795 -0.584 -0.165 133 133 133 0
7.1035 -9.5505 -31.9497 0.799 -0.572 -0.183 71 62 56 0
7.2718 -9.3594 -31.8609 0.777 -0.607 -0.166 220 203 177 0
-16.7127 25.7223 -30.1801 0.877 0.192 0.440 234 220 192 0
-5.7171 27.3729 -26.8726 0.475 -0.520 0.710 145 97 84 0
-2.9519 29.9417 -25.5455 0.580 -0.168 0.797 144 59 54 0
-4.5742 30.7820 -25.7843 0.691 0.536 0.486 143 55 53 0
-4.3429 30.9561 -25.6826 0.425 -0.636 0.644 145 59 56 0
-2.6316 33.7325 -24.5885 0.839 -0.491 0.233 124 51 46 0
-2.5694 33.9451 -24.5230 0.821 -0.535 0.200 124 51 44 0
-3.5653 37.2367 -24.0313 0.994 -0.107 -0.015 157 98 65 0
-3.2598 37.6142 -23.8631 0.813 -0.415 0.408 158 97 65 0
-5.4271 40.4103 -23.7972 0.759 -0.608 0.233 163 101 72 0
-5.2457 40.5930 -23.7069 0.774 -0.578 0.259 164 101 71 0
-4.0634 40.4561 -23.4236 0.816 -0.392 0.424 164 100 71 0
-2.8508 40.5410 -23.0812 0.740 -0.394 0.545 170 105 72 0
-1.0625 44.8940 -21.6039 0.886 0.160 0.436 130 50 50 0
-1.0972 45.1439 -21.5557 0.652 -0.749 -0.122 126 46 45 0
1.4456 47.4881 -20.3395 0.930 -0.228 -0.288 110 44 40 0
-6.6970 55.7817 -20.6005 0.329 -0.944 -0.035 133 106 89 0
-10.9792 66.2734 -19.3281 0.731 0.586 0.349 218 209 195 0
-11.8909 67.0064 -19.4023 0.798 0.405 0.446 219 210 195 0
8.9279 61.2120 -15.1911 0.879 0.387 0.279 214 203 181 0
9.1255 61.5770 -15.0546 0.882 0.322 0.345 212 202 177 0
8.2673 62.2881 -15.1196 0.950 -0.312 -0.037 212 202 178 0
1.5109 70.6253 -15.0014 0.429 0.170 0.887 211 197 172 0
3.9964 81.0436 -11.9438 -0.035 -0.220 0.975 200 182 156 0
3.4069 81.9864 -11.8839 -0.008 -0.176 0.984 202 180 156 0
1.9200 83.5686 -11.9160 0.054 -0.265 0.963 201 181 156 0
22.7912 69.2921 -9.6414 0.843 -0.516 -0.151 198 178 154 0
22.8567 75.7903 -8.1297 0.816 0.302 -0.493 191 170 143 0
22.7761 76.0824 -8.0839 0.816 0.302 -0.493 191 170 143 0
-0.0992 95.9438 -9.6079 0.630 0.064 0.774 190 166 141 0
18.9482 83.4092 -7.4183 0.749 -0.013 -0.662 186 165 135 0
6.7703 -9.9092 -32.3235 0.798 -0.583 -0.155 255 255 255 0
6.9093 -9.7201 -32.2428 0.795 -0.584 -0.165 133 133 133 0
7.0718 -9.5291 -32.1554 0.799 -0.572 -0.183 70 63 56 0
7.2240 -9.3394 -32.0710 0.785 -0.604 -0.137 219 204 175 0
7.1602 -8.6447 -31.9287 0.806 -0.493 -0.328 225 208 178 0
-16.0338 25.6598 -30.2762 0.868 -0.450 0.208 234 220 193 0
-17.8939 26.2427 -30.6412 0.781 -0.080 0.620 235 219 193 0
-17.5348 26.4244 -30.5032 0.695 -0.198 0.691 232 220 192 0
-5.9117 27.2430 -27.1986 0.579 -0.627 0.522 145 97 83 0
-4.0428 30.7156 -25.9006 0.692 0.458 0.558 143 55 53 0
-2.4289 33.9703 -24.7210 0.827 -0.529 0.192 118 49 40 0
-3.1931 39.3038 -23.7020 0.959 -0.153 0.238 158 91 66 0
-4.9151 40.0793 -23.9858 0.988 0.134 0.071 162 98 71 0
-5.3256 40.4479 -24.0113 0.758 -0.615 0.219 162 102 72 0
-5.1456 40.6310 -23.9210 0.774 -0.578 0.259 162 103 72 0
-1.5315 52.8795 -20.1412 0.581 -0.651 0.490 119 82 74 0
-6.3401 55.7106 -20.7809 0.477 -0.874 -0.092 125 97 79 0
-6.3813 55.9850 -20.7290 0.538 -0.780 -0.319 135 108 88 0
-4.7581 57.8200 -19.8727 0.412 -0.796 -0.443 220 213 193 0
1.7809 60.7052 -17.4572 0.055 -0.716 0.696 219 210 195 0
4.8930 59.6061 -16.8749 0.615 -0.774 0.150 217 210 194 0
10.0007 60.0081 -15.4130 0.837 0.485 0.255 217 205 188 0
10.0890 60.1942 -15.3466 0.834 0.507 0.216 215 204 187 0
9.1103 60.9615 -15.4330 0.887 0.382 0.261 217 204 186 0
8.8051 61.3648 -15.4223 0.982 0.160 0.095 216 205 185 0
8.6876 61.6665 -15.3846 0.881 0.249 0.402 216 205 183 0
9.0267 61.7173 -15.2820 0.865 0.110 0.490 215 203 183 0
2.0927 70.3770 -15.1541 0.832 0.487 0.265 210 195 173 0
1.4234 71.0325 -15.1832 0.874 0.465 0.137 212 197 174 0
1.3033 71.3631 -15.1395 0.879 0.455 0.144 212 197 174 0
1.2033 71.6824 -15.0931 0.883 0.442 0.157 211 196 173 0
-0.6085 79.1758 -13.8593 0.997 0.008 -0.082 202 188 161 0
6.4988 79.4063 -11.9007 0.708 0.198 0.678 198 182 157 0
3.6127 81.9499 -12.0909 0.428 -0.081 0.900 199 180 153 0
24.3823 72.2303 -8.7519 0.811 -0.438 -0.388 196 175 149 0
22.9910 75.3256 -8.4147 0.762 0.619 0.190 189 167 143 0
22.5199 76.6111 -8.2461 0.808 0.223 -0.545 191 171 141 0
22.7330 76.6742 -8.1744 0.909 0.169 -0.382 190 171 140 0
-3.2465 97.9929 -10.2487 0.860 0.156 0.486 191 168 139 0
5.8525 97.0979 -8.0142 -0.002 -0.726 0.687 180 161 130 0
5.6165 97.5778 -7.9674 -0.026 -0.793 0.608 178 159 127 0
5.1944 98.2184 -7.9336 0.034 -0.748 0.663 177 158 128 0
5.3155 98.6763 -7.7960 0.037 -0.818 0.574 178 158 129 0
27.1982 80.9909 -5.9865 0.965 0.027 -0.260 176 154 123 0
6.8828 -9.6983 -32.4476 0.795 -0.584 -0.165 133 133 133 0
7.0401 -9.5076 -32.3615 0.799 -0.572 -0.183 70 63 56 0
7.5546 -8.5839 -32.0110 0.837 -0.458 -0.300 225 208 178 0
-16.0767 25.2390 -30.6469 0.834 -0.538 0.118 235 221 194 0
-15.9232 25.6995 -30.5000 0.855 -0.465 0.232 234 220 193 0
-17.5704 26.7395 -30.7067 0.683 -0.212 0.699 229 219 190 0
-5.7212 27.2615 -27.3877 0.579 -0.627 0.522 142 95 80 0
-3.8592 30.7323 -26.0901 0.690 0.455 0.563 144 55 54 0
-2.1185 33.7208 -24.9358 0.751 -0.095 0.654 112 43 36 0
-2.1769 33.9653 -24.8956 0.756 -0.090 0.649 111 42 34 0
-2.2477 34.2137 -24.8578 0.852 0.034 0.522 113 45 36 0
-1.0357 45.2670 -21.9995 0.549 -0.818 0.170 125 44 41 0
-0.8598 45.4399 -21.9124 0.559 -0.817 0.142 127 46 45 0
-0.6321 45.5931 -21.8159 0.750 -0.446 0.488 129 48 48 0
1.3605 48.8536 -20.5312 0.958 -0.223 -0.181 104 47 43 0
-1.3691 52.8898 -20.3440 0.544 -0.640 0.543 116 79 71 0
-2.2535 53.5174 -20.4391 0.504 -0.734 0.454 117 82 73 0
-3.0355 54.1045 -20.5158 0.588 -0.253 0.768 118 86 73 0
-3.4268 54.5246 -20.5253 0.601 -0.473 0.644 121 92 76 0
-3.3091 54.7237 -20.4479 0.709 -0.570 0.416 129 100 83 0
5.4548 59.4026 -17.0101 -0.014 -0.808 0.589 219 210 195 0
5.9694 59.3782 -16.8768 -0.014 -0.831 0.557 215 208 192 0
3.9186 60.6799 -17.1324 -0.014 -0.804 0.595 215 208 191 0
5.1694 63.6875 -16.1060 0.820 -0.284 0.496 215 204 187 0
6.1766 63.3770 -15.9052 0.991 0.127 -0.030 216 204 187 0
-1.0378 67.6197 -16.8816 0.529 -0.472 -0.705 215 203 186 0
8.4678 67.6626 -14.3052 0.638 0.716 -0.283 209 195 173 0
7.3931 68.5568 -14.3906 0.635 0.742 -0.213 209 194 173 0
6.3017 69.4663 -14.4770 0.635 0.742 -0.213 209 194 174 0
6.3385 79.6228 -12.1414 0.995 0.055 0.085 196 180 155 0
24.7955 71.3462 -9.0530 0.867 -0.338 -0.367 196 175 148 0
25.1983 73.0409 -8.5561 0.482 -0.858 0.176 192 170 145 0
25.6402 72.9232 -8.4638 0.585 -0.767 0.263 191 169 144 0
22.4683 76.9814 -8.3910 0.876 0.073 -0.477 189 169 139 0
26.4232 74.7545 -7.8330 0.825 -0.533 -0.186 190 166 140 0
27.1429 81.1418 -6.1761 0.965 0.027 -0.260 176 153 122 0
7.0083 -9.4861 -32.5680 0.799 -0.572 -0.183 70 63 56 0
12.1703 -7.8071 -30.7809 0.370 -0.800 -0.473 227 207 180 0
-15.8974 25.7546 -30.7434 0.882 -0.406 0.239 233 220 193 0
-17.0441 26.2088 -30.9514 0.635 -0.059 0.771 234 219 193 0
-13.5458 27.2551 -29.7611 -0.068 -0.981 0.182 150 119 99 0
-12.7625 27.3421 -29.5283 -0.049 -0.979 0.196 148 112 92 0
-9.4212 27.1509 -28.6636 0.348 -0.635 0.690 145 101 85 0
-5.9155 26.9022 -27.7672 0.260 -0.852 0.454 143 95 81 0
-3.4846 29.5643 -26.4980 0.732 -0.490 0.473 133 55 49 0
-2.1699 29.9359 -26.0557 0.757 -0.426 0.496 139 55 52 0
-4.4404 40.0684 -24.3577 0.861 0.090 0.500 160 99 70 0
-2.6693 41.1624 -23.6263 0.880 -0.355 0.316 165 104 69 0
-2.8106 41.9206 -23.4914 0.929 -0.288 0.230 156 90 60 0
-0.9240 45.2988 -22.2066 0.549 -0.818 0.170 128 48 44 0
-0.7657 45.4781 -22.1226 0.238 -0.275 0.931 129 50 47 0
-0.7273 45.7016 -22.0611 0.271 -0.245 0.931 126 49 47 0
-0.6255 45.9015 -21.9877 0.250 -0.283 0.926 127 49 49 0
-0.5800 46.1223 -21.9249 0.262 -0.273 0.926 124 48 45 0
-0.6487 46.3863 -21.8832 0.690 -0.415 0.593 123 48 45 0
-1.1834 52.1548 -20.7105 0.368 0.603 0.708 106 63 57 0
-2.6766 53.5328 -20.8017 0.873 -0.482 0.077 112 75 67 0
-1.9198 53.4541 -20.6139 0.572 -0.679 0.461 114 78 69 0
-3.5395 54.4052 -20.8369 0.851 -0.326 0.411 114 80 70 0
-3.3237 54.5619 -20.7425 0.729 -0.513 0.452 117 85 74 0
-2.9509 54.6490 -20.6212 0.808 -0.389 0.442 124 92 80 0
-5.6478 56.0877 -21.0257 0.319 -0.828 -0.461 135 105 92 0
-3.3126 57.0744 -20.1653 0.374 -0.717 -0.588 218 209 192 0
-0.7560 67.5577 -17.0749 0.961 -0.182 -0.208 213 204 189 0
-2.0731 68.8132 -17.1461 0.984 0.096 0.149 213 203 187 0
-2.7474 69.4546 -17.1829 0.986 -0.138 0.091 213 204 186 0
6.3817 69.2628 -14.7446 0.632 0.746 -0.209 211 197 176 0
4.8855 70.4218 -14.8866 0.608 0.786 -0.115 209 195 174 0
4.8214 70.7138 -14.8373 0.693 0.657 -0.298 208 193 172 0
11.7525 72.7492 -12.4878 0.746 -0.606 -0.276 200 188 162 0
12.9734 72.1740 -12.2872 0.300 -0.833 0.465 200 187 161 0
12.7606 72.8015 -12.2017 0.605 -0.690 0.397 200 186 160 0
16.0507 77.0122 -10.3450 0.744 0.625 0.235 196 175 149 0
3.6579 98.0804 -8.9005 0.586 -0.771 0.251 182 161 134 0
3.9823 98.0898 -8.8101 0.643 -0.597 0.479 181 160 133 0
4.2959 98.1071 -8.7209 0.628 -0.698 0.344 178 157 130 0
4.8752 98.4605 -8.4827 0.128 -0.708 0.695 178 159 129 0
5.7076 -8.6994 -32.9479 0.566 -0.687 -0.456 224 207 180 0
5.3657 -8.5513 -33.0077 0.533 -0.494 -0.687 227 207 180 0
11.6456 -7.8282 -31.1236 0.267 -0.947 -0.176 228 208 182 0
-17.6296 26.1291 -31.3954 0.868 -0.497 0.007 232 219 191 0
-17.4643 26.3465 -31.3006 0.927 -0.213 0.308 232 218 191 0
-12.9438 27.1974 -29.8691 -0.066 -0.982 0.178 149 115 96 0
-9.8237 27.0556 -29.0473 0.327 -0.591 0.737 144 103 86 0
-1.1591 29.7558 -26.0597 0.769 -0.173 0.616 134 55 51 0
-4.6414 40.2010 -24.6314 0.969 0.223 -0.104 159 101 68 0
-2.7362 41.9661 -23.7074 0.899 -0.328 0.289 158 95 62 0
-0.6327 45.9776 -22.2169 0.307 0.324 0.895 126 51 49 0
