ply
format ascii 1.0
element vertex 844
property float x
property float y
property float z
property float nx
property float ny
property float nz
property uchar diffuse_red
property uchar diffuse_green
property uchar diffuse_blue
property uchar class
end_header
8.8217 86.8777 -18.6433 0.976 0.218 0.008 186 174 160 0
15.6047 89.8268 -15.8807 -0.109 -0.217 0.970 178 163 144 0
16.4007 89.3737 -15.7045 -0.121 -0.187 0.975 177 162 143 0
16.2821 89.7528 -15.6730 -0.071 -0.117 0.991 175 160 141 0
15.6576 90.5969 -15.7207 -0.079 -0.100 0.992 175 159 141 0
16.3309 90.2511 -15.5648 0.014 -0.022 1.000 176 158 141 0
16.0964 90.7393 -15.5509 0.014 -0.022 1.000 174 155 140 0
29.5818 82.1172 -12.7424 0.334 0.209 0.919 173 154 137 0
29.2387 82.6910 -12.7482 0.334 0.209 0.919 172 154 136 0
29.4220 83.2402 -12.5866 0.899 -0.395 -0.190 170 152 129 0
29.5051 83.4017 -12.5295 0.899 -0.395 -0.190 169 151 127 0
-24.5918 -0.9671 -46.1076 0.960 -0.020 0.278 231 216 195 0
-13.8757 25.3339 -37.7278 0.861 -0.224 0.457 231 219 197 0
-14.4528 25.7016 -37.8495 0.590 -0.568 0.574 230 218 195 0
-13.7333 26.7798 -37.4139 0.504 -0.596 0.625 141 112 102 0
3.5049 26.4262 -31.8141 0.973 0.216 0.081 102 43 50 0
1.9645 27.2557 -32.1671 0.853 -0.145 0.501 103 42 49 0
1.7904 27.5218 -32.1751 0.874 0.045 0.483 105 44 51 0
1.7532 27.7534 -32.1446 0.873 0.049 0.485 104 43 48 0
5.7767 28.0009 -30.7766 0.904 -0.062 0.423 106 42 46 0
5.8082 28.2082 -30.7280 0.922 -0.004 0.387 112 47 52 0
6.0091 28.3690 -30.6322 0.972 -0.207 0.112 116 51 55 0
6.0327 29.8784 -30.3457 0.862 -0.507 -0.013 112 42 45 0
6.0840 30.0809 -30.2914 0.814 -0.276 0.511 116 44 48 0
9.6908 37.1978 -27.7915 0.719 -0.131 0.683 109 43 43 0
9.7299 37.8424 -27.6596 0.722 -0.117 0.682 105 41 40 0
9.7618 38.7124 -27.4884 0.907 -0.250 0.339 103 33 36 0
9.4193 39.5090 -27.4538 0.959 -0.269 -0.089 105 33 35 0
9.3611 39.7542 -27.4277 0.858 -0.385 -0.341 105 33 36 0
9.5139 39.9173 -27.3473 0.910 -0.310 -0.273 106 32 37 0
10.0865 48.7559 -25.5266 0.458 -0.448 0.768 75 19 25 0
6.9282 53.8711 -25.6197 0.852 0.295 0.433 72 40 41 0
6.7290 54.2159 -25.6214 0.769 0.303 0.562 73 41 42 0
6.5487 54.5522 -25.6186 0.627 0.566 0.535 78 46 47 0
4.5158 56.3441 -25.9557 0.608 0.749 0.264 93 63 61 0
3.9954 56.8659 -26.0303 0.609 0.733 0.301 98 71 67 0
1.8657 58.2351 -26.4773 0.477 0.738 0.478 104 80 76 0
2.6117 58.0979 -26.2575 0.748 0.548 0.373 114 92 86 0
2.0854 58.6314 -26.3319 0.801 0.481 0.357 124 104 97 0
-3.7794 62.8159 -27.4864 0.584 0.759 0.286 207 198 180 0
13.0020 68.5026 -20.9210 0.678 -0.128 0.724 204 192 178 0
12.7864 68.9002 -20.9184 0.529 -0.082 0.845 202 191 176 0
17.3299 88.6404 -15.7790 -0.102 -0.192 0.976 174 159 140 0
21.8968 87.3078 -14.5242 0.793 0.605 0.072 176 155 142 0
30.0302 81.3092 -12.9593 0.019 -0.272 0.962 172 154 136 0
30.3875 81.2042 -12.8613 0.205 0.008 0.979 172 154 135 0
30.1342 81.6883 -12.8551 0.352 0.203 0.914 173 155 135 0
29.5041 83.5097 -12.7257 0.899 -0.404 -0.168 168 150 126 0
-25.5991 -0.9233 -46.7038 0.086 -0.991 0.102 232 217 194 0
-13.8460 25.3830 -37.9748 0.856 -0.239 0.458 228 219 200 0
-14.2435 25.7130 -38.0454 0.644 -0.527 0.555 226 216 195 0
-13.6306 26.8136 -37.6401 0.517 -0.584 0.625 136 109 97 0
-13.4141 27.0122 -37.5320 0.375 -0.680 0.631 133 101 93 0
-4.8359 25.5579 -34.9642 0.186 -0.981 -0.056 118 78 78 0
2.1862 27.2522 -32.3310 0.908 -0.197 0.369 102 41 46 0
1.4376 27.6663 -32.5022 0.768 0.077 0.636 101 40 45 0
5.9106 28.0176 -30.9590 0.901 -0.074 0.426 107 44 52 0
5.9898 28.2117 -30.8970 0.865 0.033 0.501 115 53 60 0
5.6417 30.2645 -30.6341 0.858 -0.509 -0.070 115 45 49 0
6.4084 30.4761 -30.3417 0.662 -0.417 0.623 120 45 49 0
7.2353 33.0591 -29.5928 0.714 -0.354 0.604 112 38 42 0
8.7046 34.7604 -28.7938 0.313 -0.731 0.606 121 43 41 0
8.8910 34.9150 -28.7037 0.313 -0.731 0.606 119 41 39 0
9.9195 37.8329 -27.8265 0.841 -0.057 0.539 105 41 42 0
10.3519 38.1098 -27.6325 0.939 -0.098 0.330 104 39 41 0
10.1692 38.3987 -27.6397 0.853 -0.409 0.325 105 36 40 0
9.9717 38.6944 -27.6506 0.897 -0.257 0.359 104 33 39 0
9.5596 39.5175 -27.6352 0.949 -0.123 0.290 106 33 40 0
9.4639 40.0001 -27.5780 0.896 -0.336 -0.289 105 32 38 0
10.4209 40.7331 -27.1267 0.969 -0.217 0.118 103 33 37 0
10.5358 46.5449 -26.0185 0.649 -0.688 -0.325 92 22 27 0
10.6455 46.7232 -25.9495 0.895 -0.294 -0.336 93 25 30 0
10.1780 48.7840 -25.7245 0.946 -0.191 0.261 75 19 25 0
10.2596 49.2088 -25.6193 0.865 0.263 0.427 72 21 29 0
7.0415 53.8909 -25.8210 0.840 0.336 0.426 72 40 43 0
6.7179 54.5435 -25.8078 0.627 0.566 0.535 76 46 46 0
2.9316 57.7576 -26.4675 0.867 0.389 0.312 103 79 74 0
2.5054 58.2367 -26.5202 0.753 0.491 0.438 114 92 86 0
2.1037 58.7049 -26.5667 0.736 0.477 0.481 122 102 95 0
1.8355 59.1042 -26.5819 0.752 0.491 0.439 147 128 121 0
13.0528 68.5597 -21.1328 0.613 -0.210 0.762 203 191 179 0
12.9850 68.8566 -21.1006 0.550 -0.114 0.828 203 191 177 0
29.6102 58.9699 -17.4255 0.471 -0.635 0.613 199 190 175 0
30.0643 59.2867 -17.2171 0.250 -0.586 0.770 200 188 174 0
6.3990 76.5840 -21.8547 0.377 -0.862 0.339 199 188 174 0
6.9655 76.4496 -21.6922 0.238 -0.864 0.444 196 187 172 0
21.2412 66.7059 -18.7674 0.764 -0.425 -0.485 195 186 171 0
18.1972 88.2282 -15.8106 -0.073 -0.209 0.975 175 159 143 0
30.5818 80.8825 -13.0694 0.015 -0.278 0.961 171 153 132 0
30.6555 81.2882 -12.9704 0.352 0.188 0.917 172 154 132 0
28.4009 83.9629 -13.2232 0.198 0.102 0.975 171 153 131 0
-25.5764 -0.8871 -46.9631 0.074 -0.989 0.124 230 215 192 0
-23.7358 -0.6668 -46.3107 0.066 -0.987 0.143 229 214 191 0
-13.9536 25.7072 -38.2172 0.808 -0.328 0.489 225 216 196 0
-13.8805 25.9380 -38.1505 0.802 -0.339 0.491 225 214 193 0
-13.8072 26.1686 -38.0838 0.798 -0.327 0.506 207 193 174 0
4.5051 26.2781 -31.9753 0.760 -0.400 0.512 103 45 51 0
6.8150 30.4111 -30.4487 0.570 -0.807 0.155 118 43 47 0
9.1615 32.4977 -29.2855 0.845 -0.526 0.095 112 39 44 0
10.2365 38.6552 -27.7979 0.986 -0.139 -0.089 104 34 39 0
9.3668 39.6554 -27.9034 0.963 0.214 0.161 107 34 41 0
10.1943 48.6162 -25.9834 0.978 0.009 0.209 79 19 26 0
10.1436 48.8723 -25.9533 0.953 -0.158 0.259 74 18 25 0
7.6386 50.3071 -26.5228 0.881 0.386 0.273 74 21 27 0
7.7226 50.5046 -26.4586 0.904 0.380 0.197 71 20 27 0
8.0893 50.5649 -26.3256 0.973 0.146 0.180 71 19 26 0
6.9356 54.0225 -26.0745 0.907 0.331 0.260 72 39 42 0
2.6429 57.9919 -26.7731 0.862 0.359 0.357 103 79 74 0
2.4018 58.3743 -26.7830 0.756 0.430 0.494 111 88 82 0
2.0941 58.7934 -26.8084 0.789 0.398 0.468 117 97 90 0
1.8597 59.1752 -26.8163 0.785 0.399 0.474 142 122 115 0
1.6368 59.5521 -26.8212 0.744 0.521 0.418 198 181 170 0
6.7481 76.1665 -22.0721 0.830 -0.450 -0.330 201 189 175 0
20.9975 66.9703 -19.0226 0.745 -0.448 -0.495 194 185 170 0
25.6443 65.8772 -17.6783 0.792 -0.580 -0.189 198 186 172 0
25.7619 66.0166 -17.6136 0.792 -0.580 -0.189 197 185 171 0
31.2818 80.7853 -13.0674 0.203 0.000 0.979 170 152 130 0
-30.6290 -1.5480 -49.0474 0.066 -0.990 0.125 231 216 193 0
-13.8024 25.7308 -38.4292 0.831 -0.327 0.451 225 215 197 0
-13.7290 25.9614 -38.3624 0.833 -0.338 0.439 225 214 195 0
-13.6659 26.1942 -38.2987 0.798 -0.352 0.490 203 188 172 0
-13.5848 26.4231 -38.2297 0.776 -0.394 0.493 153 132 120 0
-13.5040 26.6520 -38.1608 0.777 -0.373 0.507 138 114 102 0
-13.4886 26.8954 -38.1111 0.668 -0.572 0.477 133 106 95 0
2.4319 27.0749 -32.7546 0.275 -0.820 0.502 102 41 48 0
8.7473 32.6875 -29.6157 0.812 -0.583 -0.010 116 42 49 0
7.9606 33.1587 -29.7926 0.611 -0.755 0.239 119 44 51 0
10.7516 38.3006 -27.9184 0.874 -0.478 -0.089 104 39 42 0
11.0679 38.8371 -27.7144 0.910 -0.222 0.349 104 35 40 0
9.3131 40.1864 -28.0543 0.941 -0.241 -0.236 107 32 39 0
8.0685 50.6491 -26.5560 0.964 0.169 0.207 71 18 26 0
7.3048 53.1848 -26.3474 0.957 -0.101 -0.270 65 26 33 0
7.9715 53.3294 -26.0980 0.690 0.687 0.228 67 32 37 0
6.9333 54.1015 -26.3039 0.766 0.628 0.141 70 37 39 0
3.8040 57.4625 -26.7353 0.674 0.666 0.320 102 78 73 0
2.3071 58.5075 -27.0447 0.856 0.364 0.368 109 87 81 0
2.0793 58.8848 -27.0518 0.865 0.338 0.371 117 96 89 0
1.8812 59.2477 -27.0516 0.885 0.367 0.285 139 118 112 0
1.6379 59.6359 -27.0619 0.904 0.382 0.192 195 177 167 0
23.8414 56.9322 -20.1319 0.642 -0.112 0.758 211 199 185 0
25.5933 66.0026 -17.8864 0.805 -0.568 -0.172 198 186 172 0
25.7287 66.1289 -17.8180 0.809 -0.569 -0.148 198 185 171 0
25.7599 66.3331 -17.7702 0.866 -0.482 -0.133 195 182 168 0
12.4494 82.7036 -19.2256 0.272 0.220 0.937 187 175 159 0
6.6383 89.7117 -19.8865 0.851 0.478 0.218 186 172 155 0
2.4013 98.3630 -19.7203 0.494 -0.734 -0.465 179 163 150 0
13.7775 90.8478 -17.2913 0.483 -0.656 -0.580 175 161 145 0
-32.3793 -1.7537 -49.9571 0.762 -0.607 -0.225 233 218 196 0
-28.7435 -1.2744 -48.6469 0.072 -0.992 0.107 230 215 194 0
-8.9349 23.8017 -37.4109 0.914 -0.370 -0.166 233 222 202 0
-13.6729 25.7589 -38.6474 0.831 -0.327 0.451 226 214 198 0
-13.5834 25.9860 -38.5759 0.831 -0.344 0.437 224 212 195 0
-13.5206 26.2188 -38.5123 0.831 -0.344 0.437 193 178 163 0
-13.3778 26.4340 -38.4250 0.823 -0.382 0.421 151 131 119 0
-13.3656 26.6779 -38.3764 0.830 -0.344 0.440 137 113 103 0
-13.5413 26.9638 -38.3834 0.806 -0.320 0.498 131 103 94 0
6.1392 27.2532 -31.7117 0.917 0.122 0.379 100 39 44 0
8.3712 33.0829 -29.8977 0.802 -0.353 0.482 119 44 51 0
10.7273 38.3714 -28.1406 0.876 -0.475 -0.086 105 42 45 0
9.9833 39.7637 -28.1369 0.864 0.462 0.200 103 33 40 0
11.3106 42.1189 -27.2609 0.582 -0.215 0.784 95 26 31 0
10.5246 44.7055 -27.0534 0.890 -0.455 -0.004 100 19 28 0
10.5833 44.9067 -26.9970 0.876 -0.479 -0.049 98 16 27 0
10.3767 48.2098 -26.4639 0.964 0.008 0.265 83 17 26 0
10.3396 48.4588 -26.4310 0.967 0.021 0.254 80 17 25 0
10.3244 48.6978 -26.3925 0.967 0.021 0.254 79 18 25 0
6.2252 55.0333 -26.6155 0.757 0.644 0.107 72 42 42 0
0.7041 59.1808 -27.7159 0.792 -0.388 -0.472 99 75 71 0
1.2961 59.3855 -27.4794 0.939 -0.054 -0.340 119 96 91 0
1.4855 59.5433 -27.3869 0.920 -0.078 -0.384 137 116 110 0
1.5039 59.7924 -27.3353 0.936 -0.035 -0.351 188 170 161 0
1.0176 60.3139 -27.4037 0.989 -0.100 0.107 208 192 180 0
3.9087 67.3000 -25.1571 0.996 -0.068 -0.051 209 200 185 0
4.3550 67.2887 -25.0091 0.992 0.010 -0.128 208 199 186 0
24.2472 57.4093 -20.1210 0.791 -0.449 0.415 208 194 185 0
24.6190 57.3889 -19.9997 0.703 -0.497 0.509 210 196 187 0
21.4368 59.6698 -20.6539 -0.187 -0.530 0.827 209 195 185 0
22.7970 66.5446 -18.9424 0.410 -0.731 -0.545 196 184 170 0
25.7551 66.1966 -18.0110 0.818 -0.557 -0.143 197 182 169 0
25.7897 66.3985 -17.9626 0.841 -0.474 0.260 195 181 168 0
22.6874 73.9914 -17.6209 0.679 0.452 0.579 188 177 159 0
2.3774 98.5108 -19.9791 0.494 -0.734 -0.465 179 163 149 0
2.2642 98.9156 -19.9433 0.455 -0.760 -0.464 177 163 147 0
31.8601 79.7240 -13.4904 0.520 -0.837 0.170 172 155 135 0
31.6932 80.1207 -13.4741 0.426 -0.863 0.272 172 154 134 0
30.2875 82.2010 -13.5674 0.058 -0.498 0.865 170 153 134 0
30.0265 82.6973 -13.5647 0.119 -0.652 0.749 169 152 133 0
-5.7244 23.4234 -36.6506 0.729 -0.620 0.290 232 221 203 0
-7.2153 23.9671 -37.0560 0.504 -0.755 0.419 230 220 202 0
-13.3181 25.4933 -38.8427 0.705 -0.290 0.647 227 217 201 0
-13.3975 25.7559 -38.8219 0.733 -0.285 0.618 226 214 198 0
-13.3542 25.9925 -38.7642 0.733 -0.285 0.618 224 211 195 0
-13.3691 26.2420 -38.7239 0.758 -0.348 0.552 187 172 158 0
-13.2698 26.4667 -38.6494 0.779 -0.367 0.508 150 129 118 0
-13.2602 26.7111 -38.6017 0.835 -0.325 0.443 136 111 102 0
-13.5644 27.0258 -38.6474 0.857 -0.154 0.492 131 103 94 0
6.2110 27.5016 -31.8720 0.970 -0.029 0.240 106 44 49 0
7.6102 31.2063 -30.7251 0.884 -0.464 -0.055 133 63 66 0
10.9178 35.3132 -28.8596 0.663 -0.625 0.412 114 38 46 0
9.3526 36.5246 -29.1687 0.617 0.783 0.076 113 45 51 0
8.5008 37.4966 -29.2801 0.748 0.180 -0.639 113 49 57 0
9.8174 38.1169 -28.7220 0.992 0.122 0.027 113 52 57 0
9.9465 38.2891 -28.6470 0.999 0.020 0.040 107 47 51 0
10.2996 49.7123 -26.4505 0.914 0.380 0.143 70 17 23 0
3.3920 57.0838 -27.4466 0.899 0.277 -0.338 78 53 49 0
0.7056 58.7450 -28.0533 0.804 -0.382 -0.456 83 58 54 0
0.4336 59.1477 -28.0721 0.871 -0.240 -0.428 91 66 62 0
1.0191 59.3579 -27.8358 0.880 -0.115 -0.462 110 85 81 0
1.1222 59.5626 -27.7637 0.880 -0.124 -0.459 121 96 93 0
1.3860 59.6811 -27.6529 0.920 -0.078 -0.384 132 107 104 0
0.9902 60.1534 -27.7009 0.808 -0.515 -0.286 180 160 153 0
1.1515 60.3270 -27.6148 0.956 -0.237 -0.172 207 190 179 0
1.1453 61.1130 -27.4740 0.758 0.617 0.210 208 197 179 0
4.3644 67.3749 -25.2465 0.979 -0.100 0.179 208 198 186 0
4.3032 67.6766 -25.2124 0.978 -0.055 0.199 208 198 186 0
23.0477 57.1505 -20.7861 0.083 -0.947 0.310 212 197 184 0
23.7172 56.9471 -20.5967 0.187 -0.896 0.404 211 196 184 0
23.3572 57.3964 -20.6367 0.324 -0.865 0.384 209 195 184 0
25.1263 57.1392 -20.0851 -0.068 -0.594 0.801 207 194 185 0
20.0204 69.3856 -19.5854 0.341 -0.718 -0.606 194 182 167 0
26.8694 65.4469 -17.9850 0.137 -0.346 0.928 198 182 169 0
26.9377 65.6208 -17.9302 0.137 -0.346 0.928 197 181 168 0
7.5530 88.6106 -20.3068 0.688 0.350 0.636 188 172 157 0
7.0754 89.5794 -20.2922 0.693 0.341 0.635 187 171 156 0
31.5952 80.0825 -13.7254 0.330 -0.898 0.290 171 156 135 0
31.7746 80.1452 -13.6533 0.426 -0.867 0.258 169 154 133 0
29.9516 82.8771 -13.7731 0.022 -0.709 0.704 168 153 134 0
30.1732 82.9021 -13.6936 0.028 -0.707 0.707 168 153 134 0
26.5731 88.4655 -13.8998 0.351 -0.794 -0.497 253 255 254 0
6.7029 3.8308 -36.2250 -0.174 -0.721 0.671 235 225 209 0
-6.1526 23.5645 -37.0214 0.704 -0.691 0.166 232 221 203 0
-13.3115 25.5474 -39.0972 0.727 -0.259 0.636 226 216 199 0
-13.2752 25.7854 -39.0417 0.727 -0.259 0.636 226 214 198 0
-13.2298 26.0216 -38.9835 0.732 -0.246 0.636 222 208 192 0
-13.1993 26.2611 -38.9297 0.752 -0.323 0.575 180 163 150 0
-13.1070 26.4873 -38.8573 0.773 -0.372 0.514 148 126 116 0
-6.9600 26.3128 -36.7979 0.256 -0.827 -0.501 115 76 77 0
6.6053 27.8783 -31.8996 0.934 -0.357 -0.029 105 40 45 0
7.5185 30.8559 -31.0493 0.511 -0.771 0.381 126 58 61 0
11.0435 35.3276 -29.0397 0.663 -0.625 0.412 119 43 52 0
10.5382 35.7234 -29.1399 0.532 0.784 0.320 117 44 52 0
9.8359 38.1717 -28.9350 0.627 -0.741 0.239 119 59 65 0
10.0954 38.2946 -28.8245 0.638 -0.738 0.218 114 53 58 0
10.1216 39.8359 -28.5362 0.880 0.317 -0.353 108 41 48 0
11.7032 42.3069 -27.5503 0.733 -0.327 0.597 92 21 29 0
10.7631 45.8741 -27.2236 0.919 -0.189 0.345 94 19 27 0
11.0341 49.4274 -26.4874 0.908 0.161 -0.387 68 16 21 0
0.9526 59.7379 -28.0481 0.887 -0.093 -0.452 120 94 93 0
1.2820 59.8216 -27.9208 0.922 -0.079 -0.378 126 103 99 0
1.0276 60.2186 -27.9354 0.815 -0.506 -0.281 172 152 145 0
1.1306 60.4237 -27.8632 0.956 -0.237 -0.172 207 190 178 0
1.8666 60.8045 -27.5438 0.712 0.644 0.280 208 195 178 0
0.9513 61.5677 -27.7168 0.718 0.642 0.269 210 197 181 0
0.4290 62.1185 -27.7947 0.712 0.644 0.279 211 198 182 0
4.2949 67.5102 -25.5024 0.976 -0.218 0.027 208 198 185 0
22.6493 57.2587 -21.1168 0.165 -0.926 0.339 209 196 182 0
23.0881 57.2032 -20.9776 0.097 -0.946 0.310 210 195 182 0
23.5723 57.1171 -20.8285 0.286 -0.958 0.002 210 196 183 0
21.4334 64.2013 -20.2721 0.994 0.048 0.100 203 190 174 0
5.4245 75.6072 -23.6505 0.677 -0.733 -0.074 203 190 174 0
17.6003 70.0361 -20.5184 0.944 0.270 -0.190 194 181 167 0
3.3742 97.2813 -20.4196 0.407 -0.914 -0.012 181 166 151 0
2.1833 98.6306 -20.5802 0.503 -0.733 -0.458 186 170 155 0
2.3528 99.3987 -20.3833 0.529 -0.687 -0.499 177 164 147 0
30.2552 82.4445 -13.9646 0.164 -0.782 0.602 167 154 137 0
29.9707 83.2080 -13.9230 0.129 -0.792 0.596 166 153 136 0
-15.2341 -2.7878 -45.1411 0.743 -0.395 0.540 232 218 197 0
9.6003 18.7167 -32.7601 0.531 0.068 0.844 236 227 212 0
-6.1523 23.6166 -37.2638 0.697 -0.696 0.173 231 219 202 0
-13.5278 25.6490 -39.4198 0.799 -0.467 0.378 227 216 198 0
-13.2881 25.8440 -39.3026 0.761 -0.405 0.506 227 214 197 0
-13.1068 26.0510 -39.2031 0.749 -0.452 0.485 220 203 189 0
-12.9883 26.2713 -39.1228 0.751 -0.342 0.565 175 155 144 0
-8.7602 26.0635 -37.7139 0.966 0.250 0.066 129 101 97 0
6.7134 27.9019 -32.0882 0.936 -0.349 -0.039 104 39 44 0
7.7809 31.4827 -31.0761 0.699 0.079 0.710 122 57 61 0
10.7102 35.2878 -29.3865 0.860 -0.437 -0.264 125 51 57 0
10.9903 35.4052 -29.2695 0.618 -0.660 0.427 121 49 56 0
10.9541 35.6345 -29.2404 0.546 0.797 0.258 121 50 58 0
10.4123 38.2364 -28.9557 0.642 -0.749 0.164 118 58 63 0
12.7733 41.0392 -27.6416 0.696 -0.705 0.134 92 25 32 0
11.8493 42.3104 -27.7280 0.733 -0.327 0.597 92 22 30 0
11.8639 42.5269 -27.6839 0.681 -0.258 0.685 93 23 32 0
12.1490 42.6280 -27.5681 0.619 -0.291 0.730 96 25 33 0
10.8184 46.3753 -27.3463 0.609 -0.702 0.371 87 17 25 0
10.9619 46.5383 -27.2678 0.595 -0.717 0.364 89 19 26 0
11.1081 46.6998 -27.1886 0.595 -0.717 0.364 89 18 26 0
0.9497 59.8243 -28.2926 0.976 0.208 -0.063 116 94 93 0
1.0006 60.0577 -28.2330 0.959 0.265 0.106 122 101 98 0
1.0205 60.3078 -28.1811 0.810 -0.519 -0.273 167 148 140 0
1.1438 60.5022 -28.1038 0.954 -0.238 -0.181 208 191 178 0
1.2505 60.7053 -28.0305 0.996 -0.084 -0.018 206 192 176 0
24.8968 56.7884 -20.6488 0.058 -0.725 0.686 207 195 183 0
21.3106 64.1401 -20.5474 0.988 0.100 0.120 202 190 174 0
21.3142 64.3705 -20.5045 0.977 0.160 0.141 202 190 174 0
5.9008 75.3754 -23.7893 0.882 -0.253 -0.398 202 190 174 0
30.0369 59.5708 -18.3876 0.725 -0.550 -0.414 198 187 174 0
30.1406 68.2300 -16.7877 0.930 0.105 -0.351 189 176 159 0
7.5939 89.3778 -20.6803 0.674 -0.720 0.167 184 170 156 0
3.2432 97.5220 -20.6972 0.153 -0.419 0.895 183 167 152 0
30.3324 82.4753 -14.1485 0.487 -0.847 0.216 167 154 137 0
-16.1765 -2.7605 -45.7150 0.586 -0.783 0.207 232 217 195 0
-11.2450 23.5294 -39.2839 0.773 -0.261 -0.578 235 226 209 0
-6.4424 23.7295 -37.5956 0.699 -0.711 -0.084 231 218 202 0
-13.3482 25.6665 -39.6226 0.805 -0.457 0.379 228 215 198 0
-13.1575 25.8718 -39.5200 0.811 -0.473 0.345 227 213 197 0
-12.9918 26.0821 -39.4251 0.810 -0.477 0.342 216 199 184 0
-7.6536 26.5820 -37.4986 0.333 -0.921 -0.202 113 75 76 0
5.1968 27.0633 -32.9909 0.174 -0.643 0.746 102 41 49 0
6.5905 27.9884 -32.3448 0.661 -0.328 0.675 104 39 45 0
5.6820 29.7629 -32.3378 0.779 -0.198 -0.595 112 46 52 0
7.9573 31.4843 -31.2450 0.732 0.087 0.676 123 58 62 0
9.9838 34.7319 -29.9630 0.492 -0.766 -0.413 129 53 61 0
12.8088 41.0884 -27.8464 0.695 -0.706 0.135 91 25 34 0
11.4515 41.8747 -28.1717 0.900 -0.203 -0.385 93 29 36 0
11.3808 42.7983 -28.0297 0.874 -0.305 0.378 92 22 32 0
10.1409 46.0647 -27.8680 0.501 -0.514 0.696 89 16 27 0
10.8663 48.0323 -27.2641 0.964 -0.265 0.040 81 17 23 0
9.2387 52.8262 -26.9608 0.957 0.292 0.008 61 29 32 0
6.3924 55.2635 -27.5011 0.593 0.736 0.326 72 43 45 0
4.9216 56.2776 -27.8244 0.669 0.637 0.382 75 47 48 0
1.4526 58.6041 -28.5989 0.745 0.632 0.214 83 57 56 0
2.5507 58.7954 -28.1867 0.879 0.420 0.225 107 83 83 0
1.0496 60.1167 -28.4652 0.962 0.254 0.101 121 100 97 0
0.9987 60.4052 -28.4308 0.810 -0.519 -0.273 164 146 138 0
1.1556 60.5815 -28.3450 0.956 -0.227 -0.183 209 192 180 0
1.2079 60.8144 -28.2851 0.995 -0.092 -0.028 206 193 177 0
1.2682 61.3048 -28.1760 0.744 0.452 0.493 209 196 182 0
23.8353 57.1061 -21.1683 0.114 -0.468 0.876 208 196 182 0
20.9314 64.2560 -20.8797 0.714 -0.476 -0.513 201 189 174 0
21.3313 64.4450 -20.7081 0.977 0.160 0.141 200 189 173 0
5.3966 76.1016 -24.0910 0.724 -0.545 -0.424 199 190 174 0
2.4748 78.4336 -24.6762 0.902 -0.045 -0.429 199 188 174 0
35.5681 74.9681 -13.9151 0.316 0.432 0.845 169 153 138 0
30.3841 82.5310 -14.3366 0.478 -0.838 0.264 169 153 137 0
29.3771 84.2532 -14.3729 0.453 -0.857 -0.247 167 149 133 0
-15.6220 -2.7250 -45.7734 0.509 -0.665 0.546 231 216 193 0
-15.3443 -2.5032 -45.6375 0.832 -0.390 0.395 230 215 192 0
-16.3604 -2.2845 -45.9498 0.359 0.061 0.931 230 215 192 0
-3.1849 0.1592 -40.9528 0.656 -0.606 0.449 230 215 192 0
-9.0791 22.6764 -38.9501 0.484 -0.386 0.785 236 227 211 0
-8.4374 24.4369 -38.4120 0.684 -0.721 0.113 231 218 201 0
-13.2314 25.6973 -39.8444 0.806 -0.527 0.271 229 216 199 0
-13.0443 25.9033 -39.7427 0.811 -0.473 0.345 228 213 196 0
-12.9449 26.1279 -39.6680 0.811 -0.473 0.345 216 197 182 0
-6.3283 25.8614 -37.4266 0.703 -0.678 0.216 121 92 88 0
-8.0344 26.7250 -37.8619 0.217 -0.976 0.031 113 75 76 0
5.7250 29.8056 -32.5486 0.860 -0.115 -0.498 110 45 49 0
10.8936 34.2610 -29.9606 -0.016 -0.699 0.715 141 64 73 0
9.9821 35.0087 -30.1417 0.029 -0.864 0.504 135 63 69 0
10.0000 35.2203 -30.0976 0.365 -0.889 0.278 134 66 71 0
8.2808 36.0423 -30.5448 0.379 -0.792 -0.479 134 66 73 0
12.8811 41.1224 -28.0413 0.695 -0.706 0.135 91 26 34 0
11.8353 42.0018 -28.2453 0.848 -0.530 0.031 88 25 33 0
12.4721 43.5116 -27.7540 0.552 -0.724 0.414 95 18 28 0
13.2755 44.0482 -27.3797 0.929 -0.340 -0.142 91 14 27 0
7.1425 52.0322 -28.0683 0.820 0.554 0.140 66 18 24 0
5.0320 56.3006 -28.0323 0.625 0.636 0.453 75 47 48 0
4.7183 56.7155 -28.0663 0.625 0.626 0.466 78 52 51 0
2.6787 58.5542 -28.4419 0.886 0.360 0.293 97 72 72 0
2.6494 58.8265 -28.4032 0.878 0.413 0.241 103 80 80 0
1.0425 60.2059 -28.7115 0.976 0.217 0.019 123 102 99 0
0.9893 60.4960 -28.6779 0.963 -0.189 -0.194 162 143 137 0
1.1182 60.6877 -28.5989 0.956 -0.223 -0.190 207 191 179 0
1.1835 60.9139 -28.5357 0.956 -0.223 -0.190 205 192 177 0
1.3807 61.3295 -28.3928 0.848 0.419 0.326 206 194 179 0
-0.0757 62.3954 -28.7054 0.822 0.551 0.144 206 194 180 0
21.1425 64.1961 -21.0413 0.473 -0.748 -0.466 199 189 173 0
21.3606 64.2778 -20.9511 0.473 -0.748 -0.466 200 189 173 0
21.5604 64.3716 -20.8652 0.991 0.032 0.128 198 188 171 0
21.7017 64.5057 -20.7922 0.947 -0.248 -0.204 198 189 172 0
21.5113 64.8725 -20.7922 0.909 -0.346 -0.233 199 190 173 0
21.9674 69.2592 -19.8470 0.429 -0.750 -0.503 189 182 164 0
29.7906 68.6943 -17.2418 0.995 0.099 -0.003 187 174 158 0
29.8886 70.1961 -16.9383 0.718 -0.665 -0.203 186 173 156 0
21.3229 78.8274 -18.3524 0.851 0.184 -0.491 184 168 155 0
20.7067 79.6030 -18.4264 0.402 -0.904 0.144 184 168 155 0
20.9555 79.6440 -18.3330 0.343 -0.939 0.011 185 167 155 0
29.3967 84.3424 -14.5692 0.472 -0.848 -0.242 170 147 133 0
1.3407 -9.2310 -41.2920 0.995 0.074 0.067 255 255 255 0
-15.3255 -2.6909 -45.9202 0.645 -0.589 0.486 232 217 194 0
-15.1374 -2.4698 -45.8151 0.829 -0.376 0.415 230 215 192 0
-16.0203 -2.2509 -46.0831 0.359 0.061 0.931 229 214 191 0
-13.0246 24.4822 -40.2577 0.308 -0.417 0.855 232 223 206 0
-12.9707 24.9609 -40.1533 0.246 -0.583 0.774 229 220 203 0
-13.2267 25.5059 -40.1448 0.804 -0.485 0.342 230 217 200 0
-13.1237 25.7301 -40.0689 0.804 -0.485 0.342 228 215 198 0
-12.9789 25.9452 -39.9801 0.805 -0.479 0.349 226 212 195 0
-12.8357 26.1603 -39.8918 0.800 -0.478 0.363 211 192 177 0
-6.5268 25.9608 -37.7325 0.726 -0.603 0.331 121 92 88 0
-6.5307 26.1972 -37.6916 0.520 -0.792 0.320 117 84 82 0
-7.6861 26.7000 -38.0036 0.141 -0.982 0.128 113 75 75 0
3.0426 29.0658 -33.8477 0.849 0.211 0.485 105 40 47 0
3.2849 29.2220 -33.7355 0.515 -0.499 0.697 105 40 46 0
5.1130 29.5960 -33.0325 0.723 -0.684 0.097 106 41 47 0
5.4082 29.7319 -32.9055 0.710 -0.676 0.197 109 44 50 0
5.7278 29.8598 -32.7714 0.884 -0.309 0.351 111 46 51 0
7.5429 29.9860 -32.1173 0.932 -0.245 0.267 121 59 62 0
7.5440 30.2022 -32.0783 0.918 -0.381 0.112 125 61 65 0
6.2539 32.5656 -32.1042 0.988 0.038 -0.149 118 53 59 0
6.2855 32.7771 -32.0554 0.103 -0.948 0.301 120 55 60 0
11.2414 34.1994 -30.0767 -0.046 -0.646 0.762 143 67 77 0
10.3216 34.9495 -30.2625 0.029 -0.864 0.504 142 73 78 0
8.3078 36.0930 -30.7585 0.427 -0.778 -0.462 142 77 82 0
11.3136 38.2981 -29.3183 0.957 0.247 -0.150 135 75 82 0
12.9404 41.1618 -28.2399 0.767 -0.403 0.500 91 26 34 0
12.0738 41.9666 -28.3974 0.705 -0.656 0.270 87 24 32 0
12.3486 42.2948 -28.2431 0.845 -0.424 0.325 89 21 31 0
10.1236 46.2116 -28.3164 0.057 -0.978 0.203 84 16 25 0
9.1370 50.6478 -27.8658 0.901 0.160 0.404 69 16 22 0
7.1193 52.1197 -28.3045 0.840 0.514 0.173 63 17 23 0
3.0476 58.1856 -28.6357 0.863 0.268 0.428 91 65 64 0
2.7670 58.5907 -28.6608 0.886 0.360 0.294 96 72 72 0
2.7531 58.8550 -28.6184 0.883 0.412 0.222 101 79 80 0
0.9905 60.3195 -28.9696 0.954 0.301 0.012 124 103 100 0
0.9276 60.6152 -28.9386 0.938 0.340 -0.061 158 139 133 0
0.8545 60.9171 -28.9100 0.933 0.356 -0.055 205 189 178 0
0.7743 61.2235 -28.8831 0.935 0.348 -0.066 204 192 176 0
0.3387 62.2544 -28.8502 0.795 0.551 0.255 207 195 180 0
24.0247 57.5831 -21.4454 0.061 -0.614 0.787 204 195 180 0
27.2406 55.7269 -20.6587 0.697 -0.340 0.631 203 194 179 0
6.2461 74.0846 -24.6782 0.941 0.110 -0.320 201 189 175 0
6.9095 73.8952 -24.4813 0.980 0.151 -0.126 198 189 174 0
29.9049 70.2745 -17.1288 0.599 -0.744 0.297 184 171 155 0
29.9658 70.4509 -17.0761 0.796 -0.563 0.221 182 169 153 0
3.6876 96.6034 -21.5392 0.332 0.487 0.808 179 164 151 0
1.5998 100.5848 -21.5532 0.211 -0.591 0.779 178 163 149 0
0.3757 -8.5156 -41.7216 0.973 -0.183 -0.139 230 215 195 0
-15.9768 -2.8830 -46.4380 0.391 -0.795 0.464 231 216 193 0
-15.6899 -2.6601 -46.2979 0.391 -0.795 0.464 231 216 193 0
-15.1407 -2.4371 -46.0660 0.459 -0.030 0.888 230 215 191 0
-15.1776 -2.2166 -46.0396 0.459 -0.030 0.888 229 214 191 0
-15.1662 -1.9958 -45.9961 0.597 -0.073 0.799 229 214 191 0
-8.6073 22.9234 -39.2574 0.515 -0.544 0.663 234 225 210 0
-9.0111 23.2405 -39.3421 0.561 -0.638 0.527 233 224 209 0
-9.1084 23.4972 -39.3304 0.516 -0.571 0.639 232 223 208 0
-11.5979 24.2446 -40.0680 0.426 -0.506 0.750 231 222 207 0
-12.5972 24.6936 -40.3376 0.426 -0.529 0.734 228 219 204 0
-8.2400 24.5021 -38.8474 0.708 -0.707 0.004 229 217 199 0
-7.9354 26.3360 -38.4138 0.703 -0.706 0.082 122 92 89 0
-7.4980 26.7119 -38.1937 0.086 -0.977 0.193 113 75 76 0
2.3602 29.3079 -34.2818 0.795 0.302 0.526 103 40 48 0
5.4870 29.7644 -33.1065 0.590 0.141 0.795 109 44 52 0
5.4069 30.0073 -33.0912 0.595 0.140 0.791 110 45 53 0
7.5939 29.8095 -32.3614 0.926 -0.304 0.222 112 50 55 0
7.5707 30.4662 -32.2524 0.906 -0.046 0.421 119 52 59 0
6.2732 31.9536 -32.4411 0.896 0.066 -0.438 120 54 62 0
6.2282 32.1884 -32.4149 0.898 0.081 -0.433 122 55 64 0
6.3042 32.3860 -32.3531 0.912 0.211 -0.351 118 51 60 0
6.1925 32.6424 -32.3465 0.989 -0.099 -0.111 118 53 60 0
11.2455 33.8262 -30.3675 -0.043 -0.812 0.583 138 62 72 0
11.5293 33.9438 -30.2473 -0.043 -0.769 0.638 141 66 75 0
11.7783 34.0724 -30.1372 -0.052 -0.646 0.761 144 72 80 0
10.5798 34.7016 -30.4443 -0.144 -0.799 0.584 146 75 80 0
8.1961 36.1928 -31.0123 0.446 -0.756 -0.479 149 84 89 0
-1.6004 42.0824 -33.3892 -0.140 0.223 0.965 142 86 89 0
12.4575 41.8701 -28.5090 0.743 -0.580 0.333 88 25 33 0
12.3960 43.9020 -28.1681 0.794 -0.159 0.586 90 21 28 0
9.9685 46.3517 -28.5805 0.932 0.033 -0.360 85 18 27 0
10.3583 46.6354 -28.3935 0.920 0.103 -0.378 83 18 26 0
10.2483 46.9166 -28.3818 0.923 -0.064 -0.380 81 17 25 0
10.5431 47.0115 -28.2618 0.903 -0.133 -0.408 80 18 26 0
10.2285 47.6201 -28.2633 0.851 -0.488 0.194 78 17 24 0
10.2548 49.2369 -27.9658 0.996 0.045 0.076 74 18 24 0
2.7355 58.6912 -28.9103 0.928 0.335 0.163 94 71 70 0
2.7893 58.9195 -28.8508 0.926 0.365 0.098 99 77 79 0
0.9027 60.4526 -29.2373 0.942 0.335 -0.011 122 102 99 0
0.8039 60.7683 -29.2156 0.905 0.387 -0.178 155 137 130 0
0.6600 61.1094 -29.2052 0.905 0.387 -0.178 205 190 179 0
0.5185 61.4500 -29.1939 0.901 0.374 -0.221 204 191 175 0
0.3804 61.7897 -29.1816 0.901 0.374 -0.221 204 193 173 0
1.5412 61.4146 -28.8424 0.886 0.415 -0.208 205 194 177 0
6.2834 73.8888 -24.9587 0.854 -0.513 -0.091 202 190 174 0
6.4266 74.0594 -24.8782 0.967 0.153 -0.204 200 189 172 0
6.6303 74.1878 -24.7840 0.983 -0.184 0.013 199 190 173 0
20.4056 65.5896 -21.4981 0.377 0.285 0.881 198 189 171 0
28.2444 60.5180 -19.6603 0.528 -0.847 -0.066 197 188 169 0
28.2253 60.7495 -19.6256 0.528 -0.849 -0.002 197 186 168 0
28.6246 60.6834 -19.4977 0.481 -0.862 0.158 197 186 167 0
14.2430 72.9616 -22.3394 -0.025 -0.722 0.691 193 184 167 0
29.8404 69.9660 -17.4169 0.570 -0.760 0.312 188 174 160 0
29.8641 70.1734 -17.3716 0.539 -0.668 0.514 187 173 160 0
30.0123 70.2771 -17.3013 0.550 -0.764 0.339 185 171 158 0
30.0547 70.4688 -17.2523 0.791 -0.571 0.220 184 170 157 0
19.4754 80.6042 -19.1459 0.451 -0.890 -0.067 183 169 156 0
19.3889 81.1922 -19.0713 0.409 -0.912 0.024 180 166 153 0
10.6999 96.9144 -19.3072 0.084 -0.006 0.996 170 152 138 0
6.9982 101.5794 -19.7703 0.219 0.136 0.966 173 154 140 0
-8.6946 24.1771 -39.3232 0.895 0.181 0.408 228 220 203 0
-7.3299 26.7283 -38.3897 0.059 -0.979 0.194 113 75 76 0
7.7620 30.0312 -32.4933 0.439 -0.874 0.207 117 55 60 0
7.6622 30.4941 -32.4462 0.906 -0.046 0.421 112 45 53 0
6.0867 32.2895 -32.6813 0.896 0.087 -0.435 122 56 65 0
6.1922 32.4783 -32.6106 0.988 -0.150 -0.047 117 51 60 0
11.6989 33.7292 -30.4510 -0.036 -0.813 0.581 133 61 69 0
12.0677 33.8168 -30.3057 -0.049 -0.815 0.577 136 66 74 0
11.1229 34.5717 -30.5039 -0.150 -0.815 0.561 140 73 77 0
11.5783 38.9788 -29.5603 0.593 -0.753 0.285 107 40 51 0
12.3880 41.9645 -28.7447 0.726 -0.592 0.349 89 25 33 0
12.6653 42.0690 -28.6286 0.750 -0.618 0.235 89 24 32 0
12.5505 43.2303 -28.4625 0.880 -0.175 0.442 86 19 25 0
10.3970 45.9970 -28.7283 0.862 -0.335 -0.381 83 15 25 0
10.2486 46.2944 -28.7277 0.913 0.358 -0.196 83 15 26 0
10.2401 46.7597 -28.6480 0.920 0.103 -0.378 82 17 26 0
10.6244 47.0444 -28.4622 0.401 -0.772 -0.492 77 15 24 0
10.5569 48.2331 -28.2746 0.783 -0.540 0.310 76 17 25 0
10.7310 48.3825 -28.1868 0.697 -0.703 0.144 73 16 24 0
10.9548 48.5078 -28.0858 0.884 -0.176 -0.433 71 15 21 0
3.2825 58.4830 -29.0117 0.772 0.616 0.154 94 69 70 0
3.1628 58.8033 -28.9968 0.840 0.542 0.016 99 76 76 0
0.2020 60.9174 -29.6626 0.760 0.643 0.098 124 103 99 0
0.6849 60.9192 -29.4924 0.905 0.387 -0.178 154 135 128 0
0.6073 61.2248 -29.4654 0.894 0.242 -0.377 203 187 175 0
0.5381 61.5263 -29.4361 0.894 0.242 -0.377 201 189 173 0
0.4688 61.8286 -29.4068 0.894 0.242 -0.377 202 192 173 0
1.5586 61.4918 -29.0833 0.907 0.319 -0.276 204 195 176 0
-1.8139 63.8936 -29.8428 0.824 0.438 -0.358 208 197 180 0
1.2784 62.4367 -29.0139 0.959 0.233 0.162 209 196 180 0
0.6989 63.0258 -29.1130 0.784 0.621 -0.008 209 197 181 0
-1.5170 65.0822 -29.5270 0.697 0.709 -0.108 212 200 186 0
1.2181 64.0601 -28.7465 0.851 0.468 0.239 211 201 187 0
6.1789 74.3300 -25.1758 0.697 0.699 0.162 201 189 175 0
6.2630 74.5421 -25.1085 0.979 0.123 -0.164 200 190 175 0
6.8952 74.3725 -24.9163 0.959 0.146 -0.244 198 189 173 0
6.6192 74.8345 -24.9312 0.940 0.143 -0.309 197 188 173 0
28.1169 60.4715 -19.9217 0.415 -0.805 0.425 199 190 172 0
28.3412 60.7488 -19.7935 0.420 -0.799 0.431 197 188 169 0
12.4532 74.6314 -22.9150 -0.114 -0.761 0.638 193 183 167 0
30.0511 69.8829 -17.5683 0.509 -0.739 0.441 186 172 159 0
30.2829 70.1432 -17.4405 0.522 -0.769 0.369 186 172 159 0
30.2227 70.4205 -17.4123 0.675 -0.709 0.206 185 171 158 0
30.1760 70.6870 -17.3814 0.800 -0.555 0.228 184 170 158 0
30.0721 71.0023 -17.3619 0.870 -0.283 0.404 184 170 158 0
19.8496 80.3908 -19.2892 0.617 -0.716 0.328 184 169 156 0
19.7234 80.7547 -19.2689 0.305 -0.952 0.023 184 169 156 0
14.4396 95.2369 -18.5534 0.363 -0.454 0.814 170 154 136 0
29.4576 84.6092 -15.1594 0.455 -0.843 -0.288 170 145 133 0
-15.0615 -2.8124 -46.6165 0.889 -0.324 0.325 232 217 196 0
12.9971 18.3154 -32.9478 0.903 -0.360 0.235 236 227 214 0
-9.0288 24.3006 -39.6788 0.986 -0.141 -0.083 229 220 205 0
1.2926 28.1303 -35.3492 -0.172 -0.912 0.373 103 42 50 0
2.9519 29.2560 -34.5628 -0.192 -0.884 0.427 107 44 53 0
7.1506 29.1806 -33.0909 0.909 -0.115 -0.401 108 45 53 0
7.4155 29.3212 -32.9723 0.895 -0.259 -0.364 111 47 55 0
7.4805 29.5188 -32.9143 0.895 -0.291 -0.338 111 47 55 0
7.8852 30.0497 -32.6771 0.486 -0.861 0.149 113 50 57 0
7.7090 30.5354 -32.6534 0.913 -0.086 0.399 111 44 53 0
12.1544 33.6312 -30.5324 0.008 -0.883 0.469 126 56 64 0
12.4958 33.7273 -30.3946 0.003 -0.865 0.502 126 60 65 0
8.0664 37.2535 -31.3366 0.318 0.859 0.402 139 76 84 0
6.5403 39.4017 -31.4959 -0.171 0.159 0.972 125 64 71 0
12.3326 38.7464 -29.5630 0.263 -0.339 0.903 103 37 49 0
12.3820 41.8100 -29.0028 0.718 -0.663 0.211 91 24 33 0
12.6369 43.2590 -28.6559 0.905 -0.107 0.412 84 18 25 0
10.3009 46.1101 -28.9771 0.629 -0.493 -0.601 82 15 25 0
10.2036 46.3847 -28.9628 0.580 -0.537 -0.613 81 13 24 0
9.8048 46.7979 -29.0307 0.946 0.251 -0.205 79 15 24 0
9.1224 53.0291 -28.1681 0.663 -0.709 0.239 58 26 29 0
6.3498 55.6843 -28.6784 0.713 0.662 0.231 70 43 44 0
0.2514 60.9773 -29.8979 0.766 0.639 0.076 127 106 101 0
0.5655 61.0707 -29.7702 0.905 0.387 -0.178 152 133 125 0
0.4529 61.3959 -29.7524 0.911 0.356 -0.207 201 185 173 0
0.3256 61.7300 -29.7383 0.911 0.356 -0.207 200 187 171 0
1.4138 61.6588 -29.3660 0.907 0.319 -0.276 203 193 175 0
1.2558 62.0095 -29.3597 0.796 0.576 -0.188 205 193 177 0
-2.3970 64.3086 -30.2445 0.815 0.519 -0.259 206 194 178 0
0.6630 62.8690 -29.4171 0.843 0.538 -0.021 206 194 178 0
0.5673 63.1884 -29.3944 0.784 0.621 -0.008 208 196 180 0
-2.6448 65.8148 -30.0653 0.658 0.752 -0.039 211 199 185 0
0.8276 64.3736 -29.0923 0.950 0.299 0.092 210 200 185 0
1.2247 64.6789 -28.8978 0.501 0.329 0.801 211 199 184 0
6.3236 74.6001 -25.3363 0.979 0.205 -0.016 199 188 173 0
15.4003 73.0672 -22.3972 0.005 -0.771 0.636 192 183 165 0
30.6389 70.1636 -17.5211 0.307 -0.766 0.565 185 171 158 0
30.2470 70.7200 -17.5612 0.801 -0.555 0.225 184 171 157 0
-14.4474 -2.7765 -46.6478 0.916 -0.111 0.385 230 217 195 0
-6.7387 25.9911 -38.8259 0.745 0.446 0.496 130 105 100 0
3.8244 28.8488 -34.5642 0.848 -0.065 0.526 106 43 55 0
8.0321 28.5535 -33.1197 0.828 0.031 0.559 105 43 49 0
6.7378 31.5405 -33.0526 0.828 0.535 -0.166 113 47 55 0
6.3352 31.8843 -33.1351 0.839 0.498 -0.221 113 47 56 0
7.9470 33.1390 -32.3402 0.920 0.118 0.372 117 44 56 0
8.0853 33.3139 -32.2602 0.915 0.090 0.394 121 45 57 0
12.4912 33.5734 -30.6472 0.008 -0.883 0.469 120 50 58 0
12.8388 33.6666 -30.5071 0.039 -0.968 0.247 122 54 61 0
9.0865 40.3049 -30.6695 0.191 -0.418 0.888 98 33 45 0
12.3385 42.1158 -29.1930 0.755 -0.512 0.410 89 21 33 0
12.6782 43.0842 -28.9012 0.658 -0.411 0.631 84 18 27 0
12.8828 43.2182 -28.8048 0.895 -0.241 0.376 84 19 27 0
9.5841 46.7369 -29.3567 0.955 0.158 -0.251 81 18 24 0
9.4343 47.0380 -29.3568 0.953 0.236 -0.189 79 15 23 0
9.4125 52.9573 -28.3193 0.529 -0.354 0.771 60 28 28 0
0.2706 61.0536 -30.1412 0.765 0.640 0.071 127 107 100 0
-0.7844 62.1593 -30.3212 0.838 0.539 0.081 201 183 171 0
0.4641 61.7415 -29.9509 0.923 0.378 0.069 201 186 171 0
2.1164 61.6189 -29.3849 0.795 0.585 -0.158 204 192 176 0
1.0097 62.4985 -29.6232 0.850 0.525 -0.033 205 193 177 0
1.2769 62.6137 -29.5078 0.806 0.574 -0.144 205 193 177 0
0.9523 63.0609 -29.5443 0.806 0.574 -0.144 207 195 179 0
0.3966 63.6404 -29.6396 0.973 0.230 -0.003 209 197 181 0
0.5349 63.8291 -29.5571 0.978 0.198 -0.071 208 197 181 0
8.8423 72.1565 -25.1318 0.654 0.738 0.166 201 187 177 0
20.8744 69.8226 -21.2643 0.420 -0.750 -0.511 190 182 164 0
23.6984 72.4499 -19.7958 0.305 0.401 0.864 190 177 161 0
-14.0051 -2.9604 -46.7773 0.940 -0.331 0.080 229 215 195 0
-14.2895 -2.7433 -46.8408 0.934 -0.093 0.346 229 216 196 0
-12.8336 -2.5184 -46.2805 0.703 -0.328 0.632 228 216 195 0
-12.8562 -2.3013 -46.2504 0.693 -0.356 0.627 226 214 194 0
-12.3031 -2.0836 -46.0143 0.678 -0.527 0.512 226 213 193 0
-8.6296 24.3241 -40.0527 0.977 0.166 -0.132 229 219 205 0
-6.8973 25.6085 -39.2071 0.211 -0.956 -0.205 137 117 108 0
-1.4755 25.5290 -37.2821 0.973 -0.042 0.227 106 74 75 0
5.0621 28.7840 -34.3711 0.951 0.301 0.067 103 41 51 0
6.7825 31.8036 -33.2244 0.527 0.068 0.847 111 46 54 0
6.6554 32.0635 -33.2241 0.171 -0.331 0.928 113 48 56 0
9.0999 32.8232 -32.2161 0.896 0.068 0.440 118 42 55 0
9.0797 33.0475 -32.1839 0.904 0.013 0.427 120 43 56 0
6.0776 37.6421 -32.4489 0.448 -0.813 -0.373 124 55 64 0
9.8242 38.9590 -30.8772 0.932 0.354 0.070 111 42 54 0
13.0887 40.1022 -29.5085 0.852 -0.523 -0.021 95 30 38 0
13.1898 44.2659 -28.7395 0.898 -0.076 0.434 82 17 27 0
9.0174 47.2998 -29.6977 0.606 -0.782 -0.150 79 17 25 0
7.8519 50.4532 -29.5596 0.942 -0.085 0.324 67 14 20 0
7.8581 50.6900 -29.5157 0.942 -0.085 0.324 67 14 20 0
9.5415 52.9679 -28.5127 0.590 0.009 0.807 60 29 27 0
9.4964 53.2310 -28.4825 0.590 0.009 0.807 58 30 28 0
5.7184 56.6762 -29.2273 0.893 0.438 0.101 76 51 51 0
0.0294 61.2714 -30.4531 0.820 0.571 0.030 128 108 100 0
-0.7438 62.2253 -30.5618 0.840 0.537 0.076 201 183 171 0
-0.9681 62.6161 -30.5732 0.837 0.546 0.022 201 186 171 0
-1.2962 63.0657 -30.6114 0.858 0.513 -0.007 203 190 174 0
0.8459 63.2096 -29.8200 0.939 0.343 0.028 207 194 178 0
0.5452 63.6459 -29.8508 0.979 0.114 0.169 209 195 181 0
0.5052 63.9357 -29.8140 0.979 0.114 0.169 207 197 180 0
11.4879 72.5003 -24.3788 0.825 0.295 -0.481 198 186 170 0
11.2715 72.9143 -24.3834 0.818 0.318 -0.479 198 186 170 0
13.1098 74.1852 -23.5022 -0.082 -0.817 0.571 192 183 166 0
25.9937 70.2357 -19.5897 0.445 0.287 0.848 191 178 162 0
22.7145 84.3332 -18.2812 0.115 -0.799 0.590 174 158 145 0
22.9250 84.6533 -18.1496 0.141 -0.891 0.431 171 157 142 0
-12.8732 -2.4864 -46.5418 0.919 -0.024 0.393 225 212 194 0
-12.9236 -2.2690 -46.5218 0.924 -0.049 0.380 227 214 197 0
-6.8690 25.6566 -39.4460 0.194 -0.960 -0.202 136 116 107 0
-1.2663 25.5331 -37.4530 0.910 -0.276 0.309 109 77 80 0
0.2280 25.6327 -36.8982 0.759 -0.565 0.324 107 68 71 0
5.2252 28.3542 -34.6239 0.412 -0.891 0.192 109 44 56 0
7.6464 30.9386 -33.2999 0.964 0.145 0.224 109 46 54 0
8.3147 32.4782 -32.7896 0.772 -0.283 0.568 116 46 56 0
9.1112 32.8768 -32.4332 0.932 0.096 0.349 119 44 56 0
9.0090 33.1281 -32.4259 0.936 0.133 0.327 123 46 58 0
8.4021 37.0928 -31.9486 0.194 -0.144 0.970 119 48 59 0
9.2400 39.0219 -31.3089 0.974 0.038 0.221 111 43 56 0
9.8260 40.3666 -30.8623 0.377 -0.922 -0.089 99 33 45 0
13.1171 40.1539 -29.7162 0.846 -0.533 -0.017 103 37 46 0
12.9608 40.4373 -29.7227 0.865 -0.124 0.487 96 31 39 0
12.5026 43.9661 -29.2684 0.843 -0.394 0.366 83 21 30 0
7.9521 50.7193 -29.7202 0.951 -0.092 0.295 67 14 20 0
10.3575 49.7868 -29.0188 0.807 0.189 0.559 67 15 20 0
9.6347 52.9968 -28.7156 0.487 0.102 0.868 59 28 29 0
0.4654 60.5935 -30.6802 0.763 0.247 0.598 110 89 82 0
-0.1123 61.1701 -30.7868 0.222 -0.900 0.375 118 98 91 0
-0.1100 61.4343 -30.7396 0.826 0.562 0.029 134 114 106 0
-0.4183 61.8684 -30.7743 0.827 0.562 0.021 168 149 139 0
-0.7815 62.3343 -30.8232 0.843 0.537 0.007 200 183 169 0
-1.0442 62.7468 -30.8453 0.843 0.537 0.007 201 187 171 0
2.1499 61.2505 -29.9592 0.520 -0.751 0.408 200 189 172 0
1.1588 62.5917 -30.0803 0.860 0.487 -0.153 204 193 174 0
0.8068 63.3207 -30.0790 0.868 0.469 0.165 205 193 176 0
1.7506 63.5823 -29.6937 0.760 -0.598 -0.256 208 197 181 0
1.7466 63.8499 -29.6482 0.765 -0.598 -0.239 207 198 181 0
1.7921 64.0894 -29.5899 0.786 -0.577 -0.222 207 198 181 0
20.2271 59.5978 -23.7488 0.859 0.005 -0.512 205 194 180 0
13.1694 70.1281 -24.4395 0.730 0.489 -0.477 201 188 175 0
13.5423 70.1217 -24.3065 0.733 0.519 -0.440 200 188 175 0
15.0103 73.6498 -23.1597 0.049 -0.775 0.630 190 181 163 0
26.0289 70.5347 -19.7440 0.556 0.223 0.801 194 181 165 0
25.8205 71.1722 -19.7071 0.541 0.150 0.828 189 176 160 0
6.4964 105.4849 -20.6368 0.487 0.333 0.808 169 151 137 0
28.7355 85.0211 -16.2296 0.068 -0.415 0.907 166 150 136 0
29.1656 84.8430 -16.1062 0.085 -0.451 0.888 166 150 134 0
29.2233 85.0336 -16.0520 0.103 -0.566 0.818 162 148 132 0
0.2145 -8.3794 -43.0933 0.980 -0.161 -0.119 233 216 203 0
-12.2932 -2.6687 -46.6170 0.991 0.010 0.132 225 211 194 0
-12.3001 -2.4523 -46.5817 0.991 0.010 0.132 224 211 194 0
-1.2424 25.5805 -37.6829 0.887 -0.305 0.347 109 76 79 0
8.8933 31.9158 -32.9108 0.636 -0.702 0.321 112 44 53 0
9.1550 32.0502 -32.7927 0.715 -0.682 0.153 115 45 55 0
8.9977 32.3174 -32.8029 0.809 -0.358 0.466 114 44 54 0
11.6682 34.2428 -31.5007 0.597 0.031 0.801 116 42 54 0
11.6432 34.4668 -31.4706 0.486 0.163 0.858 118 43 54 0
11.5092 34.7293 -31.4732 0.487 0.161 0.858 121 44 56 0
2.7622 41.0886 -33.5238 0.797 0.449 -0.403 111 43 56 0
13.0829 40.2313 -29.9423 0.880 -0.283 0.382 97 30 39 0
12.9970 43.1444 -29.4640 0.664 -0.322 0.675 82 16 26 0
13.5211 43.3604 -29.2368 0.597 -0.207 0.775 81 18 27 0
12.0418 44.2372 -29.6184 0.887 -0.325 0.328 80 18 30 0
13.2002 44.3961 -29.1718 0.893 -0.137 -0.429 79 16 26 0
11.5407 46.7414 -29.3617 0.621 -0.445 0.645 78 16 28 0
-0.0591 60.9631 -31.0692 0.285 -0.892 0.350 113 90 85 0
-0.1811 61.5605 -31.0089 0.846 0.533 0.001 138 118 111 0
-0.5220 62.0130 -31.0530 0.852 0.524 -0.009 176 157 147 0
-0.8645 62.4683 -31.0972 0.843 0.537 0.007 198 181 167 0
-1.1279 62.8819 -31.1201 0.843 0.537 0.007 198 186 169 0
1.1363 62.9581 -30.2882 0.808 -0.575 -0.133 204 193 174 0
2.1814 63.4254 -29.8287 0.755 -0.655 0.042 208 196 180 0
1.8905 63.8569 -29.8584 0.745 -0.618 -0.250 207 198 181 0
2.0810 64.0127 -29.7623 0.990 -0.125 -0.070 205 197 180 0
6.3565 64.1174 -28.1982 0.943 0.243 0.227 207 199 181 0
22.3770 54.7312 -24.0471 0.148 0.460 0.876 207 198 181 0
19.8378 60.3925 -23.9754 0.898 0.007 -0.439 204 194 180 0
14.1470 68.2820 -24.6535 0.998 0.068 -0.005 201 189 177 0
14.1293 68.5451 -24.6139 0.998 0.068 -0.005 199 187 175 0
12.0322 72.0493 -24.7595 0.727 0.473 -0.498 199 187 174 0
-1.7589 92.2921 -26.2066 0.603 -0.112 0.789 191 178 162 0
-1.7331 92.5776 -26.1473 0.600 -0.107 0.793 191 178 162 0
23.2794 84.5450 -18.5085 0.329 -0.731 0.598 171 158 142 0
25.9104 82.6055 -17.8964 0.467 0.122 0.876 171 158 142 0
25.3672 83.6161 -17.9161 0.542 -0.468 0.698 170 155 142 0
21.8005 88.0135 -18.4368 0.461 -0.513 -0.724 169 153 140 0
29.9601 84.4093 -16.1169 0.099 -0.451 0.887 163 149 133 0
-12.9412 -3.2915 -47.2132 0.084 0.023 0.996 227 215 193 0
-11.5215 -3.0630 -46.6574 0.009 -0.917 0.399 227 215 193 0
-1.1143 25.6036 -37.8794 0.909 -0.271 0.317 110 77 79 0
0.2333 25.9623 -37.3271 0.705 -0.016 0.709 107 66 68 0
2.8768 25.5470 -36.4385 0.816 -0.148 0.559 103 61 63 0
5.1948 28.2511 -35.1248 0.309 -0.730 0.610 112 41 55 0
5.8572 28.2895 -34.8773 0.948 0.057 0.314 110 42 55 0
6.2840 31.4639 -34.1690 0.421 -0.903 -0.087 105 43 48 0
8.3904 31.4767 -33.4011 0.553 -0.529 0.644 109 47 53 0
9.1134 32.3373 -32.9884 0.809 -0.358 0.466 109 42 50 0
11.3452 33.7656 -31.9282 0.901 -0.374 -0.219 119 42 55 0
13.1698 40.2593 -30.1335 0.877 -0.278 0.393 97 29 40 0
13.1350 40.4933 -30.1054 0.862 -0.123 0.492 94 26 37 0
12.3525 43.2676 -29.9064 0.927 -0.214 0.309 83 17 27 0
12.5905 43.3883 -29.7989 0.700 -0.595 0.395 82 16 26 0
13.9858 43.8881 -29.2046 0.822 -0.095 0.561 79 17 28 0
13.2399 44.4459 -29.3786 0.986 0.116 0.116 79 16 26 0
10.6722 48.6102 -29.5863 0.871 -0.100 0.481 69 12 22 0
10.7632 48.8000 -29.5202 0.880 -0.334 0.338 68 12 22 0
11.1355 48.8540 -29.3755 0.939 -0.344 -0.021 68 13 22 0
10.0822 49.5972 -29.6288 0.589 -0.071 0.805 67 13 20 0
0.4922 60.7521 -31.1712 0.451 -0.861 0.236 115 91 87 0
0.6595 60.9257 -31.0801 0.414 -0.871 0.263 122 98 95 0
0.8868 61.0661 -30.9730 0.414 -0.871 0.263 139 118 112 0
1.3332 61.0859 -30.8073 0.255 -0.903 0.345 184 165 155 0
1.6325 61.1848 -30.6813 0.230 -0.912 0.340 196 180 166 0
2.4425 61.2622 -30.3734 0.516 -0.716 0.470 198 186 169 0
0.6549 63.0513 -30.7114 0.788 -0.615 -0.036 202 193 174 0
1.7994 63.7332 -30.1766 0.768 -0.577 -0.278 207 195 180 0
-4.8847 68.9695 -31.6939 0.984 0.164 0.070 207 200 182 0
14.0016 68.7258 -24.8711 0.996 -0.026 -0.090 201 189 178 0
13.2452 70.0094 -24.9224 0.812 -0.364 -0.456 200 186 175 0
12.2126 70.9860 -25.1276 0.727 0.427 -0.537 198 186 174 0
10.9606 72.9058 -25.2482 0.747 0.509 -0.428 198 186 174 0
18.7841 68.0879 -23.2438 0.265 -0.347 0.900 199 187 173 0
16.6608 75.1528 -22.7847 0.429 -0.890 0.152 190 178 162 0
-1.4626 92.1771 -26.4062 0.600 -0.107 0.793 191 176 161 0
-1.7177 92.6869 -26.4101 0.729 -0.017 0.684 191 176 161 0
10.7842 85.4433 -23.1278 0.304 0.175 0.936 187 174 158 0
9.9950 86.3752 -23.2523 0.432 0.341 0.835 187 175 159 0
8.6802 88.3172 -23.3919 0.301 0.265 0.916 189 175 159 0
11.4589 86.8257 -22.6417 0.108 -0.372 0.922 185 172 155 0
19.5446 86.7894 -19.7089 0.777 0.630 0.006 175 161 144 0
22.2391 85.1014 -19.0235 0.451 -0.787 0.421 173 160 144 0
33.0453 80.0176 -15.9812 0.740 0.406 0.537 169 151 139 0
-16.4441 -3.7384 -48.8244 -0.218 -0.427 0.878 229 217 197 0
1.5673 24.8042 -37.2854 0.788 -0.330 0.520 118 87 87 0
1.3059 25.0877 -37.3317 0.550 -0.507 0.664 113 79 81 0
2.9193 25.5888 -36.6551 0.796 -0.112 0.595 106 62 65 0
4.8597 27.5167 -35.6111 0.587 -0.490 0.645 118 56 64 0
4.9549 27.7109 -35.5426 0.964 0.162 0.211 113 49 58 0
4.7823 28.1970 -35.5213 0.521 -0.791 -0.322 106 38 49 0
5.5823 28.1997 -35.2285 0.838 0.173 0.517 108 38 50 0
5.8398 28.3481 -35.1085 0.953 0.111 0.282 108 40 52 0
-0.1979 32.7888 -36.5440 0.609 -0.106 -0.786 107 44 52 0
6.1136 31.5724 -34.4486 0.434 -0.885 0.166 105 42 50 0
8.6931 31.2220 -33.5668 0.754 -0.638 0.158 107 43 51 0
9.1660 32.3774 -33.1933 0.741 -0.292 0.604 109 41 49 0
10.7312 33.3830 -32.4466 0.791 -0.607 0.074 121 42 53 0
6.8500 40.8207 -32.5735 0.982 0.136 -0.131 100 34 45 0
12.4802 43.2788 -30.0890 0.632 -0.630 0.451 84 18 27 0
12.5994 43.4512 -30.0155 0.632 -0.630 0.451 82 17 26 0
9.7909 46.7630 -30.4668 -0.029 -0.981 0.190 76 14 24 0
11.3085 48.3781 -29.6317 0.978 -0.102 0.181 67 12 21 0
11.4267 52.0663 -28.9480 0.293 -0.459 0.839 62 29 36 0
9.2245 53.4397 -29.5144 0.646 -0.203 0.735 62 31 38 0
9.0607 53.7663 -29.5175 0.853 0.383 0.353 63 32 39 0
9.1359 53.9694 -29.4548 0.638 0.756 0.144 64 35 40 0
6.6530 56.7547 -29.8785 0.849 0.529 0.010 85 61 61 0
2.7365 59.6243 -30.8116 0.827 0.550 0.114 116 92 90 0
0.9954 60.8300 -31.2385 0.474 -0.867 0.154 122 98 95 0
1.2194 60.9716 -31.1320 0.474 -0.867 0.154 141 118 113 0
1.5958 61.0289 -30.9845 0.286 -0.897 0.336 188 169 160 0
1.8808 61.1351 -30.8619 0.288 -0.903 0.318 196 179 165 0
-2.7845 67.2818 -31.4995 0.684 0.714 -0.148 207 197 181 0
13.2230 69.8646 -25.2009 0.923 -0.276 -0.269 201 188 177 0
12.5560 72.3881 -25.0064 0.782 -0.424 0.458 198 186 173 0
16.1555 75.3862 -23.1703 0.340 -0.893 0.295 190 178 163 0
16.5227 75.3593 -23.0408 0.305 -0.898 0.318 190 178 163 0
16.7317 75.4534 -22.9481 0.481 -0.832 0.276 191 179 164 0
21.3024 72.8885 -21.7230 0.621 -0.774 -0.124 189 177 163 0
-1.5182 92.6490 -26.6317 0.677 -0.012 0.736 189 176 160 0
7.7407 89.2199 -23.8434 -0.131 -0.304 0.944 188 172 158 0
-13.8715 -3.4554 -48.0905 -0.222 -0.421 0.880 229 217 195 0
-11.1216 -3.2114 -47.0378 -0.201 -0.391 0.898 228 216 195 0
-8.7083 24.6101 -41.3363 0.986 -0.167 -0.009 230 221 208 0
5.0110 27.7496 -35.7521 0.919 -0.123 0.374 123 60 66 0
6.3229 31.5656 -34.6097 0.650 -0.190 0.735 107 42 51 0
9.3130 32.3872 -33.3689 0.741 -0.292 0.604 107 38 46 0
9.9263 32.6235 -33.1026 0.838 -0.053 0.543 110 37 48 0
10.7815 33.4237 -32.6499 0.791 -0.607 0.074 122 43 54 0
9.8868 34.8164 -32.7377 0.703 -0.339 0.625 118 42 54 0
12.8733 37.0091 -31.2608 0.770 -0.236 0.593 110 43 56 0
13.7273 37.5496 -30.8535 0.609 -0.437 0.662 102 38 52 0
11.9956 38.6550 -31.2985 0.536 -0.829 0.160 101 36 49 0
13.1888 40.5989 -30.5237 0.796 0.000 0.606 90 23 35 0
12.4526 43.5823 -30.2779 0.635 -0.608 0.477 82 18 26 0
10.4261 46.7750 -30.4699 -0.063 -0.992 -0.105 74 12 23 0
10.4157 49.5822 -29.9879 0.591 -0.043 0.806 68 19 24 0
8.9966 53.6352 -29.8079 0.715 -0.132 0.687 62 31 38 0
9.0693 54.0823 -29.7038 0.707 0.679 0.198 64 35 40 0
4.3896 58.0474 -30.7371 0.826 0.544 0.147 84 59 59 0
2.2941 59.9492 -31.1779 0.857 0.506 0.102 117 93 92 0
2.0698 60.3321 -31.1940 0.857 0.506 0.102 124 100 97 0
1.4588 60.9276 -31.3154 0.483 -0.874 0.059 145 122 116 0
1.8103 60.9981 -31.1741 0.328 -0.924 0.198 193 174 164 0
2.1746 61.0601 -31.0295 0.257 -0.920 0.297 195 177 164 0
3.9976 62.6506 -30.0845 0.965 -0.185 0.188 206 193 177 0
-1.2235 65.9214 -31.4368 0.726 0.678 -0.113 206 193 177 0
13.1224 71.8225 -25.1445 0.405 -0.842 -0.356 198 186 173 0
12.6217 72.4383 -25.2219 0.807 -0.402 0.432 198 185 171 0
19.8665 67.7350 -23.3739 0.453 -0.401 0.796 197 184 168 0
15.9573 75.1248 -23.5313 0.355 -0.748 0.562 192 178 165 0
15.9655 75.3755 -23.4849 0.323 -0.701 0.636 191 177 164 0
16.9094 75.6715 -23.0869 0.365 -0.895 0.257 190 177 165 0
11.9632 101.5579 -20.4243 0.805 0.517 0.291 168 152 137 0
29.5077 85.4397 -16.7675 0.283 -0.866 -0.412 168 147 133 0
-10.1913 -3.1717 -46.9378 0.103 0.011 0.995 226 215 195 0
2.3720 26.2712 -37.2190 0.901 0.338 0.270 104 56 66 0
2.5451 26.4506 -37.1241 0.938 0.298 0.175 101 51 62 0
2.5199 26.6795 -37.0939 0.951 0.308 0.020 102 51 60 0
1.7888 27.0876 -37.2936 0.907 0.418 -0.045 105 51 60 0
-10.2649 34.3974 -40.4854 -0.193 -0.413 0.890 109 46 57 0
6.4047 31.5975 -34.8107 0.653 -0.312 0.690 106 39 50 0
