ply
format ascii 1.0
element vertex 842
property float x
property float y
property float z
property float nx
property float ny
property float nz
property uchar diffuse_red
property uchar diffuse_green
property uchar diffuse_blue
property uchar class
end_header
31.0613 74.8057 -17.3338 0.797 0.544 0.262 177 163 152 0
24.3473 81.9545 -18.4563 0.269 -0.940 0.211 179 164 151 0
34.0529 79.8174 -15.4336 0.978 0.100 0.182 164 151 131 0
31.4160 82.8235 -15.8405 0.329 -0.525 0.785 163 150 133 0
28.7650 85.8607 -16.2472 0.900 -0.385 -0.207 162 149 133 0
28.9045 85.9741 -16.1791 0.789 -0.537 -0.297 164 148 133 0
29.0736 86.0557 -16.1061 0.744 -0.576 -0.340 164 147 133 0
29.1321 86.2540 -16.0518 0.776 -0.547 -0.313 105 95 87 0
29.2425 86.3971 -15.9888 0.780 -0.539 -0.317 50 51 50 0
29.3992 86.4906 -15.9182 0.772 -0.559 -0.302 246 247 245 0
29.5197 86.6223 -15.8536 0.772 -0.559 -0.302 254 255 255 0
0.3937 -8.4439 -42.4767 0.916 -0.298 -0.269 230 216 196 0
-13.9311 -2.6530 -46.5189 0.263 -0.950 -0.165 227 215 193 0
-13.0041 -2.4584 -46.1605 0.263 -0.950 -0.165 228 215 192 0
-15.3939 26.9548 -41.9944 -0.072 -0.980 -0.187 226 213 199 0
-8.4423 25.7150 -39.7655 0.386 -0.866 -0.317 154 131 123 0
-7.9202 25.8226 -39.5639 0.388 -0.860 -0.331 144 118 112 0
-7.1793 25.8726 -39.2954 0.321 -0.897 -0.303 138 110 106 0
-6.5568 25.9505 -39.0637 0.313 -0.902 -0.297 133 105 101 0
0.6472 26.7923 -36.3920 0.799 -0.420 -0.430 99 48 55 0
7.5122 30.9187 -33.2804 0.985 -0.073 -0.159 112 44 55 0
10.4330 31.8720 -32.0931 0.309 -0.886 0.347 117 46 55 0
13.3395 39.0203 -29.8567 0.604 -0.782 0.156 96 31 39 0
13.9545 39.4115 -29.5743 0.609 -0.648 0.457 104 39 45 0
14.0257 39.5999 -29.5172 0.857 -0.483 -0.179 105 40 47 0
14.0395 39.8139 -29.4760 0.989 -0.148 -0.002 95 30 38 0
11.3647 47.2132 -29.1557 0.714 -0.291 0.637 78 17 28 0
11.2777 47.4914 -29.1389 0.865 -0.413 0.285 74 15 25 0
1.1154 61.8533 -30.2618 0.207 -0.822 0.530 204 193 173 0
-0.8970 63.3096 -30.7203 0.944 0.091 0.316 204 193 174 0
-1.2391 63.7865 -30.7592 0.843 -0.292 -0.451 206 195 178 0
-0.9106 63.8669 -30.6303 0.831 -0.447 -0.331 207 195 179 0
1.3879 63.0403 -29.9642 0.442 -0.812 -0.382 209 197 181 0
3.0811 62.5590 -29.4518 0.508 -0.785 -0.355 211 199 184 0
3.3857 62.6415 -29.3309 0.630 -0.766 -0.128 212 200 186 0
3.8965 62.5974 -29.1591 0.581 -0.709 -0.400 212 200 187 0
9.6169 89.3141 -22.6054 0.229 -0.972 0.059 184 170 158 0
30.6613 75.5281 -17.5652 0.801 0.539 0.261 177 163 150 0
21.5629 89.0893 -18.4509 0.810 0.470 -0.351 171 158 141 0
27.0898 86.4139 -16.9664 -0.136 -0.207 0.969 170 154 138 0
34.0839 79.8913 -15.6215 0.956 0.134 0.263 167 151 133 0
28.7546 85.9855 -16.4550 0.904 -0.378 -0.201 165 148 132 0
28.9047 86.0879 -16.3848 0.789 -0.537 -0.297 165 148 133 0
29.0685 86.1754 -16.3125 0.732 -0.585 -0.349 166 147 133 0
29.1241 86.3769 -16.2587 0.784 -0.538 -0.310 105 95 87 0
29.2423 86.5119 -16.1942 0.784 -0.538 -0.310 51 51 50 0
29.3970 86.6077 -16.1236 0.773 -0.554 -0.310 247 247 245 0
29.4942 86.7645 -16.0628 0.795 -0.521 -0.310 254 255 255 0
-11.9451 -2.2371 -45.9986 0.260 -0.954 -0.150 226 212 187 0
-11.2829 -2.0414 -45.7318 0.253 -0.952 -0.172 228 215 189 0
-8.4882 25.7821 -40.0290 0.394 -0.859 -0.327 155 132 124 0
-7.9689 25.8904 -39.8274 0.388 -0.848 -0.360 142 115 110 0
-7.2346 25.9421 -39.5595 0.321 -0.897 -0.303 135 107 103 0
-4.8041 25.7885 -38.7278 0.404 -0.815 -0.414 125 97 93 0
-4.3215 25.8964 -38.5392 0.412 -0.814 -0.409 118 88 84 0
0.0492 26.3339 -36.9226 0.170 -0.985 0.020 101 54 60 0
-2.7556 27.3368 -37.7424 0.813 -0.281 -0.510 99 51 57 0
1.1171 27.1659 -36.4047 0.384 -0.853 -0.354 100 47 54 0
1.5168 32.2988 -35.3936 0.750 -0.124 -0.650 110 44 54 0
5.2786 31.7275 -34.1629 -0.204 -0.885 0.418 111 43 54 0
11.8492 34.0070 -31.4578 0.864 -0.464 0.196 119 42 55 0
10.8845 36.1315 -31.4380 0.481 0.437 0.760 113 48 56 0
7.5281 38.1481 -32.2807 0.349 0.783 0.514 113 46 56 0
13.5888 38.9752 -30.0017 0.988 -0.119 0.101 94 27 36 0
13.6902 39.1510 -29.9361 0.696 -0.704 0.143 98 28 39 0
14.0903 39.4151 -29.7501 0.609 -0.648 0.457 95 29 36 0
14.1092 39.6267 -29.7076 0.824 -0.402 0.399 96 31 38 0
11.4339 47.4843 -29.3197 0.887 -0.372 0.273 70 12 25 0
7.8720 56.2012 -29.0990 0.517 -0.780 0.351 98 74 73 0
1.3716 61.7914 -30.4453 0.213 -0.816 0.537 203 192 171 0
-1.0711 63.5030 -31.0172 0.739 0.210 0.640 203 192 172 0
-1.1053 63.7984 -30.9792 0.821 -0.557 -0.126 205 194 175 0
1.5726 63.5605 -30.0745 0.561 -0.779 -0.280 210 198 182 0
3.5263 62.9121 -29.4950 0.552 -0.731 -0.400 212 200 186 0
3.6334 63.1137 -29.4230 0.408 -0.904 0.127 213 201 187 0
22.9575 57.5932 -23.5394 0.376 0.202 0.904 205 198 180 0
10.2943 77.1937 -24.6856 0.636 0.217 0.740 197 181 168 0
9.9455 77.7441 -24.7154 0.284 0.237 0.929 196 182 168 0
4.5074 87.3309 -25.0094 0.301 -0.905 0.300 188 179 164 0
32.2166 70.1435 -18.1445 0.795 0.013 -0.607 183 169 158 0
32.3784 70.2293 -18.0728 0.632 -0.592 -0.500 182 168 159 0
32.2579 71.0387 -17.9782 0.617 0.640 0.457 182 168 155 0
30.8388 72.5778 -18.2181 0.617 0.640 0.457 181 167 156 0
23.4989 83.2510 -18.9990 0.137 -0.990 -0.016 177 160 150 0
21.0255 90.5820 -18.6291 0.855 0.315 0.411 170 154 138 0
34.1051 79.9757 -15.8113 0.977 0.105 0.183 169 151 135 0
28.7517 86.1027 -16.6619 0.903 -0.383 -0.193 167 148 133 0
28.8957 86.2117 -16.5926 0.781 -0.553 -0.289 168 147 133 0
29.0492 86.3103 -16.5217 0.730 -0.597 -0.332 167 146 132 0
29.1264 86.4892 -16.4641 0.790 -0.535 -0.299 107 94 87 0
29.2432 86.6258 -16.3997 0.790 -0.535 -0.299 51 50 50 0
29.3761 86.7451 -16.3327 0.785 -0.529 -0.322 246 246 245 0
29.5272 86.8443 -16.2625 0.793 -0.528 -0.303 254 255 255 0
-13.2130 -3.0326 -46.8306 0.815 -0.303 0.495 227 215 192 0
-12.0304 -2.2021 -46.2707 0.154 -0.988 -0.026 228 214 188 0
-8.0390 25.9638 -40.0980 0.389 -0.863 -0.323 144 117 113 0
-7.2245 25.9950 -39.8038 0.301 -0.915 -0.268 138 108 106 0
-3.2072 25.6597 -38.4349 0.471 -0.823 -0.318 118 87 87 0
-0.2153 25.3282 -37.4293 0.361 -0.674 0.644 110 74 79 0
0.2890 26.7751 -37.0060 0.272 -0.862 0.429 103 50 57 0
6.0421 30.1940 -34.3874 0.749 -0.349 -0.563 110 49 55 0
2.3021 32.0982 -35.3928 0.565 -0.270 -0.779 106 40 50 0
2.0061 32.4269 -35.4424 0.317 -0.897 -0.307 106 40 50 0
10.4901 32.6165 -32.4000 0.791 -0.493 0.363 124 48 60 0
10.6039 32.7926 -32.3299 0.788 -0.487 0.377 131 55 67 0
9.4198 35.4346 -32.3039 0.025 0.039 0.999 119 43 55 0
14.7133 35.3116 -30.4464 0.974 -0.227 0.005 113 43 55 0
13.6281 39.0214 -30.2050 0.985 -0.014 0.174 97 27 38 0
14.0633 39.4907 -29.9713 0.810 -0.548 0.209 96 29 38 0
14.0117 39.7339 -29.9486 0.977 -0.211 -0.019 94 28 37 0
13.9472 39.9832 -29.9293 0.993 -0.111 0.029 92 26 36 0
13.4043 40.6703 -30.0060 0.871 0.051 0.489 90 25 33 0
12.3734 46.6146 -29.3679 0.954 -0.296 0.052 73 12 24 0
3.9720 57.9954 -30.4270 0.984 0.169 0.060 83 58 60 0
7.9067 56.0119 -29.3658 0.698 -0.702 0.141 90 65 68 0
-2.3660 63.5264 -31.7418 0.513 0.823 0.243 201 187 174 0
1.4457 61.8365 -30.6747 0.248 -0.817 0.520 204 193 171 0
-1.0884 63.8796 -31.2288 0.821 -0.557 -0.126 205 194 174 0
-0.9594 64.0785 -31.1495 0.828 -0.546 -0.130 206 195 176 0
0.9453 64.5768 -30.3895 0.819 -0.413 -0.399 211 199 184 0
3.8812 63.0516 -29.6053 0.359 -0.924 0.134 212 200 186 0
13.4647 72.4146 -24.6237 0.575 -0.655 -0.490 201 187 174 0
10.3898 77.2233 -24.9027 0.598 0.276 0.752 198 181 171 0
31.7049 70.9366 -18.4013 0.725 -0.307 -0.616 183 169 158 0
31.9279 71.4373 -18.2376 0.761 -0.431 0.484 183 169 158 0
31.0711 72.4614 -18.3687 0.617 0.640 0.457 182 168 157 0
9.7012 93.0346 -22.4769 0.754 -0.298 -0.585 181 167 156 0
7.5251 96.8961 -22.5969 0.754 -0.387 0.531 178 165 149 0
30.8055 75.3504 -17.9751 0.825 0.562 0.056 176 163 148 0
26.2649 80.9540 -18.6399 0.084 -0.651 0.754 176 160 147 0
21.1711 90.2757 -18.8731 0.854 0.353 0.383 173 157 142 0
21.1174 90.6087 -18.8359 0.861 0.310 0.404 172 155 141 0
29.0845 84.0541 -17.1159 -0.089 -0.188 0.978 170 152 137 0
32.4463 81.3236 -16.3842 0.402 -0.894 -0.200 170 151 134 0
28.7735 86.1942 -16.8648 0.913 -0.354 -0.200 168 148 133 0
28.9155 86.3053 -16.7957 0.800 -0.514 -0.310 168 146 132 0
29.1263 86.6042 -16.6704 0.790 -0.535 -0.299 108 94 86 0
29.2432 86.7410 -16.6059 0.790 -0.535 -0.299 51 50 50 0
29.4146 86.8191 -16.5318 0.790 -0.529 -0.310 247 247 245 0
29.4924 86.9970 -16.4742 0.788 -0.534 -0.307 254 255 255 0
29.4613 87.2920 -16.4354 0.955 -0.216 -0.203 254 254 255 0
-3.7613 25.6270 -38.8873 0.486 -0.850 -0.206 124 93 94 0
-2.9348 25.6427 -38.5898 0.636 -0.741 -0.217 120 89 90 0
-2.7421 25.8228 -38.4908 0.386 -0.902 -0.192 113 79 83 0
0.3523 25.4558 -37.4486 0.230 -0.735 0.637 108 70 73 0
4.7000 28.2348 -35.4300 0.641 -0.705 0.302 106 41 49 0
5.9103 29.1868 -34.8381 0.472 0.111 0.875 109 46 54 0
5.9862 29.3835 -34.7779 0.387 -0.861 0.329 110 46 54 0
6.8579 31.3104 -34.1428 0.189 -0.946 0.263 107 38 49 0
7.2178 31.4099 -33.9977 0.720 -0.680 -0.138 104 35 45 0
12.6677 36.1981 -31.2479 0.100 -0.752 0.652 110 40 54 0
10.4104 38.6791 -31.6358 0.522 -0.303 0.797 104 39 51 0
13.9040 40.0669 -30.1560 0.977 -0.194 -0.087 90 24 35 0
13.4628 40.7090 -30.2054 0.855 0.055 0.516 88 22 32 0
12.3891 46.9101 -29.5452 0.682 0.038 0.731 71 12 24 0
9.6455 52.1562 -29.6414 0.845 0.300 0.442 67 27 32 0
6.7540 55.7382 -30.0704 0.813 0.575 -0.091 70 45 45 0
3.3720 58.4210 -30.8255 0.778 0.621 0.091 86 62 63 0
3.0782 58.8505 -30.8581 0.964 0.263 -0.041 92 68 69 0
-2.5145 63.7044 -32.0367 0.518 0.824 0.229 201 187 173 0
-1.1865 64.0292 -31.5083 0.767 -0.614 -0.188 205 194 174 0
-0.9291 64.1519 -31.3958 0.821 -0.557 -0.126 205 194 175 0
13.4787 72.2382 -24.8955 0.904 -0.073 -0.421 201 187 174 0
11.4641 74.0392 -25.3112 0.961 -0.276 -0.016 201 187 174 0
11.9055 90.5213 -22.3810 0.618 0.173 -0.767 181 167 155 0
9.5606 95.3983 -22.3970 0.780 -0.426 0.459 176 163 147 0
30.7868 82.6573 -16.9681 0.719 -0.092 0.689 171 153 138 0
34.0883 80.2070 -16.2025 0.994 0.032 0.104 169 151 135 0
27.4259 87.7316 -17.3134 0.841 -0.449 -0.300 167 149 133 0
28.9115 86.4244 -17.0033 0.800 -0.514 -0.310 166 146 131 0
29.0155 86.5756 -16.9408 0.655 -0.648 -0.389 167 145 130 0
29.1424 86.7021 -16.8742 0.762 -0.541 -0.355 108 95 87 0
29.2656 86.8323 -16.8084 0.762 -0.541 -0.355 50 50 51 0
29.3972 86.9532 -16.7411 0.824 -0.499 -0.268 247 247 245 0
29.4819 87.1239 -16.6821 0.817 -0.512 -0.264 254 255 255 0
29.6416 87.2138 -16.6101 0.781 -0.538 -0.317 254 254 255 0
0.2382 -8.1605 -43.3656 0.869 -0.432 -0.243 231 215 199 0
-10.9939 -3.8534 -46.6725 0.697 0.668 0.261 230 217 196 0
-8.0894 26.0881 -40.6129 0.325 -0.932 -0.162 142 116 114 0
-3.8170 25.6960 -39.1462 0.309 -0.951 -0.016 122 92 92 0
7.1970 31.0320 -34.3015 0.939 0.077 0.334 106 38 50 0
7.2157 31.4681 -34.2217 0.772 -0.631 -0.078 106 35 46 0
11.0353 33.1854 -32.5639 0.834 0.173 0.525 120 42 54 0
14.6620 35.6661 -30.8473 0.852 0.378 0.362 107 39 53 0
10.6890 38.6259 -31.7763 0.292 -0.447 0.845 104 39 52 0
7.6742 40.3542 -32.5681 0.774 0.383 0.504 102 39 52 0
7.0914 40.8345 -32.6966 0.811 0.292 0.507 99 37 49 0
11.0641 46.0127 -30.4039 0.425 -0.866 -0.264 77 14 27 0
12.8260 46.7599 -29.6467 0.949 -0.272 0.157 70 12 24 0
12.1173 47.5865 -29.7624 0.736 -0.122 0.666 68 14 22 0
3.3038 58.5448 -31.0871 0.778 0.621 0.091 84 60 60 0
-3.2718 64.5196 -32.4444 0.560 0.796 0.230 200 187 169 0
-1.4003 64.2481 -31.8186 0.748 -0.610 -0.260 204 193 174 0
-0.9390 64.2495 -31.6529 0.827 -0.547 -0.131 205 194 174 0
20.1616 59.2715 -24.9188 0.798 0.125 0.589 207 197 185 0
20.4934 59.2825 -24.7979 0.644 0.255 0.721 205 195 183 0
21.5105 64.0434 -23.6353 0.869 -0.492 -0.042 203 191 177 0
21.4397 64.3368 -23.6115 0.462 -0.886 0.045 203 191 177 0
11.3146 76.4308 -25.2164 0.878 0.476 0.057 197 183 172 0
10.7211 77.1718 -25.3051 0.855 0.517 0.046 195 182 170 0
9.9349 78.0684 -25.4368 0.656 0.405 0.637 194 180 169 0
3.9826 86.6211 -26.1385 0.643 -0.297 0.706 190 178 166 0
9.4468 93.8191 -22.9723 0.896 0.097 -0.433 180 166 154 0
9.5951 95.1888 -22.6895 0.799 -0.440 0.409 177 165 149 0
32.3061 81.6873 -16.8062 0.171 -0.979 0.108 169 152 136 0
29.1506 86.8088 -17.0798 0.659 -0.645 -0.387 108 96 88 0
29.2687 86.9446 -17.0147 0.740 -0.576 -0.347 50 50 51 0
29.3958 87.0703 -16.9480 0.789 -0.532 -0.307 247 247 245 0
29.5135 87.2059 -16.8831 0.790 -0.534 -0.301 254 255 255 0
-3.7453 26.8980 -39.1707 0.233 -0.617 0.752 106 65 67 0
-3.3370 27.0208 -39.0030 0.219 -0.642 0.735 108 64 69 0
6.4705 28.9010 -35.1524 0.836 -0.078 0.542 125 61 69 0
6.7277 31.4694 -34.6309 0.554 0.076 0.829 106 36 47 0
7.2588 31.5109 -34.4324 0.782 -0.617 -0.087 107 35 47 0
7.4926 31.6525 -34.3245 0.438 -0.848 -0.300 105 35 45 0
10.1480 32.6962 -33.1926 0.602 -0.550 0.580 111 38 48 0
14.2750 35.8838 -31.1723 0.902 0.420 -0.098 105 37 53 0
11.0865 38.5225 -31.8816 0.247 -0.590 0.769 104 37 52 0
7.5021 40.4932 -32.8451 0.051 -0.032 0.998 102 37 51 0
7.0418 40.9221 -32.9395 0.112 -0.081 0.990 99 34 48 0
13.6320 38.9895 -30.8857 0.666 -0.724 -0.177 93 28 40 0
13.8105 39.3526 -30.7607 0.980 -0.170 0.102 89 23 35 0
10.9841 48.2399 -30.2962 0.644 0.436 0.629 68 16 24 0
10.5942 52.5212 -29.7221 0.952 0.306 0.015 64 33 37 0
3.2354 58.6689 -31.3495 0.778 0.621 0.091 86 62 61 0
2.2737 61.6137 -31.2047 0.366 -0.879 0.304 200 187 169 0
3.8447 60.9491 -30.7491 0.902 0.151 0.404 202 189 172 0
24.5691 60.9417 -23.2769 0.949 0.150 -0.277 205 192 179 0
21.7639 63.9448 -23.7871 0.811 -0.585 -0.002 203 191 177 0
20.9022 64.8242 -23.9510 0.568 -0.813 0.130 201 189 176 0
21.7682 64.4231 -23.7057 0.849 -0.519 0.098 201 189 177 0
21.9883 64.5000 -23.6135 0.836 -0.548 -0.033 200 188 176 0
4.4522 86.3496 -26.2896 0.882 -0.086 0.463 190 178 166 0
9.2922 89.9054 -23.9507 0.731 -0.420 -0.537 186 174 158 0
9.7508 94.8645 -22.9574 0.760 -0.209 0.616 176 165 151 0
10.5562 94.4019 -22.7442 0.503 -0.458 0.733 177 165 150 0
10.7568 94.5114 -22.6536 0.579 -0.352 0.735 175 163 147 0
30.8268 82.3296 -17.4497 0.722 0.000 -0.692 170 154 139 0
32.3914 81.7072 -16.9894 0.212 -0.971 0.111 168 153 137 0
29.2520 87.0781 -17.2249 0.763 -0.560 -0.324 50 50 51 0
29.3976 87.1843 -17.1547 0.798 -0.531 -0.284 247 247 245 0
29.5197 87.3152 -17.0888 0.791 -0.531 -0.302 254 255 255 0
-1.7680 26.1873 -38.8240 0.812 -0.001 0.583 113 73 76 0
-2.3382 26.5721 -38.9667 0.722 -0.579 0.380 109 66 68 0
-2.2189 26.7710 -38.8904 0.722 -0.579 0.380 110 64 68 0
-2.4679 27.0711 -38.9307 0.592 -0.786 0.179 108 61 67 0
-2.3135 27.2607 -38.8432 0.597 -0.782 0.177 105 58 64 0
4.3774 27.3881 -36.3963 0.173 -0.885 0.432 103 42 51 0
6.6699 28.8935 -35.3148 0.846 -0.094 0.525 109 46 54 0
3.4890 31.9395 -35.9615 0.510 -0.856 -0.081 109 42 53 0
6.9376 31.0120 -34.8654 0.355 -0.212 0.911 109 41 53 0
7.1282 31.3911 -34.7333 0.442 0.107 0.891 106 35 48 0
7.5789 31.6805 -34.5218 0.638 -0.743 -0.202 106 34 46 0
10.1774 32.7437 -33.4029 0.638 -0.526 0.563 109 37 48 0
9.5693 33.1836 -33.5502 0.736 -0.661 0.147 112 39 50 0
11.3880 35.1359 -32.5662 0.249 -0.538 0.805 119 38 49 0
14.0900 36.0196 -31.4396 0.891 0.453 -0.036 107 37 55 0
12.5262 37.0975 -31.8273 0.167 -0.602 0.781 107 40 55 0
13.3616 39.1709 -31.1797 0.840 -0.512 -0.178 95 28 40 0
13.2767 39.4296 -31.1674 0.627 -0.776 -0.066 91 25 37 0
11.7191 43.7516 -31.0134 0.511 -0.842 -0.174 84 20 31 0
11.1844 48.2103 -30.4658 0.636 0.431 0.640 67 16 25 0
6.6696 56.0310 -30.8020 0.807 0.591 -0.024 70 48 45 0
5.1268 57.1585 -31.1739 0.718 0.693 0.062 76 55 52 0
3.6407 58.5229 -31.4857 0.761 0.646 0.060 87 65 62 0
3.7882 61.0703 -31.0086 0.962 0.139 0.235 201 188 172 0
21.1432 64.4925 -24.1476 0.527 -0.846 0.081 202 190 176 0
20.9859 64.8517 -24.1448 0.568 -0.813 0.130 200 188 174 0
21.8126 64.4790 -23.9071 0.853 -0.513 0.094 200 188 174 0
21.9498 64.6179 -23.8343 0.908 -0.399 0.130 200 188 174 0
12.7658 74.6875 -25.4894 0.378 -0.381 0.844 196 186 170 0
12.7453 75.5131 -25.3595 0.713 0.534 0.454 194 182 168 0
10.7441 77.6393 -25.7315 0.755 0.130 0.642 193 180 169 0
11.3464 77.4375 -25.5466 0.257 -0.438 0.862 193 179 168 0
5.3330 85.4417 -26.3957 0.979 0.140 0.152 189 178 166 0
5.3178 85.7502 -26.3499 0.964 0.093 0.249 188 178 166 0
28.5957 71.2539 -20.3213 0.838 0.544 -0.041 188 174 161 0
28.4036 71.6641 -20.3227 0.835 0.549 -0.037 187 173 160 0
9.9298 94.8205 -23.1695 0.810 -0.247 0.532 178 164 152 0
24.6829 82.6609 -19.8429 0.850 0.235 -0.471 175 159 149 0
30.7964 83.9980 -17.4041 0.673 0.016 0.740 167 153 137 0
30.8933 84.1514 -17.3435 0.668 0.133 0.732 165 152 136 0
29.2346 87.2127 -17.4357 0.749 -0.568 -0.340 50 49 50 0
29.3565 87.3446 -17.3696 0.754 -0.566 -0.334 247 247 245 0
29.5101 87.4418 -17.2978 0.789 -0.532 -0.307 254 255 255 0
-1.4472 26.1554 -38.9603 0.932 -0.313 0.186 114 74 77 0
-1.8055 26.7132 -38.9985 0.935 -0.298 0.192 112 64 68 0
-2.1437 27.0374 -39.0681 0.704 -0.708 0.059 107 60 65 0
-2.0009 27.2296 -38.9841 0.874 -0.485 0.037 107 58 65 0
7.0868 31.0191 -35.0441 0.366 -0.274 0.889 111 41 53 0
9.6985 31.8804 -33.9495 0.595 -0.409 0.692 108 34 47 0
12.0117 33.4311 -32.8495 0.585 0.148 0.798 118 38 50 0
11.3380 33.9017 -33.0171 0.549 -0.836 -0.008 119 39 51 0
14.0604 36.0922 -31.6620 0.846 0.533 -0.005 109 38 56 0
9.2118 39.6686 -32.8368 -0.136 -0.281 0.950 104 33 51 0
11.8187 43.7730 -31.2067 0.606 -0.785 -0.128 80 17 28 0
12.8781 47.1801 -30.2562 0.961 0.167 -0.221 67 14 23 0
11.3739 48.1861 -30.6378 0.636 0.431 0.640 67 16 26 0
12.2972 48.4150 -30.2634 0.726 0.687 0.038 62 16 23 0
5.0970 57.2589 -31.4227 0.693 0.715 0.090 76 56 54 0
3.5457 58.6624 -31.7557 0.768 0.639 0.039 87 66 63 0
4.9195 58.3958 -31.2991 0.608 0.778 0.159 107 87 81 0
-6.4174 66.6550 -34.0631 0.538 0.829 0.155 198 185 168 0
24.3804 61.2494 -23.7332 0.979 0.203 -0.016 203 191 178 0
21.8996 63.3010 -24.2976 0.411 -0.910 -0.059 202 190 177 0
22.0927 63.3988 -24.2110 0.412 -0.910 -0.055 201 188 177 0
22.4572 63.3694 -24.0830 0.419 -0.908 -0.020 202 190 179 0
22.6589 63.4590 -23.9947 0.325 -0.945 0.041 202 190 177 0
21.5765 64.5024 -24.2163 0.301 -0.897 0.323 201 189 175 0
21.5672 64.7513 -24.1785 0.946 -0.319 -0.058 200 188 174 0
21.8501 64.7818 -24.0703 0.930 -0.324 0.175 199 187 173 0
21.7308 65.1133 -24.0589 0.920 -0.383 0.086 199 188 173 0
16.1243 71.6500 -25.0196 0.407 0.352 0.843 196 184 170 0
11.9101 76.5466 -25.7444 0.365 -0.249 0.897 192 180 168 0
11.6505 77.0260 -25.7597 0.321 -0.335 0.886 193 181 168 0
7.0176 83.5851 -26.3618 0.845 -0.524 0.109 190 178 164 0
6.5676 84.2459 -26.4163 0.839 -0.543 -0.028 191 179 165 0
6.3161 84.7458 -26.4252 0.876 -0.395 0.275 189 179 164 0
6.4215 84.9521 -26.3526 0.811 -0.457 0.365 187 178 163 0
10.1729 94.7154 -23.3679 0.993 0.122 -0.003 178 164 153 0
10.2036 94.9882 -23.3116 0.963 0.265 -0.041 178 163 152 0
26.8910 79.8627 -19.7348 0.310 0.455 0.835 176 161 150 0
3.8752 105.2169 -23.9238 -0.219 -0.222 0.950 171 155 145 0
30.9397 82.6861 -17.7914 0.696 -0.378 -0.611 167 154 138 0
28.4395 86.0716 -18.1419 0.877 0.370 -0.307 168 154 138 0
28.8054 85.9490 -18.0288 0.828 0.468 -0.310 170 154 139 0
30.8749 84.0273 -17.5929 0.514 -0.156 0.843 167 153 138 0
31.1331 84.0100 -17.5017 0.612 0.107 0.784 165 152 136 0
29.2309 87.3329 -17.6445 0.749 -0.568 -0.340 50 50 50 0
29.3841 87.4312 -17.5724 0.798 -0.530 -0.288 247 247 245 0
29.4996 87.5697 -17.5074 0.798 -0.530 -0.288 254 255 255 0
-14.2697 26.6375 -43.8268 0.986 -0.129 -0.108 227 219 202 0
-16.8794 27.5382 -44.6345 -0.052 -0.978 -0.201 228 217 201 0
-1.6661 27.1922 -39.1171 0.923 -0.315 -0.220 106 59 65 0
1.6324 27.8553 -37.7990 0.713 -0.225 -0.664 101 43 50 0
3.9325 28.9697 -36.7723 0.900 0.264 -0.346 106 38 49 0
7.1237 28.6420 -35.6570 0.111 -0.674 0.731 108 43 56 0
7.5737 30.9126 -35.1175 0.735 -0.049 0.676 111 40 54 0
7.5587 31.8030 -34.9761 0.695 -0.706 -0.135 105 33 46 0
13.2990 39.3259 -31.6314 0.840 -0.521 -0.151 94 24 38 0
13.3052 39.5452 -31.5929 0.791 -0.569 -0.224 93 25 38 0
14.9437 41.0253 -30.7483 0.682 -0.731 0.031 84 18 28 0
12.8523 47.2653 -30.4851 0.984 0.070 -0.163 67 14 23 0
11.5934 48.1463 -30.8010 0.638 0.438 0.633 66 15 26 0
13.6899 47.9939 -30.0579 0.781 -0.221 0.585 62 17 22 0
1.7413 60.5827 -32.3590 0.748 0.663 -0.023 127 106 99 0
-0.5582 63.5611 -32.7101 0.928 0.301 0.220 199 186 169 0
-0.6862 63.9130 -32.6989 0.786 0.419 0.454 201 188 171 0
25.4345 60.3332 -23.7184 0.951 -0.310 0.013 203 191 179 0
20.0580 64.7407 -24.9612 0.444 -0.879 -0.172 202 190 179 0
21.3828 64.0097 -24.5964 0.562 -0.802 0.203 200 188 177 0
19.5431 65.6111 -25.0063 0.899 -0.216 -0.382 202 189 179 0
18.8285 66.3879 -25.1399 0.900 -0.163 -0.403 202 189 178 0
13.0873 71.1739 -26.4539 0.269 -0.379 0.885 201 189 175 0
16.9174 71.1329 -25.0572 0.494 0.505 0.708 195 184 170 0
16.1079 72.0212 -25.2073 0.186 -0.340 0.922 193 184 169 0
29.2093 63.8791 -21.7501 0.479 -0.397 0.783 192 179 166 0
7.4884 83.3114 -26.5028 0.980 -0.181 -0.079 192 179 165 0
6.5774 84.9371 -26.5683 0.839 -0.441 0.317 187 178 163 0
30.8986 83.0937 -17.9606 0.533 -0.835 -0.135 168 153 138 0
28.1743 86.4649 -18.4026 0.877 0.380 -0.295 168 153 138 0
28.5280 86.3559 -18.2910 0.812 0.426 -0.399 169 153 138 0
28.8980 86.2280 -18.1765 0.831 0.440 -0.340 168 152 139 0
31.4222 83.8159 -17.6496 0.499 0.037 0.866 166 150 135 0
29.2252 87.4554 -17.8541 0.754 -0.566 -0.334 50 51 50 0
29.3733 87.5595 -17.7827 0.780 -0.541 -0.314 246 246 244 0
29.4936 87.6929 -17.7166 0.803 -0.521 -0.290 254 255 255 0
4.0197 27.2127 -37.2683 0.586 0.017 0.810 101 44 51 0
-7.2219 34.2021 -40.2605 -0.113 -0.955 0.276 109 47 59 0
-5.6052 34.1728 -39.6698 0.307 -0.369 0.877 108 46 55 0
-6.2292 34.6244 -39.8255 0.263 -0.256 0.930 105 42 50 0
7.4338 30.7957 -35.4217 0.153 -0.743 0.651 110 41 53 0
8.1056 30.7905 -35.1751 0.892 0.328 0.311 109 39 51 0
6.4683 32.2371 -35.5405 0.814 0.562 0.145 104 33 46 0
7.5634 32.0814 -35.1627 0.386 -0.863 -0.327 104 34 45 0
13.2800 39.6205 -31.8178 0.798 -0.563 -0.215 105 37 50 0
14.7581 41.3986 -30.9811 0.383 -0.904 0.191 83 20 31 0
10.9916 43.3775 -32.0433 0.314 0.489 0.814 84 20 32 0
13.1960 47.1609 -30.6094 0.700 -0.689 -0.187 67 15 23 0
11.7044 48.1623 -30.9943 0.647 0.427 0.631 67 15 26 0
13.9444 47.9331 -30.2068 0.759 -0.205 0.618 63 18 23 0
0.1195 62.1561 -32.9618 0.637 0.770 0.038 174 157 144 0
-0.3185 62.6862 -33.0361 0.743 0.661 -0.102 194 179 164 0
-0.7316 63.2040 -33.1031 0.753 0.642 -0.145 194 181 165 0
-6.3482 67.0942 -34.5327 0.561 0.776 0.288 199 186 169 0
-0.2430 63.7402 -32.8350 0.770 0.479 0.422 200 187 171 0
-0.4625 64.7003 -32.7580 -0.008 -0.999 -0.049 203 192 174 0
-4.2625 75.7492 -32.3419 0.629 -0.028 0.777 209 197 183 0
25.5640 60.3229 -23.8902 0.999 0.020 -0.049 202 190 176 0
24.1159 61.6138 -24.2115 0.950 0.085 -0.302 202 190 178 0
13.2328 70.3720 -26.7810 0.708 0.002 0.706 201 189 175 0
12.8565 70.9147 -26.8304 0.692 0.425 0.583 201 188 175 0
13.5397 70.9333 -26.5757 0.109 -0.628 0.770 203 189 176 0
13.8982 70.9279 -26.4445 0.002 -0.687 0.727 202 188 175 0
14.8681 70.4606 -26.1640 0.480 -0.099 0.872 200 186 173 0
14.5866 70.9342 -26.1899 0.976 0.034 -0.216 199 185 172 0
14.7482 71.0736 -26.1075 1.000 0.006 0.025 198 184 172 0
23.5066 65.6326 -23.7754 0.174 0.424 0.889 196 184 172 0
8.4980 82.5944 -26.5163 0.937 -0.165 -0.307 192 178 165 0
9.3903 84.4425 -25.8839 0.443 0.631 0.637 190 178 164 0
8.6855 85.3292 -25.9978 0.373 0.557 0.742 189 177 163 0
10.5207 88.6923 -24.7690 0.095 0.048 0.994 189 175 162 0
9.6415 90.0709 -24.8663 0.087 0.047 0.995 186 172 159 0
32.6450 74.2952 -18.9854 0.179 0.356 0.917 179 162 152 0
30.4855 83.3810 -18.2876 0.560 -0.805 -0.197 168 155 139 0
29.2224 87.5752 -18.0635 0.754 -0.566 -0.334 50 51 50 0
29.3761 87.6732 -17.9908 0.772 -0.547 -0.323 247 247 245 0
29.4976 87.8055 -17.9243 0.772 -0.547 -0.323 254 255 255 0
-13.7639 26.3775 -44.2287 0.970 0.231 0.080 230 221 205 0
-14.0669 26.7032 -44.2876 0.921 0.298 0.251 230 220 202 0
6.0259 26.6795 -36.8509 0.242 -0.948 0.206 103 46 53 0
-5.7099 32.5496 -40.2359 0.295 -0.599 0.745 105 41 52 0
-5.7215 34.2738 -39.9579 -0.026 -0.896 0.442 108 45 54 0
5.0809 31.1902 -36.4624 0.918 0.091 0.386 103 38 48 0
7.9925 30.6654 -35.4702 0.218 -0.744 0.631 108 41 51 0
8.3039 30.7805 -35.3360 0.267 -0.718 0.643 106 38 49 0
8.4485 31.1710 -35.2185 0.228 -0.701 0.675 103 34 45 0
7.7323 32.0809 -35.3348 0.401 -0.890 0.216 102 34 45 0
11.9855 32.3185 -33.7209 0.606 -0.562 0.564 102 31 44 0
11.9187 33.2078 -33.6000 0.682 -0.558 0.473 115 36 47 0
10.9570 38.8960 -33.0250 0.015 -0.576 0.817 102 32 46 0
11.5795 42.9418 -32.1321 0.301 0.401 0.865 82 18 30 0
13.1033 47.2805 -30.8576 0.678 -0.713 -0.178 65 14 22 0
11.8615 48.1544 -31.1744 0.663 0.428 0.614 64 14 23 0
9.0321 50.5865 -31.8240 0.899 0.368 -0.239 61 18 23 0
9.5090 52.7756 -31.2890 0.974 0.099 -0.203 64 31 36 0
7.0475 55.8922 -31.6903 0.836 0.546 -0.057 72 47 47 0
-0.2267 62.4486 -33.3107 0.637 0.770 0.036 183 166 153 0
-0.6188 62.9531 -33.3733 0.743 0.661 -0.104 194 179 164 0
-1.1118 63.5194 -33.4631 0.746 0.641 -0.180 194 181 165 0
14.5769 71.0389 -26.4225 0.997 -0.066 0.032 199 184 171 0
14.6041 71.2805 -26.3728 0.993 0.042 0.111 198 183 171 0
10.9453 83.2392 -25.7700 0.357 0.505 0.785 188 176 164 0
9.2974 84.9240 -26.1044 0.357 0.505 0.785 188 176 164 0
13.9327 82.0975 -24.8507 -0.128 -0.229 0.965 188 176 162 0
11.6975 87.4661 -24.7995 0.024 0.026 0.999 186 174 160 0
19.8797 88.0561 -21.6729 0.205 0.378 0.903 176 160 147 0
15.6136 92.5108 -22.5235 0.172 0.337 0.926 177 161 148 0
26.0545 86.7770 -19.5957 0.041 -0.878 0.478 168 154 141 0
28.0867 87.3176 -18.7547 0.856 0.406 -0.319 167 154 138 0
29.2195 87.6952 -18.2734 0.754 -0.566 -0.334 50 50 49 0
29.3999 87.7645 -18.1952 0.781 -0.540 -0.314 247 247 245 0
29.5196 87.8989 -18.1289 0.781 -0.540 -0.314 254 255 255 0
-13.8200 26.6999 -44.4697 0.939 0.340 0.048 229 220 200 0
6.2797 26.6585 -36.9942 0.254 -0.901 0.351 103 46 52 0
-4.8882 32.1104 -40.2626 0.395 -0.483 0.781 103 39 49 0
-5.9786 34.1737 -40.3321 -0.032 -0.948 0.316 109 46 57 0
8.3949 30.8066 -35.5304 0.251 -0.643 0.724 104 38 48 0
8.4039 31.2435 -35.4559 0.095 -0.718 0.690 103 34 45 0
8.0682 32.2440 -35.4177 0.516 -0.804 0.294 103 33 44 0
12.0844 33.2043 -33.7660 0.689 -0.511 0.514 114 34 45 0
12.2770 33.3489 -33.6708 0.775 -0.614 0.153 115 33 45 0
12.2615 34.0055 -33.5695 0.590 -0.554 0.588 120 39 48 0
12.1575 37.3392 -33.0646 0.513 -0.732 0.449 106 35 51 0
12.7576 47.2970 -31.2175 0.649 -0.737 -0.188 65 14 21 0
16.4573 46.7564 -29.9284 0.312 -0.925 0.218 59 17 24 0
8.6823 53.0603 -31.7948 0.716 0.283 0.638 63 29 35 0
8.3495 54.2376 -31.7268 0.821 -0.006 0.571 67 37 37 0
6.9333 56.0388 -31.9603 0.836 0.546 -0.057 72 47 47 0
6.6126 56.4751 -32.0085 0.761 0.649 -0.011 75 53 52 0
4.8578 57.7308 -32.4570 0.722 0.691 0.008 80 60 57 0
3.5143 58.7596 -32.7893 0.803 0.584 -0.117 85 66 62 0
3.3250 59.1317 -32.7991 0.799 0.595 -0.091 88 67 64 0
-0.6470 62.7853 -33.6820 0.641 0.767 0.028 188 172 159 0
-1.0940 63.3237 -33.7606 0.711 0.703 0.025 193 178 163 0
1.1981 62.7886 -32.9946 0.325 -0.306 0.895 198 185 169 0
-1.9285 64.9319 -33.8090 0.581 -0.662 0.474 199 186 170 0
0.2694 63.8915 -33.1605 0.456 -0.462 0.761 200 187 171 0
-1.4224 65.1872 -33.5790 0.605 -0.643 0.469 201 188 171 0
10.7546 71.8653 -27.9571 0.999 -0.011 0.040 202 190 176 0
14.6197 71.1041 -26.6424 0.997 -0.071 0.030 199 183 170 0
14.6919 71.3116 -26.5817 0.996 0.022 0.083 199 184 171 0
15.1338 71.2372 -26.4293 0.838 0.516 0.176 197 183 172 0
8.9824 78.7248 -27.4983 0.510 -0.516 -0.688 192 182 170 0
19.7591 73.5439 -24.3314 0.625 -0.327 0.709 188 179 164 0
16.6196 91.9365 -22.5010 0.172 0.337 0.926 177 161 149 0
17.2343 91.6196 -22.3239 0.074 0.182 0.980 176 160 150 0
27.1662 87.8745 -19.2373 0.874 0.431 -0.226 166 154 138 0
27.0812 88.2320 -19.2107 0.887 0.373 -0.271 165 153 137 0
27.4953 88.0613 -19.0844 0.918 0.324 -0.228 165 153 137 0
27.6251 88.1907 -19.0149 0.869 -0.490 -0.064 164 151 135 0
29.2166 87.8154 -18.4837 0.754 -0.566 -0.334 50 50 49 0
29.3951 87.8869 -18.4056 0.771 -0.550 -0.322 247 247 245 0
29.5172 88.0189 -18.3386 0.771 -0.550 -0.322 254 255 255 0
-2.9507 26.3717 -40.7290 0.851 -0.524 -0.019 120 85 89 0
-6.2352 33.8250 -40.7476 0.006 -0.979 0.205 110 47 60 0
-5.9023 33.9647 -40.6004 -0.021 -0.910 0.414 112 48 58 0
6.8855 32.2684 -36.0905 0.996 0.075 0.057 103 32 45 0
12.3362 32.9525 -33.9398 0.597 -0.664 0.450 113 36 46 0
10.2130 33.9620 -34.5704 0.747 0.246 0.618 113 34 45 0
11.5291 36.7710 -33.6217 0.946 0.219 0.238 109 32 48 0
12.2619 37.3584 -33.2520 0.530 -0.723 0.443 106 33 51 0
13.4373 39.2994 -32.4970 0.839 -0.493 0.228 91 23 34 0
13.4963 39.4958 -32.4430 0.849 -0.489 0.199 91 24 34 0
13.2656 40.9395 -32.2948 0.611 -0.738 0.286 80 17 26 0
11.3877 48.0722 -31.8392 0.773 0.153 -0.615 65 14 21 0
8.8021 53.0737 -31.9945 0.658 0.226 0.718 65 32 38 0
8.8992 53.2678 -31.9266 0.892 0.126 0.434 65 34 38 0
8.3319 54.3276 -31.9667 0.865 -0.247 0.436 67 37 37 0
8.5153 54.7248 -31.8336 0.791 -0.165 0.588 69 41 41 0
7.1586 55.7398 -32.1764 0.749 0.655 0.101 71 46 46 0
6.8186 56.1860 -32.2312 0.836 0.546 -0.057 73 50 50 0
6.4676 56.6403 -32.2888 0.761 0.649 -0.011 75 55 54 0
3.3199 58.9567 -33.0905 0.821 0.568 -0.063 85 67 63 0
3.0489 59.3767 -33.1237 0.811 0.584 0.044 88 69 65 0
-0.1074 62.2851 -33.8324 0.639 0.768 0.045 173 154 144 0
-1.1005 63.1422 -34.0648 0.639 0.768 0.044 189 173 159 0
-0.9506 63.3304 -33.9782 0.795 0.605 -0.035 191 176 161 0
0.2266 63.4587 -33.5168 0.430 -0.583 0.689 197 184 167 0
-2.8657 65.5865 -34.3284 0.424 -0.787 0.448 198 185 169 0
-2.1726 65.4522 -34.0909 0.508 -0.707 0.492 199 186 170 0
-1.8126 65.5161 -33.9458 0.604 -0.641 0.473 200 187 170 0
-4.9893 74.1677 -33.7295 0.929 0.356 -0.103 208 199 182 0
14.9186 70.9751 -26.7983 0.682 0.220 0.697 199 183 170 0
19.8104 74.1182 -24.4573 0.427 -0.736 0.524 186 176 164 0
26.5227 86.5260 -19.9304 0.065 -0.879 0.473 171 157 144 0
30.5246 83.6754 -18.8958 0.628 -0.199 0.752 167 155 139 0
27.4275 87.9832 -19.3551 0.975 0.201 -0.093 166 154 138 0
27.4586 88.2178 -19.3054 0.980 0.182 -0.077 164 152 136 0
27.5517 88.3866 -19.2431 0.872 -0.487 -0.055 164 152 136 0
27.4238 88.7912 -19.2253 0.835 -0.486 -0.259 163 150 134 0
27.6685 88.7980 -19.1326 0.847 -0.455 -0.274 163 148 133 0
29.2137 87.9358 -18.6944 0.754 -0.566 -0.334 50 50 49 0
29.3961 88.0032 -18.6152 0.781 -0.540 -0.314 247 247 245 0
29.5024 88.1526 -18.5512 0.778 -0.542 -0.318 254 255 255 0
-11.5586 25.0205 -44.4378 0.661 -0.072 -0.747 233 225 211 0
-15.2841 27.6901 -45.4073 0.032 -0.914 -0.404 229 215 200 0
-3.0430 26.4518 -41.0030 0.947 -0.311 -0.077 122 87 91 0
-2.9680 26.6650 -40.9403 0.947 -0.311 -0.077 120 82 87 0
4.7063 27.6726 -37.8906 0.986 -0.142 0.083 101 43 51 0
4.4665 27.9669 -37.9332 0.942 -0.178 -0.285 101 40 50 0
6.6330 32.4148 -36.3988 0.891 0.322 0.319 104 33 46 0
8.8643 31.8605 -35.6491 0.264 -0.881 0.392 102 32 43 0
9.2599 31.9422 -35.4871 0.394 -0.535 0.747 101 31 42 0
13.4884 39.3410 -32.6997 0.913 -0.385 0.133 92 23 35 0
13.5605 39.5317 -32.6417 0.913 -0.385 0.133 90 23 33 0
13.6242 39.7261 -32.5863 0.913 -0.377 0.154 87 22 32 0
13.6706 41.4945 -32.2828 0.536 -0.538 0.651 79 18 29 0
13.7697 41.6736 -32.2166 0.536 -0.538 0.651 80 18 29 0
9.7123 45.6656 -33.0971 -0.009 -0.308 0.951 76 16 28 0
9.3371 46.0840 -33.1705 -0.042 -0.352 0.935 77 17 29 0
9.3756 46.3031 -33.1206 -0.076 -0.233 0.969 76 16 28 0
8.9912 52.8018 -32.2140 0.959 0.024 0.284 63 29 36 0
8.8063 53.1503 -32.2272 0.953 0.025 0.301 65 31 39 0
8.7141 53.4488 -32.2136 0.931 0.328 0.162 66 34 40 0
8.4432 54.3459 -32.1704 0.635 -0.760 0.137 68 37 37 0
6.6809 56.3466 -32.5096 0.834 0.548 -0.065 73 51 50 0
6.2693 56.8363 -32.5852 0.761 0.649 0.009 76 55 54 0
-0.4919 62.6004 -34.1962 0.645 0.761 0.071 182 163 152 0
0.4915 62.2971 -33.8753 0.536 -0.196 0.821 190 173 159 0
0.3399 62.6597 -33.8737 0.683 0.263 0.681 190 175 160 0
7.5390 79.7947 -28.3939 0.579 -0.310 -0.754 194 183 170 0
20.5875 72.8044 -24.6164 0.638 -0.746 0.193 191 178 165 0
19.8568 74.4395 -24.6267 0.275 -0.565 0.778 188 176 166 0
12.0326 82.9347 -26.1957 0.611 0.414 0.675 187 174 165 0
21.3837 75.7354 -23.8428 -0.031 0.108 0.994 186 174 163 0
31.2480 78.0114 -19.7641 0.514 -0.359 0.779 175 161 149 0
31.5476 77.9618 -19.6594 0.781 0.428 0.455 177 161 150 0
30.7032 83.6003 -19.0650 0.628 -0.199 0.752 167 155 139 0
27.0630 88.4872 -19.6438 0.894 0.354 0.274 167 155 139 0
27.1229 88.6926 -19.5880 0.940 0.180 0.288 166 153 137 0
27.4392 88.8934 -19.4366 0.835 -0.489 -0.254 165 150 134 0
27.6649 88.9205 -19.3473 0.847 -0.455 -0.274 165 149 134 0
29.3695 88.1498 -18.8307 0.764 -0.540 -0.353 246 246 244 0
29.5002 88.2729 -18.7617 0.778 -0.542 -0.318 254 255 255 0
-11.7707 25.3739 -44.7295 0.363 -0.830 -0.423 232 225 210 0
-2.9767 26.7230 -41.1871 0.950 -0.308 -0.056 123 86 90 0
1.1564 27.4165 -39.5126 0.921 0.387 -0.033 105 54 59 0
4.8294 27.6906 -38.0796 0.661 -0.734 -0.156 101 43 50 0
-0.0593 31.2506 -39.3545 0.945 -0.317 -0.077 101 39 51 0
0.0314 31.4563 -39.2871 0.941 -0.327 -0.087 104 42 55 0
-5.4648 33.7020 -41.0035 -0.010 -0.809 0.587 105 43 54 0
-4.3172 33.8198 -40.5506 0.213 -0.621 0.754 103 40 51 0
8.9831 31.8768 -35.8346 0.301 -0.874 0.382 101 31 42 0
9.0510 32.0735 -35.7772 0.302 -0.695 0.653 102 32 43 0
9.6591 32.0790 -35.5464 0.656 0.052 0.753 102 32 43 0
9.3695 32.4018 -35.6039 0.530 -0.836 -0.141 101 31 42 0
10.4449 33.7737 -34.9763 0.930 -0.335 0.150 113 37 47 0
10.4120 34.0066 -34.9512 0.956 -0.244 0.165 114 35 46 0
14.1701 40.8835 -32.4223 0.599 -0.629 -0.496 80 18 27 0
13.3897 41.4648 -32.6237 0.393 -0.299 0.870 80 18 28 0
10.4596 45.6111 -33.0637 -0.042 -0.334 0.942 77 17 29 0
0.5292 61.8195 -34.2073 0.606 0.779 0.165 154 134 125 0
0.8254 61.9183 -34.0793 0.707 -0.146 0.692 185 166 155 0
0.8350 62.1849 -34.0328 0.707 -0.146 0.692 188 172 157 0
0.7733 62.4939 -34.0063 0.714 0.211 0.667 189 174 158 0
1.1891 62.7927 -33.8009 0.611 -0.319 0.725 195 182 165 0
0.2257 63.6419 -34.0284 0.358 -0.774 0.523 197 184 167 0
0.5402 63.7285 -33.8955 0.775 -0.465 0.428 197 184 167 0
-5.9324 67.9076 -35.6696 0.751 0.386 -0.536 199 186 169 0
15.1322 60.0748 -28.9667 0.822 0.153 0.549 208 194 181 0
8.3693 75.3138 -29.0688 0.631 -0.304 -0.714 200 186 173 0
18.2925 80.9258 -24.4126 -0.010 0.152 0.988 181 171 159 0
32.1115 77.7526 -19.6987 0.469 0.261 0.844 174 160 149 0
26.8369 88.8454 -19.9059 0.934 0.053 0.354 166 153 137 0
26.8057 89.1488 -19.8689 0.934 0.053 0.354 167 154 138 0
27.6451 88.5234 -19.6523 0.912 -0.379 0.158 168 152 137 0
27.4822 88.9662 -19.6425 0.830 -0.495 -0.257 166 150 135 0
27.6614 89.0432 -19.5624 0.847 -0.455 -0.274 165 149 134 0
29.3675 88.2699 -19.0418 0.746 -0.584 -0.320 247 247 245 0
29.4874 88.4048 -18.9747 0.766 -0.531 -0.363 254 255 255 0
-3.2937 26.8647 -41.5380 0.968 -0.249 0.004 126 89 92 0
3.1554 27.7958 -38.9375 0.887 -0.372 0.274 102 47 53 0
3.6280 28.1051 -38.7082 0.431 -0.881 -0.194 102 45 52 0
-3.1760 32.7822 -40.5438 0.772 0.635 0.038 103 40 50 0
6.3223 30.6190 -37.2808 0.366 0.036 0.930 103 40 49 0
9.0219 31.9211 -36.0459 0.285 -0.878 0.384 103 33 44 0
9.5747 32.3870 -35.7610 0.430 -0.663 0.613 102 32 43 0
8.9915 33.0384 -35.8781 0.559 -0.775 -0.295 101 31 42 0
14.1500 39.4002 -32.8968 0.870 -0.312 0.383 88 21 32 0
10.4385 53.8832 -31.9836 0.281 -0.959 0.021 67 44 45 0
0.9089 61.6869 -34.3534 0.807 -0.431 0.404 169 150 140 0
1.3902 61.6762 -34.1722 0.768 -0.607 0.201 186 169 156 0
1.5013 61.8820 -34.0970 0.813 -0.550 0.190 188 172 156 0
0.9668 62.4697 -34.2058 0.714 0.211 0.667 189 174 158 0
0.5454 63.5420 -34.1939 0.351 -0.768 0.536 196 183 166 0
1.1573 63.4489 -33.9763 0.698 -0.410 0.587 197 184 167 0
0.6573 64.0248 -34.0739 0.837 -0.214 0.504 198 185 168 0
15.3392 60.0253 -29.1355 0.772 0.044 0.634 208 194 182 0
0.6793 71.0088 -32.9450 0.464 0.716 0.522 204 194 181 0
26.0476 60.7053 -24.9564 0.761 -0.364 -0.537 201 189 175 0
8.2705 75.2130 -29.3852 0.617 -0.346 -0.707 200 188 172 0
20.2432 74.3192 -24.9782 0.119 -0.782 0.612 189 176 167 0
32.1076 77.6153 -19.9400 0.856 0.150 0.495 174 161 149 0
32.4661 77.7490 -19.7823 0.663 0.564 0.493 173 159 147 0
26.8782 88.9204 -20.1136 0.936 0.009 0.352 167 154 138 0
27.0701 88.9862 -20.0301 0.778 -0.092 0.622 167 154 138 0
27.7034 88.5795 -19.8547 0.912 -0.379 0.158 168 152 137 0
27.4897 89.0771 -19.8560 0.851 -0.457 -0.260 167 150 135 0
27.6578 89.1661 -19.7779 0.847 -0.455 -0.274 166 148 134 0
29.3700 88.3853 -19.2524 0.773 -0.535 -0.342 247 247 245 0
29.4919 88.5182 -19.1847 0.773 -0.535 -0.342 254 255 255 0
3.1692 27.6219 -39.2021 0.308 -0.453 0.837 104 51 57 0
3.0759 27.8747 -39.1974 0.402 -0.673 0.621 102 48 54 0
3.6341 28.1589 -38.9387 0.431 -0.881 -0.194 102 46 54 0
8.6061 29.2664 -36.8623 0.771 -0.591 -0.236 103 40 49 0
7.2586 30.1455 -37.2366 0.866 0.283 0.412 102 39 47 0
7.1785 30.3935 -37.2276 0.867 -0.450 0.214 102 38 46 0
7.7381 30.4295 -37.0080 0.722 -0.659 0.210 104 37 47 0
7.9250 31.6959 -36.7343 0.971 0.220 -0.091 104 33 47 0
9.9518 32.0911 -35.8968 0.486 -0.700 0.524 102 32 43 0
10.7049 34.2365 -35.2663 0.688 -0.313 0.655 116 31 44 0
12.5944 35.2660 -34.3799 0.773 -0.617 -0.149 120 32 46 0
14.3138 39.3919 -33.0638 0.884 -0.441 -0.158 89 22 32 0
14.3537 39.5958 -33.0159 0.889 -0.449 -0.090 89 23 31 0
13.6427 40.3588 -33.1656 0.449 -0.581 0.679 83 19 27 0
12.0839 43.3450 -33.2840 0.983 0.061 0.173 84 18 28 0
12.4529 43.4006 -33.1341 0.392 -0.847 -0.358 84 18 28 0
12.7786 43.4756 -32.9977 0.930 -0.283 0.234 82 18 27 0
12.8381 43.6764 -32.9428 0.951 -0.278 0.136 80 17 26 0
12.5951 44.0225 -32.9804 0.724 -0.581 -0.372 79 18 27 0
10.4745 50.2817 -32.7903 0.710 -0.492 0.504 61 20 26 0
7.3772 53.1703 -33.5120 0.953 -0.092 -0.288 61 25 28 0
8.7824 53.4010 -32.9383 0.717 -0.091 -0.691 61 31 32 0
8.7067 53.6915 -32.9208 0.849 0.456 -0.266 64 34 35 0
8.3133 54.4094 -32.9564 0.837 0.535 -0.111 64 37 40 0
11.1655 53.5525 -32.0037 0.531 -0.837 -0.131 67 45 47 0
1.1392 60.2883 -34.7577 0.717 -0.677 0.167 83 67 63 0
1.4022 60.9464 -34.5520 0.747 0.613 0.255 100 81 77 0
0.7790 61.5802 -34.6888 0.809 -0.415 0.416 123 105 97 0
1.0849 61.6733 -34.5571 0.790 -0.430 0.437 179 162 149 0
1.4637 61.7224 -34.4045 0.812 -0.557 0.173 187 171 155 0
1.6671 61.8736 -34.3027 0.680 -0.628 0.379 188 172 157 0
1.0941 62.4845 -34.4239 0.709 0.213 0.673 189 174 158 0
0.4426 63.6952 -34.4794 0.319 -0.751 0.578 196 182 165 0
0.8697 63.7135 -34.3133 0.230 -0.568 0.790 196 183 167 0
0.7170 71.0833 -33.1939 0.456 0.718 0.526 205 193 183 0
25.9442 61.0981 -25.1520 0.648 -0.435 -0.626 200 188 172 0
27.6302 60.0753 -24.6713 0.803 -0.409 -0.433 200 188 170 0
7.8399 75.6400 -29.7446 0.696 -0.467 -0.546 200 188 171 0
27.0518 88.8547 -20.2934 0.946 -0.047 0.321 169 154 139 0
27.4164 88.7358 -20.1731 0.999 0.029 0.024 168 153 138 0
27.4886 89.1975 -20.0718 0.851 -0.457 -0.260 166 149 134 0
27.6542 89.2893 -19.9938 0.847 -0.455 -0.274 165 147 133 0
29.3592 88.5154 -19.4661 0.737 -0.549 -0.394 247 247 245 0
29.4892 88.6398 -19.3966 0.737 -0.549 -0.394 254 255 255 0
-4.5647 -7.7308 -48.0404 0.862 -0.408 -0.301 232 216 196 0
-5.1849 27.2533 -42.7111 0.223 -0.884 -0.411 131 99 101 0
4.2437 26.6927 -39.1798 0.994 0.033 0.107 109 58 64 0
9.3485 29.7326 -36.7358 0.739 -0.599 0.306 100 36 44 0
9.3455 29.9514 -36.7021 0.800 -0.208 0.562 101 36 44 0
7.8139 31.5698 -37.0327 0.976 0.194 -0.097 102 34 47 0
7.8411 31.7829 -36.9883 0.982 0.163 -0.100 102 34 47 0
13.3060 40.3508 -33.5263 0.669 0.174 0.723 84 19 27 0
13.7929 41.0289 -33.2314 0.861 -0.316 -0.397 83 18 26 0
12.7766 43.5451 -33.2213 0.904 -0.278 0.325 81 18 27 0
12.8245 43.7517 -33.1700 0.935 -0.271 0.228 80 17 26 0
12.6954 44.2738 -33.1364 0.715 -0.586 -0.382 79 17 28 0
8.2752 49.5586 -33.9927 -0.197 -0.980 -0.007 67 16 26 0
8.1454 54.3327 -33.2828 0.861 0.443 -0.250 65 35 37 0
8.3163 54.4883 -33.1924 0.850 0.502 -0.158 64 38 41 0
6.8297 56.0825 -33.5096 0.831 0.503 -0.237 69 47 48 0
4.4305 57.9611 -34.1319 0.792 0.608 -0.049 76 55 52 0
1.1507 60.3697 -35.0080 0.720 -0.666 0.192 83 68 63 0
1.8924 60.4807 -34.7055 0.747 0.629 0.216 91 73 69 0
0.9403 61.5754 -34.8969 0.854 -0.459 0.246 137 120 111 0
1.4379 61.5557 -34.7089 0.722 -0.687 0.082 184 169 154 0
1.6255 61.7166 -34.6113 0.719 -0.691 0.075 186 171 154 0
1.7963 61.8868 -34.5186 0.689 -0.624 0.368 187 172 154 0
0.9185 62.9527 -34.6861 0.926 -0.338 0.171 190 177 159 0
1.0559 63.6928 -34.5155 0.219 -0.644 0.733 197 182 167 0
-7.4749 69.4291 -36.8784 0.731 0.459 -0.506 197 184 168 0
8.1626 75.2218 -29.9518 0.667 -0.497 -0.555 198 187 169 0
7.7830 76.0674 -29.9630 0.716 -0.417 -0.560 199 187 171 0
7.2720 77.3014 -29.9628 0.737 -0.553 -0.389 199 187 173 0
2.6446 84.7084 -30.5610 0.735 -0.614 -0.289 188 178 166 0
21.1155 74.8218 -25.0417 0.650 -0.371 -0.663 185 173 161 0
31.5466 78.6320 -20.4299 0.780 0.603 -0.168 175 162 148 0
30.7139 79.7152 -20.5772 0.774 0.623 -0.109 175 161 148 0
29.5666 81.1198 -20.7942 0.776 0.620 -0.111 175 159 147 0
27.4054 88.3279 -20.4770 0.874 -0.480 -0.082 171 153 141 0
26.9890 89.0405 -20.5235 0.979 0.110 -0.174 170 154 139 0
27.3589 89.1859 -20.3583 0.845 -0.455 -0.281 167 151 136 0
27.4875 89.3182 -20.2879 0.851 -0.457 -0.260 166 149 134 0
27.6506 89.4127 -20.2102 0.847 -0.455 -0.274 167 148 134 0
29.3743 88.6176 -19.6749 0.769 -0.547 -0.331 247 247 245 0
29.4975 88.7495 -19.6066 0.769 -0.547 -0.331 254 255 255 0
-4.2153 -7.6972 -48.1348 0.843 -0.524 0.120 232 216 194 0
5.7398 26.9745 -38.7976 0.751 -0.482 0.452 104 51 57 0
3.2772 27.9260 -39.5972 0.281 -0.294 0.913 102 49 55 0
3.8226 28.4386 -39.3055 0.313 -0.715 0.625 104 48 57 0
9.4464 29.7561 -36.9262 0.739 -0.599 0.306 103 39 47 0
9.6102 29.9192 -36.8371 0.748 -0.579 0.324 101 37 45 0
9.5559 30.1551 -36.8206 0.797 -0.455 0.396 101 36 45 0
11.7481 44.5685 -33.6902 0.990 -0.063 -0.125 80 17 27 0
12.0574 44.6517 -33.5576 0.961 -0.248 0.122 79 17 28 0
13.2032 44.5574 -33.1303 0.782 -0.608 -0.138 76 16 26 0
8.2357 54.1123 -33.5332 0.811 0.037 -0.584 65 35 35 0
8.2173 54.6244 -33.4592 0.853 0.498 -0.157 66 40 42 0
6.7093 56.2333 -33.7862 0.838 0.467 -0.283 69 48 47 0
0.8514 61.1727 -35.2643 0.811 -0.406 0.421 92 74 70 0
0.8789 61.4286 -35.2131 0.832 -0.441 0.337 104 86 79 0
1.1036 61.5694 -35.1041 0.664 -0.741 0.105 156 139 128 0
1.5683 61.5685 -34.9248 0.743 -0.663 0.090 183 170 154 0
1.7300 61.7444 -34.8346 0.738 -0.667 0.105 186 172 153 0
1.8816 61.9259 -34.7473 0.738 -0.667 0.105 187 172 153 0
3.8294 61.5737 -34.0514 0.824 -0.077 0.561 192 178 161 0
4.3391 61.5347 -33.8608 0.768 -0.057 0.637 195 179 164 0
0.8321 63.9196 -34.8364 0.176 -0.623 0.762 196 180 165 0
25.4986 60.9019 -25.7945 0.708 -0.348 -0.615 202 190 176 0
8.0063 75.4427 -30.2412 0.696 -0.468 -0.544 198 186 170 0
6.9577 77.3634 -30.3415 0.896 -0.238 -0.374 197 185 172 0
7.3264 77.3658 -30.1988 0.823 -0.380 -0.421 197 185 173 0
7.5075 77.5106 -30.1059 0.811 -0.375 -0.449 196 184 172 0
0.0809 86.5630 -31.5376 0.451 -0.849 -0.275 189 180 166 0
30.8304 78.4548 -20.9547 0.596 0.673 0.438 176 162 149 0
34.5252 79.8864 -19.3018 0.783 -0.485 -0.389 172 156 143 0
27.4558 87.8556 -20.7672 0.930 0.199 -0.309 171 155 142 0
26.6793 88.9475 -20.8939 0.912 -0.394 0.113 171 154 142 0
27.0284 88.8473 -20.7750 0.920 -0.391 0.022 170 152 140 0
29.3479 88.7652 -19.8928 0.755 -0.566 -0.330 247 247 245 0
29.4103 88.9639 -19.8372 0.781 -0.532 -0.327 254 255 255 0
29.9502 88.9046 -19.6382 0.867 -0.418 -0.273 255 255 254 0
-19.7960 1.1364 -53.0190 1.000 0.002 0.007 236 224 208 0
-19.8744 1.8394 -52.9385 0.961 0.098 -0.258 234 225 208 0
-6.0636 27.6055 -43.5143 -0.027 -0.962 -0.270 130 100 100 0
5.7555 27.0240 -39.0211 0.779 -0.486 0.396 106 54 60 0
3.4911 28.1434 -39.7229 0.507 -0.777 0.372 104 50 57 0
3.6351 28.3257 -39.6382 0.510 -0.771 0.382 103 47 56 0
3.8320 28.4917 -39.5357 0.613 -0.569 0.548 104 47 56 0
14.4849 40.8444 -33.4535 0.937 -0.017 0.348 85 20 28 0
14.5620 41.0325 -33.3939 0.946 -0.045 0.320 83 19 27 0
8.2302 46.0932 -35.0514 0.866 -0.309 -0.394 82 19 29 0
11.1764 44.9139 -34.0946 0.820 -0.567 0.081 81 19 30 0
11.8627 44.8159 -33.8439 0.836 -0.521 -0.171 80 18 29 0
7.3793 55.1744 -33.9482 0.829 0.499 -0.253 67 41 41 0
6.4427 56.4673 -34.1074 0.838 0.464 -0.287 71 47 45 0
5.2292 57.4148 -34.4286 0.838 0.481 -0.259 74 50 48 0
0.9463 61.2066 -35.4916 0.801 -0.416 0.431 98 80 76 0
1.0907 61.3944 -35.4059 0.798 -0.417 0.436 121 104 97 0
1.2813 61.5547 -35.3067 0.673 -0.716 0.185 180 163 152 0
1.7047 61.5777 -35.1389 0.663 -0.721 0.201 184 169 154 0
1.9352 61.9839 -34.9853 0.754 -0.649 0.100 187 172 151 0
-1.9160 65.1098 -35.9859 -0.139 -0.711 0.689 193 178 160 0
1.0651 64.1461 -34.9816 0.193 -0.630 0.752 198 183 163 0
2.0008 66.3287 -34.2741 0.858 -0.273 0.435 201 192 177 0
29.0989 57.4442 -25.1644 0.332 -0.928 0.170 200 193 177 0
29.4041 57.6657 -25.0110 0.317 -0.906 0.281 199 192 175 0
7.7755 77.1282 -30.3294 0.282 -0.129 0.951 197 188 172 0
7.6812 77.4834 -30.3100 0.305 -0.095 0.948 195 186 171 0
7.5694 77.8530 -30.2950 0.997 -0.009 -0.070 193 184 169 0
1.8545 85.5703 -31.2939 0.995 -0.020 -0.100 191 179 169 0
28.1409 74.1601 -22.8977 0.703 -0.475 -0.529 183 171 159 0
30.0426 80.6049 -21.1428 0.948 -0.116 -0.295 171 157 145 0
30.1726 80.7278 -21.0730 0.907 0.421 0.015 172 157 146 0
29.7957 81.6181 -21.0787 0.895 0.447 -0.012 171 158 146 0
21.3284 92.7465 -22.6069 0.856 0.347 -0.383 173 154 144 0
34.7959 79.7091 -19.4403 0.968 -0.170 -0.187 171 154 144 0
27.2794 87.8913 -21.0647 0.921 -0.010 -0.390 170 155 143 0
27.3933 88.0395 -20.9971 0.919 0.134 -0.371 170 156 141 0
27.3640 88.3396 -20.9611 0.919 0.134 -0.371 172 155 140 0
27.3073 88.6694 -20.9311 0.947 0.129 -0.293 170 152 137 0
27.2672 88.9822 -20.8972 0.942 0.123 -0.313 170 152 137 0
27.2693 89.2505 -20.8541 0.945 0.119 -0.304 168 152 136 0
29.3170 88.9181 -20.1122 0.786 -0.513 -0.345 247 246 245 0
29.4787 89.0083 -20.0352 0.772 -0.531 -0.349 255 255 255 0
4.0720 27.1286 -39.8988 0.715 -0.267 0.646 107 58 67 0
4.0820 27.3494 -39.8602 0.704 -0.285 0.650 108 57 63 0
4.9585 27.3140 -39.5241 0.589 -0.115 0.800 106 55 60 0
3.5752 28.1739 -39.9282 0.541 -0.797 0.269 106 51 58 0
3.7329 28.3520 -39.8387 0.950 0.089 -0.298 105 48 57 0
3.7783 28.5640 -39.7877 0.926 0.368 -0.084 104 46 56 0
4.8421 28.4644 -39.3886 0.991 0.131 0.021 104 45 56 0
4.8013 28.7011 -39.3674 0.992 0.121 0.021 105 45 55 0
4.9181 30.0141 -39.1154 -0.103 -0.979 0.178 103 43 52 0
12.5602 36.6254 -35.0967 0.959 -0.282 -0.038 117 33 48 0
12.0622 40.8783 -34.6224 0.905 -0.423 0.029 90 25 33 0
14.4545 44.7694 -33.0781 0.869 -0.447 -0.210 70 19 26 0
14.4379 45.6949 -32.9391 0.612 -0.050 0.789 71 20 29 0
13.3851 46.4591 -33.2294 0.632 -0.016 0.775 68 18 27 0
13.6474 46.5582 -33.1116 0.590 0.072 0.804 67 18 28 0
8.7122 52.7626 -34.0606 0.941 -0.338 0.032 62 29 30 0
8.7998 52.9632 -33.9949 0.950 -0.311 0.026 63 31 32 0
8.9726 53.1170 -33.9034 0.909 0.042 -0.415 61 31 33 0
8.8134 53.4534 -33.9126 0.832 0.388 -0.396 61 31 31 0
8.6693 53.7824 -33.9171 0.833 0.399 -0.384 63 33 32 0
8.3803 54.1929 -33.9652 0.877 0.407 -0.254 66 37 36 0
7.8429 55.2492 -34.0087 0.894 0.248 -0.373 66 41 42 0
0.9764 61.2783 -35.7383 0.849 -0.396 0.351 101 84 77 0
1.1092 61.4729 -35.6559 0.830 -0.461 0.314 141 124 116 0
1.7819 61.6216 -35.3703 0.655 -0.726 0.210 183 167 152 0
1.9769 61.7777 -35.2697 0.671 -0.696 0.257 184 169 152 0
1.6344 62.2522 -35.3287 0.966 -0.129 0.224 186 171 152 0
1.4025 62.6628 -35.3545 0.996 0.039 0.075 187 173 155 0
3.6282 62.6800 -34.4840 0.615 -0.405 0.676 196 182 163 0
3.7084 62.9009 -34.4181 0.616 -0.412 0.671 196 183 165 0
1.8797 66.4998 -34.5654 0.930 -0.317 0.183 201 192 177 0
8.1162 71.9592 -31.2758 0.951 -0.237 0.197 201 192 177 0
1.9195 78.7588 -32.6230 0.161 -0.481 0.862 200 191 176 0
2.3990 78.6971 -32.4458 0.136 -0.480 0.867 203 191 177 0
7.7003 77.8587 -30.5106 0.922 0.371 -0.113 193 184 170 0
1.0029 86.3682 -31.7844 0.886 -0.464 -0.007 192 180 168 0
30.6848 80.0675 -21.2020 0.914 0.388 0.119 171 157 146 0
30.3034 80.7047 -21.2506 0.906 0.412 0.092 171 157 146 0
30.1450 81.1189 -21.2472 0.932 0.363 0.001 173 159 148 0
29.7082 81.8169 -21.3078 0.889 0.457 0.001 171 159 146 0
34.9941 79.6078 -19.5941 0.835 0.009 0.550 172 154 144 0
35.0168 79.8291 -19.5505 0.821 0.006 0.571 171 154 142 0
30.2249 85.4161 -20.5407 0.306 -0.614 0.728 171 152 138 0
30.6161 85.2600 -20.4127 0.711 0.034 0.703 171 152 138 0
29.2926 89.0642 -20.3308 0.754 -0.556 -0.350 247 246 246 0
29.4525 89.1566 -20.2539 0.784 -0.513 -0.349 255 255 255 0
