ply
format ascii 1.0
element vertex 841
property float x
property float y
property float z
property float nx
property float ny
property float nz
property uchar diffuse_red
property uchar diffuse_green
property uchar diffuse_blue
property uchar class
end_header
3.8537 68.0660 -40.8240 0.798 -0.400 0.451 88 124 90 0
-3.0408 75.6144 -42.8777 -0.099 -0.748 0.656 76 124 83 0
-2.6728 75.6593 -42.7122 0.113 -0.558 0.822 75 123 83 0
-0.9350 75.9365 -41.9227 -0.009 -0.997 0.083 81 127 91 0
-0.2254 76.0270 -41.6030 -0.034 -0.960 -0.279 88 127 91 0
0.4519 75.8312 -41.3332 -0.032 -0.951 -0.308 94 129 94 0
2.3459 76.8380 -40.3848 0.295 -0.954 -0.057 185 183 165 0
17.6498 83.0823 -32.9569 0.775 0.570 -0.275 185 176 161 0
16.6293 84.3433 -33.2429 0.776 0.562 -0.288 185 176 161 0
34.2133 82.8208 -25.7933 0.151 -0.775 0.613 166 152 141 0
34.5540 82.6976 -25.6606 0.075 -0.564 0.822 166 152 141 0
30.5277 89.8361 -26.5194 0.353 -0.903 -0.244 164 150 137 0
30.7295 89.8821 -26.4259 0.356 -0.904 -0.238 162 148 135 0
30.8849 89.9821 -26.3459 0.459 -0.833 -0.309 161 147 133 0
31.0670 90.0500 -26.2584 0.459 -0.833 -0.309 103 95 87 0
31.2526 90.1129 -26.1699 0.452 -0.830 -0.326 50 50 50 0
-19.5407 -5.3006 -60.4108 0.603 -0.095 -0.792 227 214 207 0
-18.9922 -5.0891 -60.1452 0.583 -0.140 -0.800 227 214 208 0
-19.0978 -0.9920 -59.6832 0.267 -0.820 0.505 228 217 213 0
-27.4381 1.1972 -63.0519 -0.129 -0.637 0.760 229 218 213 0
-18.3038 34.8347 -54.8935 0.250 -0.632 -0.734 188 171 164 0
2.1589 30.2505 -46.5308 0.938 -0.189 0.289 111 79 82 0
4.2582 31.3844 -45.4739 0.963 -0.248 0.106 102 59 63 0
5.7485 31.5370 -44.8046 0.820 0.031 0.572 98 52 59 0
7.0935 31.2694 -44.2507 0.581 0.041 0.813 96 51 56 0
11.6827 40.2126 -41.1386 0.774 -0.614 -0.155 71 17 20 0
11.7621 40.4090 -41.0796 0.993 -0.117 -0.008 69 18 20 0
11.2430 40.8924 -41.2462 0.801 -0.586 0.124 67 17 18 0
10.8428 45.1577 -40.8919 0.713 -0.559 -0.422 60 19 20 0
9.4946 46.8431 -41.2713 0.733 -0.493 -0.469 57 18 20 0
13.1630 46.3420 -39.7323 0.696 -0.399 0.597 55 22 22 0
13.2268 46.5480 -39.6789 0.711 -0.402 0.577 53 22 21 0
7.8198 51.0233 -41.4839 0.696 -0.094 -0.711 46 23 22 0
-1.0468 58.2132 -44.4621 0.897 -0.274 0.348 45 33 27 0
-0.2408 58.0255 -44.1336 0.932 -0.362 -0.037 45 34 28 0
-1.6008 62.5203 -44.1698 0.892 -0.342 0.296 150 129 105 0
-0.7280 63.7061 -43.6417 0.910 0.088 0.405 166 151 129 0
-0.2867 63.7162 -43.4479 0.799 -0.072 0.597 170 154 133 0
-1.9027 72.1610 -43.1059 0.863 -0.363 0.352 82 124 87 0
-1.8678 72.4395 -43.0561 0.889 -0.175 0.423 79 123 87 0
-1.7801 72.6814 -42.9878 0.893 -0.185 0.410 78 123 86 0
-2.3815 73.4074 -43.1603 0.147 -0.349 0.926 77 123 87 0
-2.4646 73.7715 -43.1514 0.185 -0.388 0.903 77 123 87 0
-2.3973 74.0301 -43.0900 0.080 -0.461 0.884 77 125 85 0
-2.2638 74.2418 -43.0055 0.092 -0.343 0.935 76 125 83 0
-2.4891 74.7091 -43.0458 0.239 -0.519 0.820 74 124 81 0
-2.8443 75.2710 -43.1312 0.374 -0.873 0.312 72 125 80 0
-0.2606 76.1600 -41.8932 -0.033 -0.959 -0.282 82 128 89 0
0.4946 75.9062 -41.5951 -0.041 -0.964 -0.261 85 130 90 0
2.4419 76.8724 -40.6253 0.290 -0.957 -0.007 184 183 164 0
2.2267 77.3408 -40.6612 0.417 -0.884 0.211 184 184 166 0
1.8371 79.1721 -40.6041 0.665 0.746 -0.018 188 180 168 0
15.6512 85.3910 -33.8035 0.774 0.569 -0.278 186 176 161 0
28.2959 78.8858 -29.0914 0.569 -0.387 -0.725 178 168 152 0
30.4866 77.1824 -28.3465 0.214 -0.886 -0.410 179 168 154 0
8.0566 109.6529 -34.1094 0.549 0.503 0.668 169 156 146 0
32.6422 87.4745 -26.1292 0.973 -0.142 -0.182 162 150 136 0
32.6855 87.7003 -26.0823 0.975 -0.131 -0.182 161 147 135 0
30.9100 90.0775 -26.5624 0.468 -0.807 -0.361 161 146 134 0
-21.2062 -5.2284 -61.4028 0.699 -0.559 -0.447 227 214 208 0
-21.2005 -5.0000 -61.3722 0.715 -0.513 -0.475 227 214 208 0
-22.0496 -4.7476 -61.7134 0.662 -0.749 -0.025 227 215 208 0
-19.7462 -0.9202 -60.2315 0.346 -0.862 0.370 228 217 213 0
-19.4065 -0.7086 -60.0565 0.346 -0.862 0.370 228 217 213 0
10.8211 11.3899 -45.3112 0.369 -0.740 -0.562 231 224 216 0
0.4522 32.1010 -47.3043 0.112 -0.921 -0.373 110 68 72 0
5.5155 32.1471 -45.0785 0.429 -0.686 0.587 95 52 56 0
6.1601 33.3010 -44.6536 0.919 0.392 -0.045 95 46 49 0
10.7315 37.4527 -42.1374 0.468 -0.827 0.313 85 21 22 0
8.9664 39.1825 -42.6981 0.878 0.476 -0.041 82 21 20 0
8.7655 39.5112 -42.7456 0.878 0.477 -0.033 81 22 20 0
8.7980 39.7345 -42.7038 0.912 0.367 -0.182 81 21 21 0
9.3330 40.4405 -42.3822 0.436 -0.535 -0.724 73 21 20 0
9.9936 42.9990 -41.7771 0.943 0.324 0.076 62 19 18 0
9.5429 44.1925 -41.8276 0.231 -0.719 -0.655 59 19 19 0
-1.4859 62.5416 -44.4012 0.898 -0.316 0.307 149 129 105 0
-1.7094 72.1292 -43.3172 0.853 -0.514 -0.087 76 122 81 0
-1.6807 72.4120 -43.2698 0.855 -0.511 0.088 75 121 83 0
-1.9358 72.8939 -43.3223 0.778 -0.454 0.434 74 120 82 0
-2.4595 73.5664 -43.4690 0.609 -0.790 -0.068 72 119 82 0
-1.7580 73.3774 -43.1847 0.926 -0.121 0.358 71 119 82 0
-2.2039 74.6112 -43.2281 0.976 0.144 -0.161 71 124 80 0
-3.2114 76.8849 -43.3895 0.156 -0.657 0.738 71 121 79 0
0.8493 76.0539 -41.7115 0.070 -0.909 -0.410 84 131 87 0
21.8060 78.5290 -32.2175 0.620 0.671 0.407 186 176 164 0
26.9805 80.6073 -29.6925 0.668 -0.330 -0.666 174 165 148 0
28.7756 79.0423 -29.0983 0.272 -0.864 -0.423 175 165 149 0
9.6710 107.6605 -33.9469 0.549 0.507 0.665 174 160 149 0
8.5716 109.2286 -34.2357 0.551 0.504 0.665 172 158 147 0
30.5448 90.0656 -26.9636 0.468 -0.799 -0.378 161 149 135 0
32.6633 87.8487 -26.3080 0.975 -0.131 -0.182 162 147 135 0
30.9253 90.1845 -26.7821 0.468 -0.807 -0.361 163 147 136 0
-10.6464 -6.9249 -57.2338 0.862 -0.346 -0.369 224 215 205 0
-20.2101 -6.3518 -61.3761 0.279 -0.829 -0.485 224 215 206 0
-20.8351 -0.5893 -60.9452 0.626 -0.363 0.691 228 217 212 0
-13.3297 30.6998 -53.8049 0.327 -0.396 0.858 222 211 207 0
-14.5965 31.6188 -54.2503 0.398 -0.065 0.915 218 207 202 0
2.0064 31.1304 -46.9970 0.882 -0.468 -0.055 113 78 83 0
8.9628 30.6899 -43.9869 0.690 -0.303 0.657 97 54 58 0
8.7708 30.9874 -44.0350 0.439 -0.460 0.772 97 53 57 0
10.5429 37.6003 -42.4440 0.671 -0.636 0.381 82 21 20 0
8.8173 39.3159 -42.9939 0.747 0.607 0.272 81 22 21 0
8.5498 39.6757 -43.0676 0.746 0.606 0.275 80 22 21 0
8.6954 39.8479 -42.9824 0.927 0.353 -0.128 79 22 21 0
8.5826 40.1386 -42.9964 0.927 0.353 -0.128 77 22 20 0
10.8374 40.2757 -41.9864 0.938 0.321 0.134 69 19 18 0
9.1616 45.9291 -42.0318 0.762 0.530 0.373 59 19 22 0
8.8770 46.3240 -42.1087 0.769 0.534 0.351 58 19 22 0
9.8714 46.0521 -41.7041 0.547 -0.502 -0.670 56 17 21 0
12.0011 45.1797 -40.8729 0.664 -0.720 0.203 56 18 19 0
12.4579 45.1800 -40.6716 0.802 -0.597 -0.033 55 18 18 0
12.4099 45.4459 -40.6602 0.784 -0.595 0.178 53 18 17 0
12.3314 45.7287 -40.6601 0.608 -0.761 0.227 53 19 18 0
12.8310 46.1848 -40.3842 0.430 -0.448 0.784 52 21 19 0
13.7509 46.6474 -39.9223 0.216 -0.555 0.803 50 20 18 0
8.4720 51.0692 -41.7056 0.654 -0.303 -0.694 43 25 23 0
0.4838 56.9458 -44.5041 0.504 -0.719 0.478 42 32 27 0
0.7103 59.5957 -44.0795 0.970 0.238 -0.043 130 109 89 0
0.9120 63.1447 -43.5558 0.448 0.286 0.847 168 156 134 0
0.1298 63.9265 -43.8045 0.465 0.339 0.817 172 160 139 0
-3.2423 68.4484 -44.7356 -0.006 -0.561 0.828 178 177 156 0
-3.0338 68.6111 -44.6239 -0.006 -0.561 0.828 178 180 158 0
-4.4331 70.4423 -45.0159 0.670 0.058 0.740 156 172 145 0
-2.5086 69.4618 -44.2883 0.283 0.004 0.959 128 149 120 0
-1.8153 72.3057 -43.6344 0.774 -0.608 -0.179 70 120 74 0
-1.7729 72.5795 -43.5822 0.793 -0.595 -0.132 73 121 79 0
-2.5865 74.0671 -43.7582 0.925 0.312 0.217 70 118 80 0
-1.1740 73.6765 -43.1840 0.950 0.310 0.043 69 122 78 0
-1.4600 75.4110 -43.0974 0.137 -0.711 0.689 68 119 76 0
9.3037 108.5609 -34.2938 0.554 0.516 0.653 173 159 148 0
30.5458 90.1896 -27.1886 0.438 -0.780 -0.447 163 149 134 0
30.7577 90.2240 -27.0910 0.445 -0.771 -0.454 164 149 136 0
30.9415 90.2907 -27.0019 0.480 -0.793 -0.374 164 148 135 0
-10.7436 -6.8951 -57.5254 0.797 -0.417 -0.436 223 214 206 0
-19.7371 -6.1035 -61.4085 0.250 -0.899 -0.358 222 213 204 0
-8.5451 -5.2707 -56.3547 0.916 0.117 -0.383 224 212 206 0
-23.4879 -0.3971 -62.3730 0.835 -0.013 0.550 229 218 212 0
-14.4690 31.3768 -54.5119 0.620 0.336 0.709 221 210 206 0
-0.6568 31.8885 -48.3379 0.784 -0.514 0.348 115 82 88 0
1.9025 31.2263 -47.2861 0.800 -0.574 0.173 114 79 84 0
6.4406 31.2263 -45.2781 0.959 -0.282 -0.032 103 59 65 0
8.6202 31.1016 -44.3288 0.535 -0.528 0.660 99 54 57 0
8.9747 31.1947 -44.1606 0.677 -0.535 0.505 100 55 58 0
6.5541 33.2690 -44.9790 0.911 -0.371 0.182 92 45 47 0
6.3599 35.9326 -44.7405 0.460 -0.887 -0.045 84 33 35 0
10.7271 37.5823 -42.6071 0.672 -0.654 0.346 81 22 21 0
15.0465 42.4838 -40.0988 0.262 -0.961 -0.084 60 19 22 0
9.1202 46.0233 -42.2900 0.750 0.528 0.398 57 19 19 0
8.9093 46.3804 -42.3398 0.750 0.527 0.400 55 19 18 0
10.4042 46.3361 -41.6837 0.808 -0.486 -0.334 55 20 18 0
12.3110 45.5702 -40.9333 0.590 -0.666 0.456 54 21 19 0
-0.3410 57.2280 -45.1115 0.240 -0.712 0.660 41 32 22 0
0.0473 57.2829 -44.9330 0.271 -0.715 0.645 42 35 24 0
0.8710 59.5878 -44.2878 0.980 0.029 -0.198 128 107 84 0
1.5743 59.4439 -43.9941 0.600 0.038 0.799 130 110 85 0
-2.7522 66.4423 -45.0560 0.836 0.395 0.381 175 164 145 0
-4.0726 69.3940 -45.2808 0.511 0.025 0.859 161 174 148 0
-4.0465 69.6793 -45.2344 0.494 0.033 0.869 130 147 120 0
-1.8849 68.8463 -44.3794 0.323 -0.119 0.939 91 118 88 0
-1.8851 69.1448 -44.3432 0.260 -0.028 0.965 85 118 85 0
-1.7341 72.3522 -43.8857 0.845 -0.506 -0.174 68 121 75 0
-2.5930 73.2567 -44.1556 0.966 -0.133 -0.223 66 117 74 0
-2.4078 73.4328 -44.0521 0.971 -0.228 -0.070 68 117 77 0
-2.5450 73.8357 -44.0637 0.888 0.417 0.193 68 117 79 0
-2.4226 74.3634 -43.9453 0.996 0.077 -0.045 66 120 77 0
-2.6878 74.8601 -44.0022 0.971 -0.211 -0.113 64 119 75 0
3.4150 73.1604 -41.5088 0.416 -0.880 0.229 69 119 76 0
3.3399 73.5127 -41.4991 0.251 -0.434 0.865 69 120 77 0
15.9064 74.8190 -35.7796 0.587 0.164 0.793 189 181 168 0
15.6978 75.2767 -35.8161 0.675 -0.035 0.737 189 181 168 0
22.3271 78.2560 -32.5199 0.610 0.672 0.419 184 174 163 0
15.8419 85.5630 -34.4994 0.639 0.670 0.379 182 173 156 0
31.7275 77.0123 -28.5118 0.233 0.396 0.888 176 166 154 0
30.5717 79.5369 -28.7157 0.249 0.335 0.909 175 165 150 0
30.7964 90.3038 -27.3048 0.485 -0.793 -0.369 163 147 133 0
30.9533 90.4024 -27.2234 0.480 -0.793 -0.374 161 145 132 0
-23.5960 -0.5928 -62.7279 0.873 -0.249 0.418 227 216 210 0
-23.6952 -0.3482 -62.7424 0.878 -0.210 0.430 228 218 212 0
-2.3894 32.5589 -49.2879 0.445 -0.777 0.445 116 86 88 0
1.7259 31.3481 -47.6053 0.616 -0.740 -0.269 116 82 86 0
2.6502 31.2573 -47.2054 0.662 -0.506 0.553 113 77 81 0
5.7568 32.7017 -45.6497 0.986 -0.090 0.140 98 53 56 0
6.6206 35.4152 -44.9372 0.412 -0.903 0.120 90 40 41 0
6.8737 35.5476 -44.8087 0.412 -0.903 0.120 86 36 37 0
7.1136 35.6847 -44.6854 0.443 -0.890 0.108 85 36 37 0
10.8455 37.5935 -42.7955 0.996 -0.089 0.024 78 24 20 0
11.1132 41.6989 -42.1795 0.853 -0.515 -0.080 64 20 19 0
11.3810 41.8059 -42.0475 0.874 -0.474 -0.108 62 19 18 0
15.1168 42.5160 -40.3010 0.345 -0.933 -0.101 59 20 23 0
12.0711 45.2861 -41.3194 0.489 -0.872 0.018 54 22 19 0
12.8471 45.3574 -40.9658 0.530 -0.848 0.003 51 22 19 0
0.7341 57.2497 -44.9102 0.735 -0.487 0.471 42 39 25 0
0.4910 60.4682 -44.6285 0.898 -0.234 0.372 132 113 89 0
-0.0602 61.0860 -44.7987 0.709 -0.580 0.401 135 117 93 0
0.6557 60.9325 -44.4991 0.991 -0.106 0.083 137 121 97 0
-2.4034 66.6107 -45.1714 0.769 0.429 0.474 172 165 146 0
-3.5671 69.1608 -45.3799 0.505 0.040 0.862 102 128 98 0
-3.6027 69.4860 -45.3563 0.509 0.022 0.860 89 118 87 0
-1.5879 68.4498 -44.5862 0.323 -0.263 0.909 85 119 86 0
-1.4888 68.6813 -44.5142 0.310 -0.133 0.941 82 118 85 0
-1.3053 68.8561 -44.4114 0.223 -0.053 0.973 79 118 83 0
-1.3048 69.1535 -44.3752 0.232 -0.054 0.971 77 119 81 0
-3.0240 70.9145 -44.9262 0.603 0.195 0.773 73 119 80 0
-2.9755 71.1851 -44.8719 0.660 0.153 0.735 70 121 80 0
-3.1702 71.6218 -44.9055 0.661 0.153 0.735 67 121 81 0
-3.5788 72.2065 -45.0164 0.730 0.097 0.676 66 121 81 0
-0.2083 71.9905 -43.5443 0.612 -0.786 -0.087 65 117 75 0
-2.3175 73.7801 -44.2652 0.885 0.378 0.273 65 116 76 0
-2.9756 76.4143 -44.2388 0.569 0.626 0.533 61 117 72 0
3.2173 73.1127 -41.8858 0.589 -0.750 0.301 65 117 73 0
23.1707 77.2941 -32.5103 0.677 0.620 0.396 184 172 163 0
22.5680 78.1375 -32.6762 0.609 0.671 0.423 184 174 163 0
10.4264 107.6020 -34.5056 0.569 0.530 0.629 176 159 149 0
8.5926 112.4606 -34.7325 0.804 0.265 -0.532 169 155 146 0
30.8090 90.4145 -27.5267 0.485 -0.793 -0.369 163 147 135 0
30.9833 90.4926 -27.4397 0.489 -0.796 -0.358 162 146 134 0
-1.4464 -5.0110 -53.6532 1.000 -0.005 0.021 223 215 204 0
-25.4392 -0.9331 -63.8755 0.653 -0.542 0.530 228 217 211 0
-24.3518 -0.7526 -63.3683 0.890 -0.342 0.300 228 217 212 0
-24.5431 -0.5016 -63.4235 0.955 -0.293 0.040 229 218 212 0
-23.6409 -0.3148 -62.9981 0.879 -0.214 0.426 229 218 212 0
-14.3865 31.7415 -55.0085 0.375 0.034 0.926 220 209 203 0
-15.5590 32.3765 -55.4556 0.318 -0.008 0.948 219 207 198 0
4.2544 30.5105 -46.8333 0.966 0.032 0.258 118 85 88 0
1.7902 31.6234 -47.7996 0.442 -0.892 -0.097 115 79 83 0
3.0835 31.3981 -47.2493 0.853 -0.517 0.069 113 74 77 0
1.9068 32.7789 -47.6085 0.659 -0.578 -0.482 108 67 71 0
1.7911 33.0621 -47.6261 0.676 -0.515 -0.527 105 62 68 0
-0.3004 34.0807 -48.4374 0.715 -0.548 0.435 106 61 68 0
2.1747 33.4009 -47.4141 0.525 -0.834 0.167 105 60 64 0
6.5665 32.2216 -45.5950 0.792 -0.349 0.502 101 56 59 0
6.6797 33.3410 -45.4097 0.950 -0.250 0.190 94 48 50 0
10.2251 37.4672 -43.3302 0.977 -0.104 -0.186 77 25 21 0
11.1371 37.7593 -42.8878 0.821 -0.564 0.095 76 24 17 0
9.6769 42.7087 -42.9442 0.885 -0.181 -0.429 61 19 17 0
9.8668 42.8571 -42.8416 0.859 -0.299 -0.415 59 19 16 0
10.2374 46.5707 -42.2292 0.793 -0.486 -0.368 52 23 21 0
12.9576 45.3704 -41.1591 0.411 -0.812 0.415 51 22 19 0
-0.0205 60.8684 -45.0890 0.851 -0.509 -0.130 131 114 91 0
0.0818 61.0899 -45.0166 0.940 -0.241 0.242 133 117 94 0
0.1802 61.3137 -44.9458 0.936 -0.237 0.260 137 122 99 0
-1.0757 68.5045 -44.6412 0.266 -0.346 0.900 73 119 82 0
-0.9947 68.7472 -44.5759 0.266 -0.360 0.894 72 119 82 0
-0.9460 69.0116 -44.5223 0.268 -0.355 0.896 70 119 80 0
-1.1583 73.0657 -44.1292 0.959 0.276 -0.057 62 116 70 0
2.9759 77.0032 -41.8094 -0.069 -0.982 0.178 95 124 92 0
12.5360 71.8914 -38.1559 0.112 -0.040 0.993 183 177 163 0
5.0598 82.0702 -40.2692 0.511 -0.693 -0.508 189 180 171 0
8.7816 93.8482 -37.1901 0.795 -0.571 -0.203 181 171 159 0
30.5892 90.5154 -27.8539 0.422 -0.843 -0.334 166 149 138 0
30.8057 90.5444 -27.7537 0.435 -0.833 -0.341 164 147 137 0
30.9944 90.6055 -27.6621 0.435 -0.833 -0.341 162 146 135 0
-1.9977 -4.9661 -54.1312 0.119 -0.493 0.862 225 217 207 0
-19.2379 -1.4658 -61.4452 0.871 -0.356 0.338 226 217 208 0
-23.6161 -0.9961 -63.3527 0.528 -0.802 0.279 226 217 209 0
-24.3153 -0.7182 -63.6332 0.900 -0.326 0.290 227 218 210 0
-20.7597 -0.6846 -62.0344 0.080 -0.807 0.586 228 219 211 0
-19.8368 -0.5056 -61.5990 0.093 -0.635 0.767 229 220 211 0
-14.2558 32.0290 -55.2048 0.816 0.168 0.552 218 209 199 0
2.8866 32.0029 -47.5191 0.307 -0.742 -0.596 110 72 77 0
1.3486 32.8036 -48.1132 0.863 -0.393 0.317 108 69 75 0
1.8137 32.8740 -47.8961 0.928 -0.330 0.171 109 68 74 0
1.1968 33.3432 -48.1167 0.786 -0.606 0.121 106 65 71 0
1.4323 33.4980 -47.9926 0.777 -0.618 0.122 106 64 69 0
2.2165 33.4466 -47.6470 0.548 -0.822 0.157 104 61 65 0
6.3557 32.3609 -45.9203 0.823 -0.126 0.554 102 56 61 0
6.3685 32.5888 -45.8873 0.823 -0.126 0.554 100 54 59 0
6.8655 32.6314 -45.6593 0.993 0.106 0.050 99 53 59 0
4.6257 36.8394 -46.1606 0.999 -0.048 -0.007 84 39 36 0
10.4461 37.4334 -43.4790 0.996 0.084 0.033 75 26 21 0
11.3625 37.7222 -43.0334 0.773 -0.543 0.327 76 25 19 0
9.6790 43.0192 -43.1550 0.889 -0.179 -0.420 60 22 17 0
9.8361 46.3625 -42.6847 0.404 -0.890 -0.212 52 22 20 0
10.1695 46.6801 -42.4972 0.793 -0.481 -0.375 50 22 19 0
0.5241 60.0631 -45.2229 0.980 -0.056 -0.193 122 105 79 0
0.1692 67.1840 -44.5304 0.675 -0.730 -0.102 65 115 73 0
1.0130 67.4987 -44.1143 0.674 -0.730 -0.108 64 119 74 0
1.2294 67.6454 -43.9997 0.694 -0.709 -0.124 64 119 74 0
-1.4662 69.7608 -44.9558 0.721 0.114 0.683 63 118 74 0
-0.9233 70.2899 -44.6490 0.687 0.404 0.605 63 117 72 0
-1.2355 70.8039 -44.7276 0.764 0.374 0.526 63 116 71 0
-1.1339 71.0348 -44.6544 0.548 -0.542 0.637 64 117 71 0
-0.3695 70.8070 -44.3387 0.409 -0.601 0.687 62 117 69 0
-4.0936 77.7579 -45.1778 0.607 0.647 0.462 58 115 69 0
13.2034 71.4649 -38.1723 0.047 -0.187 0.981 181 178 163 0
12.7280 104.9810 -34.3771 0.569 0.530 0.629 175 161 148 0
11.5469 106.6405 -34.7084 0.569 0.530 0.629 175 160 148 0
9.0397 110.4980 -35.3716 0.434 0.377 0.819 164 150 139 0
37.7806 80.3014 -26.0919 0.507 -0.738 -0.445 167 155 143 0
30.6123 90.6141 -28.0738 0.422 -0.843 -0.334 164 149 138 0
30.8267 90.6456 -27.9738 0.435 -0.833 -0.341 164 147 137 0
31.0117 90.7111 -27.8830 0.430 -0.837 -0.339 163 147 136 0
-1.8608 -5.5334 -54.3743 0.944 -0.140 -0.298 225 212 208 0
-2.2940 -5.3246 -54.5447 0.410 -0.828 0.383 225 214 208 0
-2.0637 -5.1335 -54.4182 0.412 -0.825 0.386 226 216 209 0
-1.3781 -4.7602 -54.0650 0.959 0.263 0.102 227 218 209 0
-12.6802 -3.7427 -59.0362 -0.184 -0.828 0.529 226 217 208 0
-19.4348 -1.6514 -61.8308 0.903 -0.392 0.178 227 218 211 0
-19.1222 -1.4371 -61.6645 0.890 -0.425 0.163 227 218 209 0
-21.0966 -1.0981 -62.5138 0.439 -0.509 0.741 227 219 210 0
-20.0744 -0.9216 -62.0323 0.347 -0.535 0.771 228 219 210 0
-19.7587 -0.7072 -61.8646 0.275 -0.617 0.738 229 220 211 0
-29.9104 4.9493 -65.7661 0.287 -0.824 -0.488 228 219 213 0
-15.0632 33.4212 -55.6927 0.965 0.064 0.254 211 200 196 0
2.2545 32.0540 -48.0528 0.791 -0.597 -0.133 112 77 80 0
2.1505 32.8108 -48.0097 0.792 0.273 0.545 108 68 73 0
1.8146 33.4171 -48.0889 0.955 -0.295 -0.021 108 66 71 0
2.2718 33.4873 -47.8746 0.986 -0.052 -0.159 106 63 70 0
4.5720 32.8608 -46.9127 0.652 -0.710 -0.264 105 60 68 0
6.4973 32.5995 -46.0764 0.823 -0.126 0.554 100 54 63 0
6.7752 32.7258 -45.9361 0.995 0.065 0.078 98 53 61 0
7.2352 33.0131 -45.6948 0.884 -0.409 0.227 97 52 57 0
5.0205 36.7402 -46.2496 0.838 -0.536 0.103 84 39 36 0
11.7372 38.0811 -43.0640 0.680 -0.695 0.233 75 25 23 0
11.7135 38.3241 -43.0459 0.851 -0.520 -0.070 74 23 22 0
9.6433 40.9376 -43.6680 0.960 0.155 -0.235 65 20 17 0
9.5504 42.9099 -43.4754 0.877 -0.253 -0.408 58 22 16 0
9.7260 43.0658 -43.3777 0.894 -0.132 -0.428 58 22 16 0
11.5950 45.7534 -42.2162 0.738 -0.416 -0.531 49 22 19 0
11.7471 45.9161 -42.1284 0.739 -0.309 -0.598 48 21 18 0
0.7479 58.8946 -45.5414 0.883 -0.460 0.095 109 93 70 0
0.6062 59.2591 -45.5620 0.929 -0.365 -0.063 112 94 70 0
0.6771 59.7786 -45.4683 0.924 0.110 0.366 120 100 73 0
0.6337 60.0863 -45.4512 0.924 0.110 0.366 123 104 78 0
-5.4254 64.3387 -47.6757 0.680 0.720 -0.135 133 118 92 0
0.0855 67.3369 -44.8365 0.708 -0.666 0.233 61 114 70 0
0.0045 67.6847 -44.8316 0.642 -0.691 0.332 60 115 68 0
0.4385 67.6886 -44.6356 0.608 -0.752 0.254 60 116 69 0
-0.6863 68.7383 -45.0176 0.628 -0.677 0.383 59 116 70 0
-1.0674 69.2925 -45.1235 0.677 -0.676 0.291 60 116 71 0
14.1947 60.8183 -39.2544 0.096 -0.030 0.995 63 117 68 0
16.7428 60.0760 -38.1946 0.153 -0.275 0.949 57 113 64 0
29.6444 70.7345 -31.1150 0.555 -0.771 0.311 186 174 162 0
33.1681 77.2374 -28.7545 0.291 0.285 0.914 175 164 153 0
12.7204 105.1334 -34.6516 0.521 0.467 0.715 175 161 148 0
9.2556 110.7545 -35.5445 0.422 0.364 0.830 164 151 140 0
38.7981 78.7220 -26.0415 0.815 -0.058 -0.576 167 154 142 0
36.6432 82.5264 -26.5602 0.694 -0.512 0.507 166 152 139 0
32.4693 88.5374 -27.7263 0.973 -0.171 -0.155 163 149 137 0
32.5164 88.7616 -27.6784 0.973 -0.171 -0.155 164 147 137 0
31.0336 90.8115 -28.1028 0.430 -0.837 -0.339 163 147 136 0
-1.7621 -5.5082 -54.5638 0.859 -0.483 -0.170 224 211 207 0
-30.6492 5.0609 -66.3888 0.287 -0.824 -0.488 228 219 213 0
-14.9343 32.6381 -56.0195 0.979 0.065 -0.192 218 209 200 0
1.2663 32.7141 -48.6786 0.282 -0.732 -0.620 112 78 81 0
1.9217 32.7154 -48.3819 0.282 -0.732 -0.620 109 73 77 0
1.7882 33.0054 -48.4080 0.538 -0.685 -0.491 107 69 74 0
2.2205 33.5681 -48.1459 0.957 0.123 -0.263 107 64 71 0
5.3138 36.6828 -46.3781 0.341 -0.868 0.361 85 40 37 0
5.8222 36.7115 -46.1446 0.315 -0.927 0.206 83 38 35 0
10.3483 37.3713 -44.0183 0.599 -0.761 0.248 77 30 26 0
11.2753 38.1227 -43.5101 0.782 -0.623 -0.017 73 24 20 0
11.5809 38.2167 -43.3606 0.729 -0.684 0.004 75 26 23 0
11.5681 38.4553 -43.3383 0.829 -0.553 0.082 73 25 22 0
11.8868 45.9144 -42.3130 0.874 -0.280 -0.396 46 22 18 0
0.2619 58.9905 -46.0296 0.927 0.133 -0.352 107 90 67 0
0.9372 58.8701 -45.7382 0.898 -0.403 0.179 109 93 68 0
0.5336 59.3910 -45.8594 0.809 -0.530 0.254 111 94 69 0
0.3992 59.7528 -45.8774 0.775 -0.427 0.467 116 98 72 0
-1.5487 68.2235 -45.7585 0.464 0.702 0.540 62 115 72 0
-2.6035 69.2230 -46.1178 0.462 0.700 0.545 59 114 69 0
16.7321 59.9144 -38.4666 0.946 0.144 0.289 55 113 63 0
18.7957 58.7179 -37.6740 0.766 -0.052 0.641 55 113 64 0
14.4207 62.5895 -39.1967 0.041 -0.733 0.679 54 112 66 0
15.2685 71.9608 -37.7062 0.506 -0.273 0.818 185 179 167 0
10.7462 108.8656 -35.3938 0.358 0.284 0.890 162 148 139 0
10.0153 110.0421 -35.5856 0.383 0.338 0.860 163 150 140 0
38.6906 79.2127 -26.2495 0.864 -0.059 -0.501 165 153 141 0
36.8042 82.4534 -26.7205 0.800 -0.512 0.311 167 153 140 0
32.4555 88.6776 -27.9534 0.974 -0.160 -0.161 163 149 138 0
32.5007 88.9044 -27.9061 0.974 -0.160 -0.161 163 148 137 0
31.1275 90.8262 -28.3006 0.557 -0.777 -0.292 163 147 136 0
-2.0460 -5.4730 -54.9259 0.898 -0.411 -0.156 225 212 208 0
-17.1736 34.7862 -57.0775 0.956 0.293 -0.015 213 199 191 0
-17.5016 35.1699 -57.1815 0.747 -0.664 -0.003 211 198 189 0
-4.0581 33.9625 -51.2120 0.858 -0.488 0.159 124 95 93 0
-0.3436 33.6089 -49.5649 0.605 -0.238 -0.760 110 77 79 0
5.6759 32.5642 -46.9511 0.665 -0.281 -0.692 104 63 67 0
3.1823 34.7107 -47.8327 0.925 -0.220 -0.309 96 55 58 0
3.1675 34.9581 -47.8104 0.607 -0.715 -0.347 95 53 55 0
6.9930 35.8124 -45.9711 0.714 -0.554 0.428 89 44 40 0
14.3289 38.3944 -42.3332 0.806 -0.577 -0.127 64 22 16 0
5.5636 44.7608 -45.5706 0.788 -0.222 0.574 57 23 16 0
-2.5757 61.3385 -47.3249 0.617 0.770 0.166 109 94 69 0
15.0848 71.9339 -38.0530 0.579 -0.163 0.799 180 178 163 0
32.4916 88.7588 -28.1653 0.990 -0.066 -0.123 163 149 138 0
32.4830 89.0500 -28.1350 0.973 -0.155 -0.169 162 148 137 0
31.1506 90.9255 -28.5206 0.557 -0.777 -0.292 162 147 136 0
31.3169 91.0125 -28.4347 0.557 -0.777 -0.292 104 96 90 0
-10.5447 -6.4871 -59.1629 0.777 -0.618 0.120 221 212 205 0
-1.9713 -5.8414 -55.1728 0.581 -0.802 0.138 223 214 205 0
-2.5303 -5.6305 -55.4035 0.158 -0.942 0.295 224 214 206 0
-1.8692 -5.4498 -55.0805 0.931 -0.353 -0.094 226 213 209 0
-1.6755 -5.2579 -54.9697 0.910 -0.410 -0.064 225 214 208 0
-17.2365 34.5983 -57.4268 0.951 -0.090 0.296 213 202 195 0
-17.2610 34.8815 -57.4050 0.670 -0.636 0.383 214 200 192 0
-17.2880 35.1659 -57.3841 0.435 -0.752 0.495 212 198 190 0
-4.2821 34.1063 -51.5689 0.982 -0.114 0.152 130 104 100 0
-2.9889 33.8917 -51.0035 0.738 0.001 -0.675 120 94 91 0
-2.1026 33.8199 -50.6071 0.605 -0.300 -0.737 118 89 88 0
-1.9070 33.9975 -50.4971 0.628 -0.262 -0.733 117 86 86 0
3.0530 34.8237 -48.1359 0.834 -0.307 -0.458 100 60 61 0
6.7568 35.9732 -46.3106 0.673 -0.545 0.501 90 46 43 0
9.4962 39.5355 -44.6443 0.973 -0.054 -0.223 70 30 19 0
5.7492 44.7421 -45.7480 0.785 -0.217 0.581 57 24 16 0
-0.3393 67.6178 -45.8602 0.791 -0.581 -0.194 53 109 62 0
0.1326 67.8932 -45.6126 0.769 -0.606 -0.202 53 112 65 0
3.2363 72.2339 -43.6891 0.803 0.530 0.272 52 111 64 0
3.0265 72.6840 -43.7325 0.882 0.353 0.311 53 112 65 0
32.8825 59.1893 -31.6735 0.380 -0.275 0.883 186 179 167 0
29.4898 80.9230 -30.6879 0.700 -0.345 -0.625 175 166 151 0
11.1176 109.0874 -35.7922 0.468 0.410 0.783 162 149 140 0
37.5924 81.4962 -26.9212 0.594 -0.726 -0.348 167 153 142 0
32.4694 88.9094 -28.3959 0.991 -0.069 -0.119 165 151 140 0
32.4633 89.1982 -28.3650 0.971 -0.164 -0.173 163 149 138 0
31.1737 91.0249 -28.7408 0.557 -0.777 -0.292 163 148 136 0
31.3401 91.1119 -28.6547 0.557 -0.777 -0.292 105 97 90 0
-1.8369 -5.2253 -55.2778 0.944 -0.330 -0.028 226 215 209 0
-11.7684 30.2500 -55.7218 0.857 -0.468 0.218 226 217 210 0
-11.7145 30.4936 -55.6688 0.853 -0.480 0.207 225 216 209 0
-11.2454 30.8678 -55.4103 0.949 0.280 0.146 222 214 207 0
-14.8899 32.2794 -56.9183 0.822 -0.185 -0.539 221 213 206 0
-15.0157 32.8564 -56.9091 0.967 -0.095 -0.238 220 212 205 0
-14.8657 34.1565 -56.6897 0.813 -0.511 0.279 214 201 195 0
-2.3759 34.2323 -50.9524 0.737 -0.183 -0.651 122 91 90 0
-1.0282 34.9790 -50.2478 0.961 -0.220 0.170 109 73 77 0
-0.5828 35.0592 -50.0342 0.350 -0.761 -0.546 107 72 76 0
-0.6275 36.0729 -49.9373 0.937 0.055 0.346 103 64 68 0
2.6636 35.0385 -48.5477 0.853 -0.281 -0.441 103 63 64 0
6.9804 35.9439 -46.4629 0.755 -0.555 0.350 90 46 43 0
9.7667 39.0028 -44.8304 0.815 -0.568 -0.116 73 36 21 0
5.8357 43.7680 -46.0812 0.570 -0.419 0.706 56 25 15 0
5.7726 44.0490 -46.0775 0.533 -0.525 0.663 54 24 14 0
5.9025 44.4878 -45.9671 0.612 -0.041 0.790 54 26 15 0
5.5534 44.9107 -46.0782 0.800 -0.196 0.568 54 25 16 0
-2.8049 60.7896 -48.0716 0.841 0.469 -0.269 98 84 63 0
1.6634 65.5146 -45.4747 0.507 0.311 0.804 53 109 65 0
-0.3266 67.4121 -46.1675 0.717 -0.664 -0.211 53 109 62 0
16.3985 60.4123 -39.3077 0.945 -0.299 0.133 52 111 65 0
16.7920 61.4262 -39.0098 0.607 0.050 0.793 51 110 62 0
16.3641 61.9937 -39.1402 0.642 -0.132 0.756 50 109 61 0
3.2963 72.2933 -43.9402 0.810 0.523 0.264 51 110 62 0
15.4932 70.9754 -38.4989 0.018 -0.077 0.997 171 175 156 0
15.3402 71.3752 -38.5227 0.125 0.079 0.989 174 175 157 0
21.7053 67.5362 -36.0482 0.970 0.173 -0.172 183 176 166 0
19.8241 74.4985 -36.1042 0.131 -0.941 -0.312 184 173 167 0
9.5938 99.0518 -37.9510 0.146 -0.975 0.166 177 165 153 0
9.8558 99.1127 -37.8238 0.146 -0.975 0.166 179 167 155 0
38.3998 79.3732 -27.0196 0.386 0.367 0.847 170 158 146 0
37.6663 81.5243 -27.1067 0.585 -0.734 -0.343 168 154 143 0
32.4036 89.1125 -28.6411 0.975 -0.114 -0.192 164 150 139 0
32.4346 89.3576 -28.5985 0.974 -0.112 -0.199 163 149 138 0
31.1968 91.1245 -28.9615 0.557 -0.777 -0.292 163 148 137 0
31.3633 91.2115 -28.8750 0.557 -0.777 -0.292 105 97 90 0
31.9168 91.6898 -28.5657 0.466 -0.770 -0.436 254 255 254 0
-11.2343 -6.4176 -59.9827 0.754 -0.647 0.114 223 211 204 0
-11.0095 -4.2931 -59.6345 -0.125 -0.902 0.413 228 217 211 0
-11.1658 29.8666 -55.7734 0.724 -0.557 0.408 225 218 212 0
-11.6492 30.2745 -55.9491 0.824 -0.501 0.264 223 216 209 0
-11.5356 30.4996 -55.8709 0.859 -0.465 0.214 224 217 209 0
-4.0224 34.1396 -51.9906 0.878 -0.192 0.439 137 115 110 0
-3.7869 34.5602 -51.8336 0.795 -0.578 0.182 124 97 94 0
-2.8384 34.4653 -51.4076 0.688 -0.713 -0.138 123 93 91 0
-2.3903 34.5514 -51.1913 0.692 -0.701 -0.172 122 92 92 0
-1.2215 34.3684 -50.6739 0.604 -0.302 -0.738 120 89 89 0
-1.5141 34.9762 -50.7387 0.847 -0.455 0.274 113 80 83 0
-0.8860 34.9891 -50.4479 0.786 -0.470 0.401 110 75 80 0
-0.5029 35.0926 -50.2595 0.319 -0.819 -0.477 109 74 79 0
1.8490 35.6653 -49.1101 0.281 -0.957 0.070 104 63 66 0
9.9349 39.2292 -44.9747 0.879 -0.384 -0.284 73 35 22 0
12.7971 39.0774 -43.6736 0.907 -0.417 0.065 64 30 20 0
6.1142 44.4563 -46.1330 0.612 -0.041 0.790 54 26 15 0
5.6933 44.9146 -46.2741 0.802 -0.221 0.555 53 26 16 0
4.8393 52.8672 -45.7519 0.909 -0.303 0.286 36 33 21 0
-3.1707 60.2285 -48.5944 0.611 -0.222 -0.759 81 71 53 0
-3.1886 60.5281 -48.5681 0.617 -0.219 -0.755 89 78 59 0
-3.5252 61.0165 -48.6669 0.639 -0.169 -0.750 91 83 62 0
-1.6392 66.0050 -47.2237 0.911 0.081 -0.404 46 103 64 0
6.7545 74.2455 -42.4081 0.875 0.290 -0.388 59 115 71 0
18.1650 70.8166 -37.5463 0.617 -0.469 0.632 181 174 164 0
13.2210 76.9105 -39.1222 0.877 0.025 0.480 187 177 167 0
23.6858 78.7764 -34.0865 0.796 0.123 0.593 185 176 166 0
9.2643 98.8638 -38.4173 0.434 -0.049 0.899 178 167 155 0
9.3849 99.0715 -38.3379 0.586 0.283 0.759 179 167 155 0
9.8441 98.9304 -38.1425 0.299 -0.527 0.795 179 166 155 0
30.5691 80.5470 -30.7116 0.709 0.375 -0.597 176 164 152 0
15.6584 102.8773 -35.0096 0.514 0.476 0.714 176 162 152 0
14.6740 104.3217 -35.2967 0.510 0.477 0.716 175 161 152 0
11.4149 110.0863 -36.1344 0.592 0.408 0.696 168 157 145 0
38.5161 79.6074 -27.1587 0.384 0.270 0.883 169 157 145 0
37.6167 81.6977 -27.3324 0.580 -0.763 -0.285 169 152 142 0
22.5712 99.7167 -32.1889 0.613 -0.679 -0.404 168 151 141 0
21.8689 100.8621 -32.3805 0.689 -0.601 -0.405 164 150 140 0
32.4249 89.4944 -28.8265 0.974 -0.118 -0.194 163 149 138 0
31.2148 91.2305 -29.1841 0.555 -0.775 -0.304 163 148 136 0
31.5939 92.2116 -28.8964 0.447 -0.808 -0.384 254 255 255 0
-11.4297 -6.3850 -60.3263 0.830 -0.354 0.432 224 213 206 0
-11.5797 -5.9567 -60.3467 0.339 -0.612 0.715 223 214 205 0
1.9695 -2.1861 -53.6460 0.367 -0.776 -0.513 229 220 212 0
2.6206 -2.0286 -53.3267 0.365 -0.779 -0.510 228 219 211 0
-14.3612 32.5070 -57.2338 0.989 0.100 0.105 221 214 206 0
-3.7257 33.8436 -52.1597 0.925 -0.351 -0.145 180 163 154 0
-3.6256 34.0598 -52.0886 0.804 -0.583 0.119 155 136 129 0
-3.6479 34.3204 -52.0691 0.836 -0.544 0.072 134 114 108 0
-3.7083 34.5953 -52.0656 0.795 -0.578 0.182 127 104 99 0
-2.9841 34.8346 -51.7031 0.995 -0.021 -0.096 122 95 92 0
-3.0151 35.0987 -51.6873 0.917 0.397 -0.046 121 93 91 0
-2.9882 35.3415 -51.6471 0.798 0.602 0.040 119 88 88 0
-0.5224 35.4127 -50.4979 0.888 -0.386 0.251 111 76 80 0
3.0002 34.3062 -48.9946 0.890 -0.334 0.309 109 74 77 0
-0.5940 35.9393 -50.4708 0.857 0.479 0.190 107 71 74 0
-0.2540 36.0571 -50.3000 0.941 0.052 0.335 104 68 70 0
3.0231 35.0241 -48.9019 0.872 -0.410 0.269 102 65 66 0
12.2191 38.0164 -44.3044 0.980 0.192 0.052 75 38 23 0
10.3667 39.0975 -45.0379 0.978 -0.207 -0.010 74 37 24 0
12.4557 39.3033 -44.0477 0.948 -0.228 -0.222 64 33 20 0
5.6675 45.0000 -46.5371 0.801 -0.178 0.571 52 27 17 0
5.2251 45.9806 -46.6296 0.790 -0.017 -0.612 46 26 15 0
3.5776 48.8850 -47.0597 0.676 -0.609 -0.414 44 26 16 0
4.8985 50.8042 -46.2290 0.746 0.638 -0.194 38 27 23 0
-3.1073 60.2816 -48.8492 0.873 0.487 -0.014 74 65 47 0
-4.3289 61.2899 -49.2991 0.576 -0.677 0.458 80 74 55 0
-6.6378 62.9474 -50.1779 0.096 -0.957 0.275 81 80 58 0
-1.5393 65.7422 -47.4990 0.654 -0.421 -0.629 42 101 62 0
3.2544 64.6572 -45.4050 0.914 0.199 0.354 52 110 64 0
4.2669 64.2730 -44.9804 0.419 -0.756 0.504 50 109 62 0
17.1897 61.3190 -39.3388 0.776 0.003 0.631 49 109 61 0
17.8606 61.6090 -38.9952 0.404 -0.741 0.536 50 109 61 0
17.1503 64.2189 -39.0253 0.653 -0.658 -0.374 51 111 63 0
8.0763 73.9159 -42.1147 0.842 -0.119 -0.526 59 114 75 0
11.9381 81.0602 -39.5105 0.871 -0.259 -0.417 186 177 169 0
12.0347 81.2736 -39.4414 0.871 -0.259 -0.417 186 176 168 0
16.8728 89.3744 -36.2761 0.608 -0.782 -0.141 179 169 157 0
14.6418 104.8356 -35.5397 0.505 0.485 0.714 170 156 147 0
10.8784 110.1592 -36.6721 0.573 0.545 0.613 163 150 141 0
12.1945 109.3376 -36.1571 0.609 0.369 0.703 168 154 143 0
21.7905 101.0950 -32.6598 0.618 -0.779 -0.110 165 151 140 0
32.4320 89.6114 -29.0495 0.983 -0.042 -0.176 162 148 136 0
31.2360 91.3328 -29.4060 0.555 -0.775 -0.304 163 148 135 0
31.4036 91.4185 -29.3186 0.555 -0.775 -0.304 105 97 90 0
31.6066 92.3254 -29.1209 0.447 -0.808 -0.384 254 255 255 0
-11.2211 -5.9344 -60.4359 0.350 -0.610 0.710 224 215 207 0
-12.4135 -5.6949 -60.9628 0.528 -0.455 0.717 223 214 205 0
-14.7188 -5.4243 -62.0035 0.302 -0.947 -0.108 224 215 206 0
-11.4229 -5.2898 -60.4564 0.525 -0.846 -0.094 226 217 208 0
-10.4867 -4.4627 -59.9273 0.078 -0.860 0.504 223 212 206 0
-15.3977 32.6321 -57.9940 0.946 0.116 0.303 222 215 207 0
-14.5532 32.6323 -57.6015 0.988 0.103 -0.117 222 215 207 0
-14.3623 32.8396 -57.4892 1.000 0.027 -0.011 222 215 207 0
-3.7483 33.6627 -52.4628 0.974 -0.154 -0.164 187 171 163 0
-3.5970 33.8606 -52.3700 0.943 -0.277 -0.185 183 169 159 0
-3.4194 34.0487 -52.2661 0.881 -0.454 0.131 178 163 153 0
-3.4399 34.3084 -52.2461 0.860 -0.468 0.205 159 143 133 0
-3.5531 34.6025 -52.2653 0.800 -0.578 0.161 135 118 109 0
-3.3487 35.0337 -52.1213 0.948 0.292 -0.127 122 100 94 0
-3.4236 35.3151 -52.1241 0.894 0.442 -0.079 122 97 93 0
-3.4007 35.5606 -52.0856 0.745 0.663 0.070 124 96 93 0
-3.6092 35.8935 -52.1446 0.783 0.620 0.035 123 93 91 0
0.8825 35.1849 -50.1376 0.511 -0.447 -0.734 115 81 81 0
-0.1625 35.8368 -50.5492 0.884 0.241 0.400 111 77 76 0
1.4656 35.4516 -49.8363 0.772 -0.174 0.612 107 73 72 0
2.2140 36.3862 -49.3823 0.395 -0.757 0.520 103 66 63 0
12.2503 38.9981 -44.4210 0.314 -0.889 0.332 70 39 24 0
6.9054 42.7206 -46.4820 0.907 -0.402 0.129 62 34 21 0
4.6796 46.5840 -47.0774 0.934 -0.176 0.310 46 27 17 0
2.5894 48.1589 -47.8699 0.703 -0.633 -0.324 45 26 18 0
2.7863 48.3211 -47.7599 0.703 -0.633 -0.324 45 26 19 0
2.9355 48.5071 -47.6695 0.716 -0.635 -0.290 44 27 17 0
6.1040 48.1630 -46.2360 -0.070 -0.352 0.933 40 27 18 0
4.1243 51.8334 -46.7389 0.769 -0.213 -0.603 36 29 21 0
4.9415 52.9723 -46.2297 0.686 -0.727 -0.042 34 34 22 0
-3.3758 59.9503 -49.3022 0.856 0.508 -0.098 60 61 42 0
-2.7392 59.8677 -49.0157 0.870 0.480 0.114 61 64 43 0
-6.9377 63.2187 -50.5861 0.019 -0.449 0.893 67 80 54 0
3.3378 64.6967 -45.6426 0.914 0.199 0.354 47 109 64 0
2.0491 65.8364 -46.1120 0.760 -0.235 0.606 46 109 62 0
1.1156 66.7470 -46.4424 0.481 -0.390 0.785 48 109 64 0
10.5586 63.4385 -42.4297 0.231 0.345 0.910 48 110 63 0
13.9071 62.7048 -40.9569 0.369 0.450 0.813 49 111 62 0
17.9776 61.8718 -39.1598 0.170 0.052 0.984 48 110 61 0
17.1686 64.0346 -39.2899 0.683 -0.697 -0.219 49 111 62 0
20.8261 62.0634 -37.8141 0.876 -0.136 -0.463 50 112 63 0
21.0032 62.1838 -37.7181 0.831 -0.454 -0.323 50 111 63 0
10.4313 71.6188 -41.5592 0.522 0.662 0.538 55 110 69 0
8.3872 73.7792 -42.2637 0.817 -0.145 -0.558 57 112 72 0
11.5517 81.5123 -39.9142 0.959 0.020 -0.282 187 178 169 0
9.7277 99.6549 -38.7000 0.122 -0.814 0.568 179 167 156 0
16.0943 102.9965 -35.3614 0.494 0.467 0.734 174 161 152 0
14.1511 105.8754 -35.9373 0.522 0.480 0.705 162 149 140 0
11.2390 110.5927 -36.7546 0.607 0.493 0.623 168 154 143 0
22.2204 100.4089 -32.8083 0.262 -0.815 0.517 168 151 141 0
32.4032 89.4885 -29.3169 0.985 -0.025 -0.172 165 151 138 0
32.4305 89.7389 -29.2757 0.985 0.003 -0.170 164 150 137 0
31.2572 91.4352 -29.6282 0.555 -0.775 -0.304 164 150 136 0
31.4250 91.5209 -29.5405 0.555 -0.775 -0.304 106 98 91 0
31.6198 92.4388 -29.3457 0.445 -0.811 -0.380 254 255 255 0
-15.2544 -5.6007 -62.5388 0.600 -0.742 0.298 224 215 206 0
-14.6249 -5.3958 -62.2219 0.321 -0.944 -0.081 224 215 206 0
-10.2808 -4.6519 -60.1101 0.613 -0.428 0.664 225 214 207 0
-9.9568 -4.4495 -59.9360 0.057 -0.873 0.484 225 214 208 0
1.4409 -2.8805 -54.4385 0.901 0.059 -0.429 230 219 217 0
-15.0885 32.5981 -58.1488 0.957 0.107 0.269 222 217 209 0
-14.3502 32.6315 -57.8004 0.999 0.036 -0.002 222 217 210 0
-14.7799 33.0384 -57.9551 0.992 -0.122 0.019 222 216 209 0
-0.6872 30.1889 -51.6984 0.984 0.148 0.096 212 203 196 0
-3.5933 33.6703 -52.6619 0.692 -0.657 0.300 190 176 167 0
-3.4137 33.8578 -52.5569 0.668 -0.678 0.309 185 172 162 0
-3.3168 35.0862 -52.3730 0.994 0.017 -0.111 131 112 105 0
-3.4445 35.3875 -52.3986 0.910 0.414 -0.015 128 107 100 0
-3.5383 35.6771 -52.4097 0.797 0.601 0.061 125 101 95 0
-3.4056 35.8818 -52.3246 0.985 0.087 0.149 125 98 94 0
-2.0843 35.6354 -51.7357 0.330 -0.779 -0.533 126 92 94 0
-0.5982 36.0705 -50.9928 0.484 -0.569 -0.665 114 82 80 0
2.8338 34.9814 -49.5138 0.991 -0.022 0.129 111 78 75 0
2.8435 35.2210 -49.4822 0.995 0.064 -0.081 107 77 73 0
13.1760 38.8637 -44.2478 0.384 -0.304 0.872 72 42 20 0
13.5213 39.1649 -44.0526 0.238 -0.965 0.113 68 41 20 0
4.5590 46.7195 -47.3832 0.984 -0.105 0.145 46 30 17 0
5.2309 46.8932 -47.0500 0.671 -0.013 0.741 43 28 16 0
1.2614 49.9765 -48.5548 0.977 0.185 0.110 42 30 18 0
8.0588 48.2256 -45.5795 0.234 -0.562 0.793 39 27 22 0
9.6589 47.6210 -44.9009 0.950 -0.311 0.013 39 28 23 0
8.4402 48.5284 -45.3673 0.987 -0.146 -0.067 39 29 25 0
4.9628 53.0418 -46.4810 0.680 -0.732 -0.039 33 36 24 0
-6.7227 63.1854 -50.7905 0.039 -0.482 0.875 44 74 45 0
-6.6415 63.4369 -50.7241 0.039 -0.510 0.859 41 77 45 0
2.5695 66.4546 -46.0838 0.559 -0.795 0.236 47 109 62 0
9.0378 67.0959 -42.9921 0.503 0.181 0.845 48 111 62 0
20.6696 62.2718 -38.1071 0.911 -0.412 0.010 48 111 62 0
18.0668 69.2979 -38.5288 0.113 0.064 0.992 78 119 88 0
22.3888 80.3627 -35.2621 0.817 0.539 -0.207 182 174 164 0
16.2362 87.8231 -37.2919 0.493 -0.838 0.235 183 174 162 0
8.1426 101.0969 -39.5713 0.680 -0.732 -0.039 179 169 159 0
10.5691 99.5814 -38.6097 0.368 -0.193 0.910 179 167 156 0
16.3760 103.1472 -35.4965 0.450 0.480 0.753 174 161 150 0
15.0275 105.0189 -35.9147 0.427 0.459 0.779 164 151 142 0
13.8444 106.7107 -36.2759 0.450 0.481 0.753 161 147 139 0
11.9944 109.8706 -36.7828 0.499 0.451 0.740 168 154 145 0
10.5913 111.8464 -37.2147 0.485 0.507 0.713 168 154 144 0
22.6770 100.3226 -32.8741 0.380 -0.795 0.473 164 150 138 0
32.3768 89.6458 -29.5518 0.984 0.001 -0.179 166 152 138 0
32.4119 89.8874 -29.5081 0.990 0.019 -0.140 164 150 137 0
31.2785 91.5378 -29.8508 0.555 -0.775 -0.304 164 150 136 0
31.4464 91.6235 -29.7628 0.555 -0.775 -0.304 106 98 91 0
-11.8945 -6.2888 -61.3076 0.659 -0.653 -0.372 225 213 208 0
-15.8725 -5.9977 -63.1399 0.655 -0.714 -0.246 225 214 208 0
-16.3102 -5.7677 -63.3193 0.542 -0.431 0.722 224 215 208 0
-15.4734 -5.5649 -62.9043 0.624 -0.563 0.541 224 215 207 0
-9.6668 -5.0641 -60.1258 0.735 -0.556 0.387 228 218 209 0
-10.4667 -4.8288 -60.4744 0.893 -0.150 0.424 224 215 206 0
-10.2858 -4.6212 -60.3663 0.917 -0.344 0.199 224 215 207 0
-9.6513 29.6439 -56.2260 0.853 0.357 0.381 222 219 212 0
-0.4474 29.6835 -51.9065 0.839 -0.460 0.292 216 210 204 0
-0.7719 30.2766 -51.9920 0.897 0.196 0.397 213 205 198 0
-3.3045 33.8817 -52.7751 0.645 -0.701 0.305 188 174 165 0
-3.1275 34.0696 -52.6711 0.649 -0.696 0.307 183 170 160 0
-2.9519 34.2577 -52.5676 0.658 -0.687 0.307 181 166 157 0
-3.2234 35.3697 -52.5702 0.314 0.555 0.770 128 109 102 0
-3.5707 35.7542 -52.6899 0.289 0.520 0.804 125 102 96 0
-2.4147 35.8257 -52.1399 0.280 -0.808 -0.519 123 93 91 0
-0.5146 36.3535 -51.1899 0.505 -0.813 -0.290 114 82 79 0
2.8893 35.2664 -49.7160 0.517 -0.824 -0.229 110 80 77 0
1.2679 36.8959 -50.2934 0.653 -0.752 -0.088 106 73 68 0
9.3205 33.8907 -46.8551 0.434 -0.901 -0.026 105 72 66 0
12.1203 38.7222 -45.0006 0.076 -0.976 0.203 91 57 21 0
13.2395 38.6674 -44.4820 0.448 0.004 0.894 82 49 18 0
13.4284 38.8106 -44.3774 0.384 -0.304 0.872 78 46 15 0
13.4316 39.0409 -44.3500 0.137 -0.966 0.219 76 46 14 0
10.6413 40.8343 -45.4571 0.879 0.064 -0.473 69 45 17 0
10.4322 41.1736 -45.5171 0.642 -0.489 -0.590 66 44 19 0
10.2034 41.5237 -45.5851 0.310 -0.832 -0.460 62 41 20 0
4.6421 47.0100 -47.5772 0.325 -0.944 0.066 48 33 20 0
5.7827 46.6874 -47.0786 0.938 -0.259 0.231 47 33 20 0
8.1412 47.4976 -45.8820 0.000 -0.591 0.807 38 31 20 0
8.5652 48.5371 -45.5666 0.982 -0.099 -0.158 37 30 22 0
2.9315 52.9184 -47.7165 0.966 -0.158 0.204 33 30 21 0
2.9489 53.1780 -47.6792 0.969 -0.178 0.174 32 31 21 0
1.5533 54.2245 -48.2162 0.884 -0.462 0.074 33 34 24 0
20.9620 57.1261 -38.7913 0.683 -0.586 0.436 46 110 61 0
19.1984 63.9958 -38.8477 0.369 -0.566 0.737 49 111 62 0
17.7896 68.5394 -38.9986 0.657 -0.521 0.544 63 116 77 0
23.9715 67.9505 -36.1664 0.595 0.077 0.800 182 178 167 0
19.8359 90.9551 -35.5253 0.617 0.685 0.388 177 164 155 0
18.7346 92.4223 -35.8771 0.558 0.536 0.633 176 166 154 0
19.5338 91.8831 -35.5629 0.635 0.606 0.479 175 165 153 0
17.8630 93.9646 -36.1128 0.584 0.529 0.616 175 164 152 0
13.5038 107.5899 -36.6285 0.455 0.484 0.747 160 147 139 0
22.7159 100.4159 -33.1140 0.357 -0.789 0.500 164 150 139 0
23.2007 100.1535 -32.9162 0.895 -0.193 -0.402 167 153 141 0
23.0478 100.6513 -32.9320 0.874 -0.075 -0.480 169 155 142 0
32.3748 90.0583 -29.7472 0.990 0.019 -0.140 164 150 137 0
31.2998 91.6406 -30.0738 0.555 -0.775 -0.304 165 150 136 0
31.4562 91.7402 -29.9893 0.501 -0.804 -0.322 106 98 91 0
31.8076 91.8906 -29.8076 0.505 -0.803 -0.315 247 247 245 0
31.9690 91.9822 -29.7217 0.485 -0.804 -0.343 254 255 255 0
31.2821 93.4036 -29.8844 0.545 -0.807 -0.227 255 255 254 0
-15.4366 -5.9757 -63.2003 0.665 -0.680 -0.310 225 215 209 0
-17.6086 -5.7090 -64.1933 0.743 -0.548 -0.384 224 215 208 0
-9.1498 -4.6266 -60.0897 0.171 -0.985 -0.029 226 216 209 0
-8.8719 29.7193 -56.1326 0.261 -0.657 -0.707 222 219 212 0
-3.0789 31.8605 -53.1663 0.752 0.046 0.658 209 199 195 0
-2.4327 33.6301 -52.6649 0.538 -0.613 0.579 191 177 168 0
-2.2006 34.0467 -52.5092 0.623 -0.588 0.516 185 169 161 0
-2.6613 35.2241 -52.5950 0.276 0.496 0.823 156 137 130 0
-3.1272 35.6526 -52.7666 0.281 0.502 0.818 138 116 109 0
-3.3992 36.0100 -52.8549 0.944 -0.176 0.280 132 108 103 0
-0.9902 36.1014 -51.7104 0.335 -0.786 -0.519 123 92 90 0
-0.5907 36.1975 -51.5116 0.368 -0.729 -0.577 120 90 87 0
-0.5111 36.4174 -51.4496 0.559 -0.741 -0.372 117 86 84 0
0.1158 36.4219 -51.1539 0.649 -0.717 -0.252 114 85 82 0
2.8549 35.5878 -49.9570 0.555 -0.808 -0.196 111 83 79 0
3.4270 35.6046 -49.6857 0.945 -0.328 -0.001 108 80 76 0
2.9467 36.0406 -49.8633 0.836 -0.533 -0.131 107 78 73 0
2.5706 36.4370 -49.9963 0.923 -0.353 -0.154 105 75 69 0
12.4475 38.6361 -45.1004 0.075 -0.979 0.191 127 97 35 0
13.5933 38.5671 -44.5686 0.482 0.060 0.874 112 81 28 0
13.6588 38.7677 -44.5154 0.500 -0.346 0.794 100 69 21 0
13.7501 38.9560 -44.4514 0.151 -0.967 0.208 89 59 15 0
14.1776 38.9847 -44.2469 0.158 -0.970 0.188 81 55 14 0
10.2951 41.0672 -45.8431 0.890 0.124 -0.438 72 49 12 0
4.7775 47.0165 -47.7785 0.324 -0.944 0.056 48 35 19 0
6.6376 46.3265 -46.9795 0.371 -0.180 0.911 47 36 20 0
8.1352 47.3231 -46.1633 0.106 -0.566 0.817 38 33 19 0
8.7611 48.0015 -45.7930 0.547 -0.598 0.586 38 32 21 0
3.1819 59.1502 -47.1782 0.499 -0.517 0.695 28 89 49 0
5.1360 60.4357 -46.1148 0.572 0.561 0.599 28 96 52 0
27.8537 49.4100 -36.6458 0.218 -0.970 0.105 47 110 65 0
16.1072 64.5758 -40.4875 0.447 0.732 0.514 47 110 63 0
15.0599 66.4349 -40.7735 0.847 0.033 0.531 47 110 62 0
15.0113 66.7425 -40.7621 0.993 0.051 0.105 47 112 63 0
17.5490 69.3718 -39.2743 0.822 -0.548 -0.157 65 115 77 0
19.9023 91.6198 -35.6877 0.635 0.614 0.469 175 165 154 0
23.2099 99.3394 -33.2703 0.580 -0.641 0.503 166 155 144 0
22.7259 100.2279 -33.3992 0.674 -0.512 -0.531 162 151 139 0
22.8625 100.3811 -33.3178 0.763 -0.647 0.007 165 151 139 0
23.1263 100.3818 -33.1935 0.920 -0.142 -0.366 167 154 141 0
31.1230 91.6935 -30.3959 0.523 -0.795 -0.309 165 151 138 0
31.2950 91.7750 -30.3058 0.516 -0.799 -0.309 165 150 137 0
31.8180 92.0071 -30.0337 0.474 -0.808 -0.349 247 247 245 0
-15.5511 -5.9428 -63.5183 0.665 -0.680 -0.310 226 217 211 0
-18.8439 -5.6511 -65.0433 0.683 -0.727 0.066 226 217 210 0
-10.7173 -5.1877 -61.1487 0.720 -0.670 0.184 226 217 210 0
-7.9119 -3.7963 -59.6680 0.647 -0.449 0.616 228 219 212 0
-12.2096 5.0748 -60.7189 0.229 0.035 0.973 229 222 214 0
-13.0313 30.2815 -58.3184 0.249 -0.636 -0.730 224 220 214 0
-8.5796 32.2586 -55.9943 0.838 0.140 -0.527 218 212 206 0
-8.7864 33.3669 -55.9695 0.596 -0.802 0.031 213 204 199 0
-8.5510 33.5471 -55.8382 0.596 -0.802 0.031 214 203 199 0
-3.1487 32.1955 -53.4329 0.670 -0.072 0.739 210 200 196 0
-2.1045 35.0800 -52.6199 0.374 0.565 0.736 172 152 145 0
-2.5622 35.5047 -52.7893 0.376 0.561 0.737 164 143 137 0
-3.3115 36.0422 -53.0842 0.996 0.075 0.054 152 130 125 0
-2.3346 36.4332 -52.5790 0.971 -0.214 0.106 128 102 100 0
-1.6795 36.4337 -52.2691 0.601 -0.722 -0.343 127 99 98 0
-0.1870 36.1052 -51.5996 0.793 -0.608 0.015 123 95 92 0
3.5660 35.6130 -49.8792 0.959 -0.281 0.029 112 84 79 0
3.3852 35.9291 -49.9297 0.935 -0.355 0.005 110 82 77 0
10.4439 39.3928 -46.2082 0.875 0.483 -0.006 161 136 41 0
13.9284 38.2448 -44.6873 0.603 -0.706 0.371 160 135 46 0
14.0168 38.4338 -44.6246 0.728 0.033 0.684 156 130 47 0
14.0668 38.6409 -44.5780 0.787 -0.403 0.468 147 121 47 0
14.4441 38.6932 -44.3938 0.400 -0.838 0.371 135 107 41 0
9.8841 41.3317 -46.2584 0.787 -0.119 -0.605 105 83 29 0
10.2161 41.8963 -46.0389 0.268 -0.577 -0.771 68 47 11 0
8.6257 46.3862 -46.2943 0.034 -0.522 0.853 42 36 20 0
8.4027 46.7534 -46.3591 0.001 -0.717 0.697 39 37 19 0
5.1520 50.2749 -47.5068 0.931 0.363 -0.038 38 36 23 0
3.3755 51.4985 -48.2116 0.921 -0.309 -0.237 38 37 24 0
3.1737 52.4107 -48.2060 0.781 -0.548 0.300 35 35 23 0
-1.6880 59.8978 -49.6768 0.940 0.112 0.323 25 81 46 0
-1.6934 60.1884 -49.6472 0.937 0.112 0.331 24 81 46 0
-3.0308 61.2719 -50.1598 0.588 0.531 0.609 24 84 48 0
-3.1776 61.6512 -50.1873 0.587 0.527 0.614 25 87 50 0
-3.4232 62.0909 -50.2548 0.591 0.524 0.613 23 87 50 0
-0.7279 61.0479 -49.0955 0.847 0.450 0.282 22 88 49 0
4.6879 61.0876 -46.5298 0.601 0.627 0.496 25 94 50 0
-5.3334 69.2871 -50.3619 0.433 -0.767 -0.474 40 103 61 0
13.8151 64.4798 -41.8380 -0.121 -0.393 0.912 46 110 61 0
13.9384 64.6599 -41.7598 -0.084 -0.365 0.927 46 110 61 0
15.0649 67.0696 -40.9604 0.993 0.039 0.111 47 112 62 0
9.6552 74.0802 -42.7431 0.571 -0.330 -0.751 54 111 69 0
17.6598 68.5691 -39.5672 0.651 0.332 0.682 56 113 72 0
17.7231 68.7889 -39.5130 0.660 0.250 0.709 59 114 74 0
18.5480 68.9347 -39.1067 0.695 -0.165 0.700 63 115 76 0
22.4530 69.6984 -37.1754 0.966 -0.250 0.070 180 176 164 0
22.8790 69.5992 -36.9850 0.796 -0.045 0.604 183 176 165 0
23.2009 69.5872 -36.8340 0.816 0.095 0.570 185 177 167 0
15.2108 87.0618 -38.6792 0.835 0.549 0.033 184 176 165 0
19.9620 91.3792 -35.9545 0.585 0.558 0.589 176 166 156 0
18.9360 92.7738 -36.2854 0.596 0.575 0.560 176 166 156 0
13.1753 108.9537 -37.2195 0.495 0.429 0.755 166 153 145 0
10.7509 112.4766 -37.9763 0.507 0.522 0.685 169 154 145 0
23.0615 100.5992 -33.4685 0.898 -0.179 -0.401 166 154 142 0
31.1429 91.7983 -30.6204 0.516 -0.799 -0.309 165 151 138 0
31.3355 91.8550 -30.5230 0.560 -0.782 -0.272 165 150 137 0
31.6674 92.0309 -30.3466 0.516 -0.799 -0.309 50 50 50 0
31.8413 92.1080 -30.2558 0.516 -0.799 -0.309 247 247 245 0
30.0165 94.6312 -30.8396 0.733 -0.598 -0.325 254 255 255 0
30.1059 94.8178 -30.7767 0.662 -0.693 -0.286 254 255 255 0
-15.4659 -5.9139 -63.7428 0.577 -0.778 -0.248 226 217 210 0
-18.4970 -5.6271 -65.1510 0.670 -0.717 -0.192 226 217 210 0
-10.7723 -5.1560 -61.4301 0.576 -0.389 0.719 226 217 210 0
-10.2460 -4.9574 -61.1583 0.384 -0.871 0.307 226 217 211 0
-12.1142 5.5616 -60.8897 0.129 0.043 0.991 227 223 214 0
-13.7427 30.2956 -58.9449 0.885 0.224 -0.409 223 219 210 0
-13.1118 30.6319 -58.6083 0.634 -0.400 0.661 222 219 209 0
-9.1280 30.1767 -56.7661 0.177 -0.725 -0.666 221 217 208 0
-7.6736 31.5067 -55.9292 0.793 -0.604 0.081 221 213 208 0
-9.0290 32.4708 -56.4670 0.835 0.116 -0.538 221 212 207 0
-9.0556 32.7398 -56.4501 0.835 0.116 -0.538 220 211 206 0
-8.5512 33.6111 -56.1147 0.583 -0.812 0.015 214 205 200 0
-10.5131 35.8802 -56.7972 0.799 0.585 0.141 203 191 187 0
-9.9168 36.4672 -56.4495 0.842 0.535 0.067 197 182 176 0
-10.9350 37.1053 -56.8630 0.783 0.585 0.210 193 179 171 0
-1.2861 34.0874 -52.6116 0.771 0.600 0.212 185 171 162 0
-3.2822 36.0966 -53.3389 0.970 0.094 -0.226 167 148 142 0
-2.1891 36.4427 -52.7817 0.970 -0.131 0.206 133 113 111 0
-1.4057 36.3929 -52.4150 0.577 -0.792 -0.200 131 109 109 0
0.4017 35.9403 -51.6063 0.759 -0.645 0.091 126 102 103 0
5.8996 34.2687 -49.1786 0.934 -0.180 -0.309 118 93 89 0
7.2414 33.9741 -48.5737 0.705 -0.699 -0.121 114 89 83 0
4.3674 35.3569 -49.7868 0.747 -0.148 0.648 112 86 79 0
14.0698 38.2435 -44.8612 0.621 -0.690 0.373 172 149 47 0
14.2358 38.3960 -44.7656 0.737 0.062 0.673 169 146 48 0
14.2987 38.5967 -44.7136 0.791 -0.384 0.477 163 140 46 0
15.3894 38.3106 -44.2270 0.473 -0.763 0.441 158 134 46 0
9.3953 41.6340 -46.7088 0.748 -0.226 -0.624 147 125 46 0
9.1352 42.4898 -46.7383 0.191 -0.788 -0.585 105 85 25 0
10.3000 42.4087 -46.1940 0.233 -0.689 -0.686 72 54 11 0
11.2693 42.6556 -45.7064 0.395 -0.701 -0.593 61 45 18 0
4.1214 51.1745 -48.1653 0.811 -0.573 0.118 35 37 24 0
-2.8313 59.2171 -50.5838 0.602 0.334 -0.726 23 79 43 0
4.8713 61.0616 -46.7226 0.601 0.621 0.503 27 97 53 0
17.3333 62.5357 -40.6414 0.710 -0.441 -0.548 45 109 59 0
14.5347 66.2080 -41.5671 0.422 0.726 0.543 46 110 60 0
15.2026 66.7895 -41.1859 0.636 -0.001 0.772 43 110 62 0
17.7553 68.8615 -39.7458 0.621 0.365 0.694 56 113 72 0
17.2434 69.8170 -39.8839 0.748 -0.379 0.544 58 116 75 0
23.0285 69.8345 -37.1342 0.788 0.106 0.606 184 176 166 0
22.4628 70.5863 -37.3202 0.879 0.070 0.471 183 178 167 0
13.8892 108.2737 -37.2507 0.483 0.440 0.757 165 152 146 0
