ply
format ascii 1.0
element vertex 836
property float x
property float y
property float z
property float nx
property float ny
property float nz
property uchar diffuse_red
property uchar diffuse_green
property uchar diffuse_blue
property uchar class
end_header
-7.5518 -8.6785 -32.6713 0.914 0.081 -0.398 224 207 179 0
-8.7637 -8.4531 -32.9300 0.687 -0.426 -0.589 225 208 179 0
1.1933 16.7509 -26.4108 0.307 -0.811 -0.498 237 227 200 0
-15.8799 25.5611 -29.1407 0.913 -0.358 -0.196 233 219 193 0
-16.5417 26.0031 -29.2302 0.961 0.140 0.237 233 219 193 0
-17.4453 26.7700 -29.3259 0.938 -0.341 0.062 232 218 191 0
-18.0271 27.1957 -29.3985 0.935 -0.354 0.035 230 216 189 0
-18.2639 27.5193 -29.4037 0.648 -0.630 0.428 229 214 187 0
-18.1010 27.7222 -29.3310 0.630 -0.636 0.446 228 211 186 0
-17.8784 27.9065 -29.2469 0.713 -0.598 0.365 228 208 184 0
-4.5661 29.8204 -25.6920 0.450 -0.417 0.790 138 54 50 0
-3.6125 33.2558 -24.9017 0.984 -0.165 -0.069 110 40 37 0
-3.5057 40.5324 -23.6941 0.894 -0.219 0.391 162 104 65 0
-1.2135 40.2272 -23.1851 0.951 -0.307 -0.028 170 108 71 0
2.7277 46.1856 -21.2571 0.792 -0.311 0.526 114 43 44 0
1.0886 48.5782 -21.2680 0.243 -0.493 0.835 107 45 45 0
1.1032 48.8253 -21.2243 0.687 -0.194 0.701 111 51 50 0
0.3696 50.5160 -21.1285 0.587 0.387 0.711 102 52 49 0
0.0116 50.9758 -21.1411 0.717 -0.309 0.625 105 57 52 0
0.1972 51.1317 -21.0706 0.698 -0.338 0.631 105 59 54 0
-6.0572 58.8193 -21.3463 0.260 0.389 0.884 220 204 187 0
-8.1538 61.2207 -21.4673 0.154 -0.299 0.942 217 207 192 0
8.9992 53.5406 -18.5344 0.562 -0.519 0.644 219 212 194 0
-0.9409 61.5020 -19.6639 0.305 -0.125 0.944 218 211 195 0
8.4774 67.0202 -16.4727 0.317 -0.616 0.721 205 195 183 0
-1.5855 75.5710 -17.5364 0.169 -0.892 0.419 204 195 181 0
0.9544 73.9159 -17.1862 0.749 -0.446 0.491 204 195 180 0
-2.7981 81.4465 -16.8778 0.433 0.504 0.747 201 188 172 0
-2.1236 83.4071 -16.3950 -0.090 -0.201 0.975 200 187 169 0
-2.0209 83.6372 -16.3327 -0.089 -0.211 0.973 201 187 168 0
19.5504 80.4109 -11.5998 0.513 -0.827 -0.230 186 168 145 0
29.7526 75.6446 -9.8876 0.768 -0.612 -0.189 180 159 134 0
25.4034 84.9870 -9.4304 0.940 0.053 0.338 174 148 122 0
32.8814 79.2765 -8.5354 0.929 -0.322 -0.182 254 255 253 0
-7.0834 -10.1598 -33.0083 0.846 -0.480 -0.230 255 255 255 0
-6.3703 -9.4342 -32.7160 0.783 -0.574 -0.241 225 209 181 0
-6.2545 -8.8816 -32.5983 0.938 -0.192 -0.290 224 209 178 0
-9.1702 -8.4190 -33.2391 0.623 -0.627 -0.467 225 207 177 0
-10.3295 -8.1902 -33.4866 0.392 -0.787 -0.476 225 208 178 0
-7.2237 -8.1045 -32.7105 0.077 -0.992 -0.098 226 212 180 0
-2.9098 -8.0717 -31.6464 0.067 -0.978 -0.195 226 213 181 0
1.5317 16.9098 -26.5176 0.337 -0.940 -0.060 237 227 199 0
-16.4567 25.7796 -29.4987 0.896 -0.374 -0.239 232 218 192 0
-16.8631 26.1475 -29.5390 0.987 0.065 0.149 233 219 193 0
-18.6870 26.9398 -29.8585 0.695 -0.643 -0.321 233 219 192 0
-18.7561 27.4662 -29.7904 0.378 -0.925 0.039 230 216 189 0
-18.6500 27.6874 -29.7286 0.278 -0.952 0.125 229 213 187 0
-4.3183 30.0176 -25.8344 0.283 -0.735 0.616 137 52 49 0
-3.3273 34.1547 -24.9223 0.894 -0.445 0.046 107 42 37 0
-1.1718 33.5289 -24.4944 0.831 -0.366 0.418 110 45 38 0
-4.1054 36.8980 -24.6698 0.826 -0.543 -0.149 139 79 49 0
-3.9314 37.5605 -24.5200 0.505 -0.813 0.291 142 89 51 0
-4.0508 37.8577 -24.5013 0.921 -0.075 0.382 145 90 53 0
-1.1347 40.2508 -23.3986 0.932 -0.324 -0.161 168 108 68 0
-0.5742 43.4507 -22.7438 0.732 -0.537 0.420 134 55 54 0
-0.3985 43.6138 -22.6743 0.725 -0.549 0.417 130 52 51 0
-0.2120 43.7712 -22.6031 0.692 -0.576 0.434 129 49 50 0
3.0474 45.5850 -21.5098 0.661 -0.400 0.635 117 46 48 0
2.8601 46.1805 -21.4595 0.792 -0.311 0.526 115 45 45 0
-0.3444 51.2458 -21.4272 0.924 0.183 0.336 101 53 49 0
0.1075 51.2525 -21.3152 0.970 0.224 0.090 100 55 50 0
0.2045 51.4583 -21.2581 0.856 0.427 0.290 103 60 54 0
-11.1678 61.9572 -22.3520 0.316 0.597 0.738 221 204 186 0
-7.6712 60.7213 -21.6936 0.191 -0.332 0.924 215 206 190 0
-7.5720 60.9477 -21.6326 0.191 -0.332 0.924 217 208 191 0
-7.5304 61.2093 -21.5801 0.502 0.044 0.864 218 206 190 0
1.7512 56.0730 -20.1324 0.171 -0.448 0.877 219 207 191 0
1.9962 56.4533 -20.0108 0.210 -0.375 0.903 220 211 194 0
14.0190 61.3406 -16.2699 0.273 0.150 0.950 209 199 182 0
-0.9562 75.1828 -17.7075 0.222 -0.948 0.230 204 195 180 0
1.1836 73.8328 -17.4006 0.672 -0.598 0.436 204 195 179 0
1.3573 73.9939 -17.3319 0.427 -0.667 0.611 203 194 178 0
8.1692 70.9537 -16.1515 0.743 -0.301 -0.598 205 191 179 0
8.2612 71.1614 -16.0954 0.753 -0.293 -0.589 203 191 177 0
19.6060 80.4575 -11.8081 0.635 -0.711 -0.303 188 167 146 0
28.7568 72.6301 -10.8275 0.764 -0.644 0.036 187 167 140 0
25.6337 84.5564 -9.6660 0.946 0.176 0.271 173 147 122 0
-7.1413 -10.1388 -33.2302 0.841 -0.490 -0.230 255 255 255 0
-6.4222 -9.4126 -32.9356 0.783 -0.574 -0.241 223 207 178 0
-10.2891 -8.1697 -33.6914 0.413 -0.760 -0.502 224 208 178 0
-7.8581 -8.0611 -33.0730 0.074 -0.996 -0.055 226 211 179 0
-16.8722 25.9511 -29.8270 0.995 -0.043 -0.094 233 219 193 0
-18.6573 26.9813 -30.1025 0.704 -0.641 -0.305 232 218 191 0
-18.5008 27.1870 -30.0307 0.840 -0.539 0.055 230 216 189 0
-18.8959 27.5592 -30.0684 0.261 -0.960 0.106 229 214 188 0
-18.5190 27.6985 -29.9529 0.275 -0.956 0.101 228 212 186 0
-8.3003 26.9431 -27.5485 0.171 -0.868 0.465 131 84 74 0
-4.1999 29.7909 -26.0767 0.435 -0.497 0.751 137 52 49 0
-3.9645 29.9409 -25.9943 0.457 -0.569 0.684 136 51 49 0
-0.7851 33.1923 -24.6851 0.980 0.001 0.199 107 40 36 0
-0.7928 33.4304 -24.6487 0.980 0.001 0.199 105 40 34 0
-4.0195 37.9024 -24.7266 0.995 0.080 -0.065 147 93 54 0
-2.1418 42.0203 -23.5996 0.994 -0.101 -0.031 165 98 71 0
-2.6126 42.4938 -23.6398 0.786 -0.618 0.024 160 91 66 0
2.7166 45.0801 -21.9063 0.697 -0.506 0.508 129 55 54 0
3.5636 45.8714 -21.5696 0.776 -0.566 0.280 115 47 46 0
0.0495 51.0948 -21.5975 0.756 0.259 0.602 98 51 47 0
-12.0170 62.8439 -22.6892 0.344 0.633 0.693 217 203 186 0
-7.0092 60.9715 -21.7527 0.417 0.021 0.909 218 207 190 0
2.1608 55.8957 -20.3029 0.171 -0.448 0.877 218 207 190 0
3.1647 55.5401 -20.1120 0.343 -0.882 0.322 219 208 191 0
1.1895 60.2788 -19.8376 0.267 -0.297 0.917 216 209 193 0
13.6811 61.6728 -16.5255 0.837 -0.175 0.519 209 199 183 0
-0.9715 74.9892 -18.0042 0.098 -0.882 0.460 206 197 180 0
8.1385 71.0687 -16.3833 0.743 -0.295 -0.601 204 190 180 0
29.9280 70.2774 -11.1247 0.843 -0.511 0.166 189 168 146 0
22.9783 88.7863 -9.8636 0.855 0.284 -0.434 171 148 120 0
32.8670 80.0277 -8.8289 0.455 -0.712 -0.535 255 255 255 0
-6.0161 -9.2171 -33.0137 0.550 -0.819 -0.161 223 206 177 0
-6.4840 -8.8336 -33.0687 0.966 -0.040 -0.256 224 208 180 0
-10.7818 -8.1315 -34.0261 0.465 -0.749 -0.472 228 213 182 0
-7.7567 -8.0431 -33.2589 0.064 -0.998 0.007 228 213 182 0
-18.7099 27.0474 -30.3632 0.704 -0.641 -0.305 231 217 190 0
-18.5624 27.2561 -30.2930 0.831 -0.552 0.072 230 216 189 0
-18.7554 27.5677 -30.2912 0.301 -0.951 0.070 228 214 187 0
-18.3472 27.6972 -30.1688 0.261 -0.960 0.106 225 210 183 0
-16.7287 27.4545 -29.8048 0.666 -0.673 0.322 209 190 165 0
-3.7576 36.3773 -25.1462 0.819 0.036 0.572 127 67 42 0
-2.7699 42.3791 -23.9387 0.805 -0.587 0.086 162 98 68 0
-2.6667 42.5817 -23.8805 0.772 -0.627 0.104 159 91 65 0
-2.1094 42.8187 -23.7039 0.841 -0.500 0.208 153 80 59 0
-1.9306 42.9840 -23.6328 0.844 -0.460 0.276 149 74 56 0
-1.7263 43.1366 -23.5575 0.918 -0.261 0.299 148 70 58 0
3.9074 55.1548 -20.2295 0.448 -0.871 0.201 217 208 193 0
4.1350 55.2751 -20.1536 0.275 -0.856 0.437 217 208 193 0
15.5444 60.6156 -16.4577 0.268 0.066 0.961 209 197 181 0
30.0551 70.4930 -11.2630 0.875 -0.481 0.057 190 170 147 0
12.1782 92.7125 -12.1530 0.677 0.655 0.337 181 162 137 0
24.7134 85.2265 -10.2320 0.929 -0.253 -0.270 175 149 126 0
-7.1889 -10.0979 -33.6584 0.930 -0.288 -0.230 255 255 255 0
-6.5418 -8.8111 -33.2909 0.966 -0.040 -0.256 224 208 181 0
-10.7279 -8.1113 -34.2287 0.455 -0.773 -0.442 227 212 183 0
-5.6024 -7.9109 -32.9118 0.065 -0.997 -0.042 227 212 181 0
-2.4341 -5.2847 -31.6987 0.037 -0.999 -0.040 228 211 181 0
-18.6128 26.8161 -30.6344 0.943 0.030 0.333 230 216 190 0
-19.6391 27.3759 -30.8024 0.232 -0.972 -0.027 229 215 188 0
-19.3550 27.5454 -30.7041 0.188 -0.982 0.023 229 214 188 0
-16.6073 27.4678 -30.0277 0.666 -0.673 0.322 184 163 139 0
-16.6288 27.7251 -29.9921 0.485 -0.772 0.411 157 131 112 0
-1.3447 30.2481 -25.7581 0.859 0.029 0.511 131 46 44 0
-1.0562 31.3000 -25.5180 0.481 -0.386 0.787 120 41 37 0
-2.9252 32.9638 -25.7212 0.415 0.268 0.869 106 34 33 0
-3.8471 36.4715 -25.3928 0.645 0.012 0.764 122 64 40 0
-4.1182 39.0530 -25.0490 0.782 -0.312 0.540 145 90 54 0
-2.0265 42.8415 -23.9204 0.853 -0.474 0.217 151 80 56 0
-1.8474 43.0066 -23.8492 0.844 -0.460 0.276 143 68 49 0
2.4279 45.3595 -22.4021 0.779 -0.530 -0.336 122 48 48 0
3.9352 47.0433 -21.7557 0.759 -0.460 0.461 107 45 46 0
3.9506 47.2840 -21.7134 0.750 -0.418 0.513 106 46 46 0
3.9885 49.2695 -21.3873 0.790 0.001 0.613 94 47 43 0
4.1500 49.4303 -21.3211 0.935 -0.296 0.196 94 48 44 0
-9.0199 61.4920 -22.6988 0.352 0.594 0.723 212 203 186 0
4.2679 55.0056 -20.4023 0.403 -0.871 0.282 217 208 193 0
9.6230 53.9349 -19.2306 0.715 -0.635 0.293 217 207 195 0
25.3929 69.2552 -12.8337 0.847 -0.004 0.532 193 175 156 0
30.1442 70.4950 -11.4449 0.704 -0.377 0.602 189 167 143 0
30.3207 70.5696 -11.3888 0.691 -0.533 0.488 189 168 143 0
30.8711 76.4053 -10.3200 0.331 0.080 0.940 178 155 129 0
24.3985 85.3983 -10.5082 0.949 -0.263 0.176 175 151 127 0
24.4924 85.5801 -10.4556 0.704 -0.641 0.308 174 150 126 0
24.5725 85.7772 -10.4041 0.709 -0.621 0.336 175 151 126 0
25.5337 85.5604 -10.1978 0.935 0.343 -0.093 173 149 123 0
-7.2708 -10.2621 -33.9170 0.809 -0.527 -0.260 255 255 255 0
-7.2324 -10.0770 -33.8779 0.930 -0.285 -0.233 254 254 254 0
-6.5235 -8.7907 -33.4947 0.979 -0.027 -0.204 227 210 183 0
-7.4175 -8.5770 -33.6865 0.881 0.228 0.414 228 212 183 0
-10.6594 -8.2851 -34.4585 0.967 0.135 -0.216 227 212 183 0
-10.5831 -8.0941 -34.4089 0.716 -0.631 -0.297 227 212 183 0
-11.1236 -7.8815 -34.5116 0.350 -0.839 -0.417 228 212 184 0
5.8242 -5.0743 -29.7876 0.036 -0.999 -0.019 230 213 184 0
-19.5567 27.4021 -31.0382 0.232 -0.972 -0.027 229 215 189 0
-16.6743 27.2884 -30.3287 0.651 -0.723 0.232 207 187 164 0
-16.7134 27.5510 -30.2968 0.693 -0.647 0.318 158 134 112 0
-16.5404 27.7486 -30.2218 0.483 -0.769 0.419 147 119 102 0
-2.3949 33.2849 -25.7719 -0.031 -0.994 0.103 103 34 32 0
-3.1352 38.6805 -25.1021 0.927 -0.350 -0.133 143 91 52 0
-5.5840 40.7673 -25.3889 0.805 -0.116 -0.581 150 97 58 0
-0.5365 43.9352 -23.6117 0.671 -0.674 0.310 135 56 51 0
2.2776 45.0051 -22.7315 0.882 0.047 0.469 133 56 51 0
2.2841 45.2503 -22.6909 0.766 -0.608 0.207 129 54 52 0
4.5426 45.5438 -22.0741 0.954 -0.292 0.074 114 44 44 0
3.7173 47.2282 -22.0150 0.914 -0.401 0.059 101 39 40 0
3.9713 47.3390 -21.9333 0.745 -0.386 0.545 102 41 41 0
4.0174 47.5634 -21.8861 0.643 -0.766 0.015 102 42 42 0
4.1961 49.2203 -21.5779 0.936 -0.295 0.192 93 44 42 0
4.2549 49.4391 -21.5283 0.936 -0.295 0.192 92 45 43 0
1.3431 52.6563 -21.7525 0.694 0.533 0.484 101 63 59 0
-6.2816 59.9137 -22.5250 0.289 0.452 0.844 212 201 184 0
-7.4352 60.8997 -22.6596 0.285 0.443 0.850 209 201 184 0
-3.6242 68.8801 -20.4305 0.079 -0.566 0.821 213 204 187 0
22.2359 51.5453 -16.6548 0.860 -0.447 -0.249 213 204 187 0
10.4552 71.1550 -16.5151 0.475 -0.880 -0.022 204 190 175 0
25.5152 69.2305 -13.0189 0.794 -0.056 0.606 192 174 158 0
38.6960 63.8329 -10.5486 0.832 0.550 0.073 184 164 139 0
37.5058 65.2884 -10.6180 0.824 0.564 0.057 183 163 138 0
31.3024 75.7765 -10.5187 0.239 -0.061 0.969 179 155 129 0
-7.3520 -10.2408 -34.1464 0.809 -0.532 -0.251 255 255 255 0
-7.2799 -10.0561 -34.0989 0.907 -0.349 -0.236 254 254 254 0
-6.2234 -9.1502 -33.6872 0.493 -0.870 -0.003 225 208 179 0
-7.5964 -8.5503 -33.9414 0.850 0.262 0.456 228 211 183 0
-9.6707 -8.2950 -34.4283 0.822 0.441 0.360 228 211 183 0
-10.6589 -8.0696 -34.6438 0.716 -0.631 -0.297 228 212 183 0
-11.4405 -7.8481 -34.8075 0.302 -0.894 -0.332 228 211 182 0
-7.0168 -5.3448 -33.2874 0.050 -0.989 -0.136 230 213 182 0
2.0258 -5.1543 -30.9587 0.056 -0.993 -0.101 232 212 185 0
5.7721 -5.0491 -29.9898 0.051 -0.994 -0.097 232 213 186 0
16.4515 -4.9873 -27.2654 0.220 -0.782 -0.584 233 216 186 0
-19.3638 27.3952 -31.2513 0.241 -0.970 -0.030 229 215 189 0
-19.0412 27.5528 -31.1443 0.216 -0.975 0.047 229 212 188 0
-18.5322 27.6528 -30.9991 0.228 -0.973 0.033 226 206 182 0
-16.7015 27.3472 -30.5821 0.632 -0.694 0.345 183 158 139 0
-16.6969 27.5966 -30.5415 0.699 -0.637 0.325 146 118 101 0
-16.4527 27.7723 -30.4517 0.541 -0.812 0.220 144 113 98 0
-16.0488 27.8975 -30.3292 0.607 -0.783 0.135 141 106 94 0
-3.2901 38.8075 -25.3617 0.934 -0.340 -0.112 139 91 51 0
-3.0273 38.9389 -25.2741 0.973 0.186 0.133 139 91 51 0
-2.5794 42.4757 -24.6012 0.792 -0.609 0.049 159 100 65 0
-2.1505 42.7747 -24.4450 0.826 -0.554 0.102 153 87 60 0
-2.0287 42.9679 -24.3835 0.840 -0.526 0.132 140 71 46 0
-1.8249 43.1214 -24.3074 0.863 -0.496 0.092 137 63 43 0
-0.4053 44.4360 -23.7388 0.881 -0.469 -0.058 139 59 54 0
2.5096 43.4672 -23.1509 0.966 -0.229 0.119 142 63 56 0
2.4556 45.2255 -22.8868 0.760 -0.641 0.107 132 56 53 0
4.5957 45.0888 -22.3644 0.723 -0.681 0.115 118 44 45 0
4.6219 45.5661 -22.2823 0.938 -0.342 0.048 114 44 44 0
4.2433 47.2564 -22.1113 0.659 -0.450 0.602 101 39 40 0
4.0348 49.3800 -21.8287 0.789 -0.495 0.365 93 43 42 0
4.3107 49.4759 -21.7434 0.936 -0.295 0.192 92 43 42 0
-5.1118 59.2835 -22.5884 0.289 0.452 0.844 213 200 186 0
6.8956 60.2938 -19.3766 0.599 0.177 0.781 214 205 190 0
6.7144 60.6845 -19.3609 0.614 0.215 0.759 214 205 190 0
8.7614 73.4816 -16.8179 0.642 -0.711 0.286 203 190 171 0
9.0249 73.5490 -16.7403 0.559 -0.773 0.298 202 189 172 0
7.1720 75.3715 -16.9232 0.567 -0.799 0.200 201 188 172 0
7.4725 75.4121 -16.8404 0.571 -0.802 0.177 200 187 170 0
25.6316 68.1929 -13.3655 0.811 -0.257 0.526 192 176 159 0
23.5184 83.4415 -11.4926 0.410 0.274 0.870 181 158 134 0
22.9019 84.3881 -11.4996 0.400 0.253 0.881 182 157 133 0
22.0668 85.5749 -11.5243 0.411 0.286 0.866 181 155 131 0
-9.4885 -8.2792 -34.5972 0.842 0.336 0.421 228 211 182 0
16.8032 -4.8377 -27.3263 0.174 -0.844 -0.507 238 221 190 0
0.1268 19.0060 -27.8434 0.246 -0.921 0.303 236 226 201 0
-19.8572 27.3386 -31.6474 0.264 -0.931 0.252 228 215 189 0
-19.2842 27.4223 -31.4876 0.241 -0.970 -0.030 228 214 188 0
-18.8279 27.5393 -31.3523 0.231 -0.973 0.014 229 212 187 0
-16.5745 27.3589 -30.8040 0.633 -0.700 0.332 166 138 120 0
-16.5794 27.6112 -30.7655 0.699 -0.637 0.325 144 111 98 0
-0.6694 30.6116 -26.2213 0.636 -0.191 0.747 125 47 44 0
-0.7743 30.8832 -26.2054 0.354 -0.824 0.442 121 45 41 0
2.4129 43.5790 -23.3922 0.982 -0.159 0.099 143 67 54 0
2.5613 44.9865 -23.1328 0.942 -0.277 0.192 140 63 58 0
4.4735 44.9723 -22.6456 0.724 -0.682 0.102 120 46 45 0
4.5666 45.6604 -22.5135 0.603 -0.586 0.542 115 46 45 0
4.2189 47.0869 -22.3781 0.503 -0.863 -0.052 100 37 38 0
2.1401 51.8153 -22.1663 0.333 0.333 0.882 93 53 51 0
2.3661 51.9435 -22.0882 0.538 0.437 0.721 94 55 52 0
1.7986 52.5343 -22.1406 0.585 0.385 0.714 98 60 57 0
1.8556 52.7621 -22.0901 0.746 0.544 0.384 100 63 60 0
1.4037 53.2894 -22.1228 0.681 0.582 0.443 101 63 60 0
-7.0203 61.0950 -23.0509 0.177 0.368 0.913 214 201 187 0
-4.3135 60.2818 -22.4860 0.464 0.518 0.718 214 207 189 0
7.6769 59.5732 -19.5286 0.563 0.194 0.804 215 206 191 0
7.3797 60.3063 -19.4893 0.512 0.159 0.844 213 204 189 0
6.6541 61.0733 -19.5543 0.351 -0.065 0.934 212 205 189 0
-1.7956 68.6538 -20.5244 0.089 -0.457 0.885 210 203 185 0
8.3941 73.8782 -17.0944 0.898 -0.019 0.439 202 190 167 0
8.8080 73.8223 -16.9973 0.509 -0.818 0.266 202 189 170 0
3.0005 83.8355 -16.9084 0.723 0.620 0.304 196 183 166 0
30.6257 60.8229 -13.4581 0.255 -0.044 0.966 193 181 163 0
26.0557 68.9038 -13.3565 0.614 0.045 0.788 188 175 158 0
38.5729 64.1283 -10.9040 0.824 0.560 0.090 186 166 139 0
32.4706 81.0075 -9.8104 0.574 -0.732 -0.367 255 255 255 0
-8.7157 -8.4732 -34.6463 0.895 0.246 0.373 228 210 180 0
-16.4624 -4.7508 -36.0598 0.050 -0.992 -0.119 231 214 184 0
1.9777 -5.1068 -31.3633 0.053 -0.993 -0.105 237 217 190 0
-5.1171 7.4097 -31.2316 -0.141 -0.808 0.572 242 226 199 0
-18.7272 27.5599 -31.5835 0.231 -0.973 0.014 230 209 186 0
-18.1729 27.6456 -31.4273 0.225 -0.974 0.021 200 174 155 0
-16.5067 27.3887 -31.0381 0.641 -0.690 0.335 155 123 111 0
-16.4619 27.6258 -30.9894 0.699 -0.637 0.325 146 110 100 0
-0.3304 28.9258 -26.6286 0.408 -0.430 0.805 135 62 56 0
-0.4086 30.5644 -26.3921 0.677 -0.158 0.718 139 60 55 0
-0.4596 35.5166 -25.6297 0.362 -0.665 0.653 119 65 44 0
-2.6036 39.8594 -25.5022 0.885 0.351 0.307 142 101 56 0
-1.8150 43.2426 -24.7691 0.727 -0.639 -0.252 146 75 56 0
2.6837 44.9872 -23.3366 0.828 -0.546 0.131 138 60 56 0
2.7480 45.2020 -23.2863 0.837 -0.537 0.104 131 55 52 0
4.6187 44.9597 -22.8422 0.694 -0.604 0.393 120 45 45 0
4.7981 45.1099 -22.7725 0.712 -0.575 0.404 117 43 43 0
3.0661 51.0923 -22.2819 0.355 0.353 0.866 88 44 43 0
2.6401 51.5965 -22.3128 0.355 0.353 0.866 90 49 48 0
2.1952 52.1141 -22.3464 0.358 0.356 0.863 92 54 51 0
2.0082 52.4836 -22.3367 0.388 0.395 0.832 93 57 53 0
2.0707 52.7078 -22.2855 0.733 0.567 0.376 95 59 55 0
1.8784 53.0824 -22.2764 0.702 0.602 0.380 97 61 58 0
23.3808 51.1736 -17.0339 0.406 -0.334 0.851 210 203 188 0
22.9184 51.7313 -17.0657 0.455 -0.054 0.889 211 203 188 0
12.9568 62.1791 -17.9968 0.941 0.281 0.189 210 198 184 0
4.4327 69.6711 -19.0203 0.907 -0.277 0.316 210 196 182 0
4.6543 69.7882 -18.9448 0.911 -0.291 0.292 208 196 180 0
-0.0407 87.8885 -17.3202 0.656 0.515 0.551 195 183 165 0
24.3312 71.1292 -13.6639 0.681 0.359 0.639 187 174 155 0
25.0945 83.6453 -11.5071 0.949 0.308 0.063 179 154 132 0
24.9155 84.1241 -11.4782 0.881 0.465 0.089 178 153 131 0
34.8721 75.7378 -10.2257 0.519 0.297 0.802 173 148 125 0
-21.8575 -4.8432 -37.7071 0.051 -0.989 -0.137 230 213 185 0
1.7697 -5.0711 -31.6120 -0.003 -0.998 0.062 241 221 194 0
-1.2513 6.7971 -30.5460 0.161 -0.280 0.946 242 227 201 0
-19.7438 26.6410 -32.2511 0.872 -0.474 -0.124 231 219 193 0
-19.0254 26.9376 -32.0184 0.846 -0.531 -0.053 230 218 191 0
-16.2303 27.6051 -31.1891 0.650 -0.669 0.361 145 108 99 0
-2.2178 26.4382 -27.7352 0.655 -0.050 0.754 123 64 57 0
-2.5311 27.6911 -27.6212 0.727 -0.641 0.246 132 68 59 0
-3.9988 38.0547 -26.3866 0.872 0.434 0.225 124 80 45 0
-3.5376 39.0942 -26.1049 0.926 0.280 -0.252 126 85 46 0
-3.2660 39.4711 -25.9756 0.854 0.406 -0.325 130 90 46 0
-4.0024 41.8137 -25.8015 0.687 0.724 0.064 147 104 59 0
-1.7468 43.2726 -24.9889 0.800 -0.591 0.105 140 73 52 0
0.9753 44.6841 -24.0626 0.771 -0.329 0.545 150 79 56 0
4.7662 44.9458 -23.0381 0.731 -0.593 0.338 119 44 44 0
4.8978 45.1212 -22.9766 0.739 -0.566 0.366 117 43 42 0
2.4874 52.0153 -22.5275 0.544 0.591 0.595 92 53 50 0
1.4845 53.3871 -22.5739 0.729 0.577 0.368 94 58 54 0
-4.7736 60.7274 -23.0535 0.457 0.563 0.689 213 205 189 0
23.4598 51.1869 -17.2148 0.363 -0.326 0.873 210 203 189 0
4.6868 69.8532 -19.1763 0.805 -0.457 0.378 209 197 181 0
4.5677 70.2293 -19.1485 0.873 -0.382 0.304 208 197 181 0
17.8911 68.8457 -15.9072 0.373 -0.844 0.385 197 186 164 0
18.5892 68.5128 -15.7779 0.346 -0.806 0.481 198 186 167 0
27.3472 68.1226 -13.5663 0.456 0.449 0.768 188 176 154 0
35.4469 69.7032 -11.2182 0.979 0.203 0.032 179 162 136 0
-19.1109 26.7594 -32.3293 0.878 -0.455 -0.150 230 218 192 0
-15.9958 27.5833 -31.3877 0.528 -0.750 0.397 143 105 96 0
-2.2728 27.8809 -27.7566 0.717 -0.659 0.226 128 62 56 0
0.9683 31.2934 -26.3804 0.475 -0.602 0.641 133 57 51 0
-3.4697 38.8752 -26.3635 0.934 0.281 -0.220 124 85 45 0
-3.6842 39.2185 -26.3663 0.922 0.265 -0.283 124 86 46 0
-3.5095 39.3902 -26.2940 0.872 0.373 -0.318 125 87 44 0
-2.4671 39.9178 -25.9398 0.991 -0.031 -0.129 136 96 52 0
-2.7283 40.2851 -25.9511 0.835 0.404 0.374 137 97 53 0
-2.5513 40.4537 -25.8787 0.701 0.408 0.585 139 98 54 0
-3.5888 41.1795 -26.0371 0.803 0.514 -0.300 137 96 53 0
1.6651 43.8994 -24.2426 0.886 -0.026 0.463 154 85 61 0
4.8643 44.9580 -23.2426 0.680 -0.615 0.401 118 42 43 0
5.1234 45.3107 -23.1202 0.544 -0.465 0.698 111 37 39 0
2.4653 52.3595 -22.7210 0.484 0.547 0.683 92 54 50 0
1.8754 52.9668 -22.7809 0.457 0.559 0.692 93 56 52 0
-2.3900 58.7711 -22.9946 0.452 0.569 0.687 213 199 186 0
-2.9206 59.3771 -23.0392 0.498 0.589 0.637 214 201 187 0
-4.1685 60.4319 -23.2016 0.455 0.560 0.693 213 203 187 0
-4.5556 60.9561 -23.2214 0.445 0.526 0.725 212 203 186 0
18.7463 68.4665 -15.9689 0.346 -0.806 0.481 197 184 166 0
25.6449 70.5877 -13.8376 0.319 0.277 0.906 188 172 151 0
31.8006 67.1580 -12.7616 0.626 -0.450 0.637 188 169 152 0
31.0045 68.6813 -12.7333 0.919 -0.201 0.339 187 167 151 0
35.2092 64.9913 -12.2073 0.852 0.398 0.341 186 168 149 0
23.8631 84.0661 -12.2119 0.521 0.355 0.776 179 154 134 0
23.1934 85.0788 -12.2297 0.521 0.346 0.780 180 154 134 0
23.4217 85.1177 -12.1640 0.446 0.237 0.863 179 153 133 0
31.2946 82.4202 -10.5259 0.567 -0.679 -0.467 254 255 255 0
-0.0184 -5.0922 -32.4877 0.002 -0.998 0.063 240 220 196 0
-29.2221 28.1680 -35.0322 0.911 0.345 -0.226 233 221 197 0
-19.0765 26.7997 -32.5752 0.887 -0.444 -0.131 230 218 192 0
-18.8723 27.2476 -32.4524 0.252 -0.937 0.243 227 213 187 0
-3.5955 37.9978 -26.7745 0.722 0.589 0.362 119 76 42 0
-3.8955 38.3754 -26.7951 0.737 0.577 0.352 121 80 45 0
-3.7785 38.5729 -26.7338 0.769 0.580 0.269 121 82 44 0
-2.4291 39.9607 -26.1646 0.991 -0.025 -0.129 135 97 52 0
-2.5130 40.2476 -26.1424 0.929 -0.029 -0.370 136 98 53 0
-2.3613 40.4275 -26.0747 0.703 0.443 0.556 136 97 52 0
-2.0955 40.5546 -25.9852 0.711 0.408 0.573 138 97 54 0
-3.8708 41.8768 -26.2479 0.717 0.697 0.020 141 100 56 0
1.8773 43.8556 -24.4306 0.874 -0.095 0.476 151 87 59 0
1.9512 44.0663 -24.3786 0.855 -0.058 0.516 148 82 55 0
2.5693 43.9993 -24.2264 0.591 -0.778 0.213 143 74 48 0
5.4932 47.1479 -22.9712 0.855 -0.382 0.351 101 34 40 0
2.8860 52.1845 -22.8791 0.484 0.547 0.683 89 49 45 0
2.4212 52.7178 -22.9190 0.453 0.557 0.696 91 53 50 0
-2.4536 59.1667 -23.2052 0.498 0.587 0.639 215 200 187 0
-3.5888 60.1514 -23.3518 0.445 0.557 0.701 213 200 186 0
4.6138 68.9485 -19.8360 0.859 -0.468 0.207 204 197 182 0
4.8548 69.0512 -19.7568 0.906 -0.396 0.149 204 196 183 0
3.9439 71.7531 -19.5791 0.984 0.048 -0.172 204 194 177 0
4.2048 77.7275 -18.5879 0.586 -0.751 0.303 200 188 168 0
3.4910 84.4487 -17.7377 0.438 0.251 0.863 194 180 163 0
3.3047 84.9262 -17.7130 0.491 0.284 0.823 193 180 163 0
25.5721 71.0074 -14.0060 0.389 0.323 0.863 188 172 151 0
32.1015 66.9504 -12.9153 0.637 -0.407 0.655 185 166 149 0
32.0220 67.2728 -12.8864 0.596 -0.797 -0.096 187 166 151 0
32.2988 67.2441 -12.8180 0.946 -0.307 0.103 188 166 151 0
14.5705 89.2844 -14.0771 0.432 0.046 0.901 185 165 140 0
14.3393 89.8304 -14.0536 0.414 0.006 0.910 185 165 140 0
35.3793 69.7129 -11.6266 0.906 -0.140 0.399 181 162 137 0
23.8950 84.4244 -12.3752 0.398 0.273 0.876 178 153 133 0
31.3797 82.4280 -10.7150 0.588 -0.641 -0.493 254 255 255 0
31.8146 82.1939 -10.6368 0.557 -0.668 -0.493 255 255 255 0
-18.8557 27.2935 -32.7023 0.768 -0.615 -0.178 227 214 190 0
-18.6576 27.4885 -32.6199 0.833 -0.500 -0.237 213 196 172 0
-1.9026 27.1616 -28.2340 0.747 -0.070 0.661 123 52 51 0
-2.0175 27.4305 -28.2230 0.752 -0.066 0.656 122 50 50 0
0.4607 28.8365 -27.3508 0.734 -0.609 0.301 118 48 50 0
-4.6789 39.2758 -27.1072 0.038 -0.130 0.991 120 80 44 0
-2.3925 40.2532 -26.3516 0.940 0.043 -0.339 134 97 52 0
-2.1208 40.6270 -26.2222 0.755 0.360 0.548 135 97 53 0
-2.1732 40.9005 -26.1940 0.851 0.176 0.495 136 97 54 0
-3.9366 41.9695 -26.4966 0.723 0.690 0.016 135 95 51 0
-2.6434 41.6201 -26.2079 0.849 -0.047 -0.526 136 95 50 0
-2.9413 42.0114 -26.2267 0.537 -0.489 -0.687 138 95 50 0
1.7427 43.4908 -24.7591 0.188 -0.637 0.748 145 87 55 0
2.6432 43.7779 -24.4766 0.691 -0.547 0.473 142 76 49 0
6.3282 46.0147 -23.1571 0.572 -0.762 0.304 103 37 38 0
5.5293 48.6893 -22.9576 0.989 -0.106 0.104 94 38 39 0
5.5503 48.9278 -22.9154 0.989 -0.106 0.104 92 39 39 0
-1.9149 58.9114 -23.3575 0.493 0.586 0.644 215 199 187 0
-2.9986 59.8638 -23.4981 0.445 0.557 0.701 214 200 187 0
1.6631 57.7690 -22.5858 0.280 -0.960 -0.010 214 204 189 0
1.3125 58.8051 -22.5194 0.433 -0.902 0.007 215 205 193 0
5.1153 68.9438 -19.9543 0.824 -0.563 -0.069 207 198 186 0
3.8237 71.9380 -19.8361 0.987 0.071 -0.144 208 196 180 0
31.9754 66.1874 -13.2662 0.365 0.121 0.923 187 168 150 0
32.5406 66.8494 -13.0148 0.726 -0.608 0.323 186 166 149 0
32.4168 67.4596 -12.9538 0.948 -0.186 0.259 185 166 149 0
35.0262 70.6716 -11.7693 0.507 -0.014 0.862 180 160 135 0
34.8650 71.3393 -11.7093 0.274 -0.302 0.913 177 155 133 0
36.7386 69.8148 -11.4475 0.378 -0.553 0.742 179 155 135 0
26.7765 84.4692 -11.8329 0.643 0.147 0.752 173 150 124 0
31.4174 82.4910 -10.9082 0.584 -0.644 -0.494 254 255 255 0
31.8089 82.3071 -10.8328 0.582 -0.714 -0.389 255 255 255 0
-0.1204 -8.1053 -33.3850 0.208 -0.810 -0.548 228 215 183 0
-19.1420 26.9203 -33.0974 0.877 -0.401 -0.266 232 220 198 0
-18.8709 27.3491 -32.9596 0.768 -0.615 -0.178 226 214 191 0
-18.7069 27.5546 -32.8844 0.839 -0.498 -0.221 200 183 160 0
-17.8178 28.3015 -32.5332 0.645 -0.761 -0.077 139 100 93 0
-1.7069 26.9143 -28.4512 0.861 -0.505 -0.066 130 59 59 0
-1.7205 27.1476 -28.4192 0.965 -0.144 0.219 120 48 49 0
-1.6392 27.3485 -28.3668 0.906 -0.363 0.217 120 46 47 0
1.6949 30.7069 -26.9644 0.323 -0.494 0.807 132 55 47 0
-1.4237 39.3780 -26.4693 0.948 -0.257 -0.186 127 94 49 0
-2.3339 41.0360 -26.4583 0.689 0.361 0.629 133 95 51 0
-3.2836 41.7281 -26.6055 0.958 0.060 -0.282 130 91 48 0
-3.2895 41.9838 -26.5680 0.960 0.062 -0.273 128 88 45 0
-3.3637 42.2719 -26.5437 0.444 -0.635 -0.632 136 94 50 0
-2.7474 42.4880 -26.3464 0.886 -0.126 -0.447 135 92 48 0
0.6742 43.5908 -25.2657 0.840 -0.427 0.335 139 86 53 0
1.0204 43.6675 -25.1617 0.659 -0.719 0.222 141 86 53 0
5.6064 46.9701 -23.4342 0.888 -0.417 0.194 97 32 36 0
7.4601 47.1676 -22.9099 0.464 -0.837 0.289 91 35 38 0
5.5068 48.7700 -23.1854 0.957 -0.263 0.120 90 36 38 0
0.9488 80.3204 -19.5743 0.273 -0.961 -0.052 199 188 166 0
32.2526 66.7334 -13.3090 0.189 0.079 0.979 185 166 149 0
35.5800 69.1944 -12.0457 0.833 -0.361 0.419 184 164 141 0
34.7522 71.5539 -11.9054 0.573 -0.270 0.774 179 155 134 0
23.9991 85.3876 -12.6555 0.308 -0.615 0.726 175 155 130 0
25.4242 84.1034 -12.4720 0.498 -0.689 0.526 174 154 129 0
31.9206 82.2833 -11.0189 0.560 -0.672 -0.485 255 255 255 0
13.3198 -7.4736 -29.8857 0.160 -0.879 -0.450 237 219 194 0
-19.1633 26.9774 -33.3567 0.864 -0.452 -0.224 230 219 196 0
-18.6813 27.5980 -33.1329 0.884 -0.448 -0.137 189 170 151 0
-18.5731 27.8204 -33.0700 0.887 -0.442 -0.133 158 133 117 0
-1.6440 27.3990 -28.5919 0.809 -0.569 0.147 118 45 47 0
-1.3893 39.4221 -26.6933 0.943 -0.281 -0.179 124 91 48 0
-1.5060 39.7219 -26.6790 0.939 -0.300 -0.166 126 92 48 0
-2.0099 40.9472 -26.6277 0.853 0.159 0.497 130 93 49 0
-2.1751 41.2741 -26.6222 0.863 0.181 0.472 127 90 46 0
-3.4347 42.1139 -26.8323 0.957 0.076 -0.280 126 88 45 0
-3.1943 42.5085 -26.7078 0.588 -0.803 -0.097 133 93 50 0
-2.9460 42.6448 -26.6204 0.889 -0.135 -0.437 133 93 50 0
-2.7570 42.8087 -26.5447 0.884 -0.142 -0.445 134 92 50 0
-2.8099 43.0879 -26.5164 0.942 -0.121 -0.313 136 94 51 0
0.7673 43.6077 -25.4775 0.840 -0.427 0.335 136 88 51 0
6.7782 45.8984 -23.5160 0.447 -0.541 0.713 96 33 34 0
0.8040 59.0128 -23.1225 0.240 -0.956 -0.167 213 203 191 0
3.1174 91.8138 -17.5085 0.783 0.509 0.358 191 171 152 0
1.6688 93.5187 -17.6376 0.741 0.618 0.263 189 171 151 0
10.1626 94.5173 -15.2066 -0.245 -0.785 0.569 184 164 139 0
34.8893 70.7553 -12.1895 0.747 -0.176 0.641 181 161 137 0
34.8183 71.0790 -12.1593 0.764 -0.251 0.594 181 159 135 0
34.6930 71.9609 -12.0587 0.949 0.077 0.306 180 153 134 0
35.2927 71.5625 -11.9584 0.980 -0.054 -0.189 179 154 134 0
35.5550 71.5267 -11.8935 0.880 0.148 -0.452 177 155 134 0
35.8298 71.4761 -11.8275 0.917 0.178 -0.356 176 154 133 0
24.4376 85.0142 -12.8232 0.662 -0.636 0.397 175 155 130 0
31.6155 80.0359 -11.6552 0.604 -0.531 -0.595 170 148 124 0
31.7917 82.2683 -11.2681 0.521 -0.726 -0.449 254 255 255 0
-7.7204 -9.8653 -36.1104 0.829 -0.512 -0.224 255 255 255 0
1.7624 1.6890 -31.7988 0.495 -0.679 0.542 239 222 195 0
-18.9938 26.9777 -33.5735 0.959 -0.259 -0.118 230 219 195 0
-18.9096 27.2076 -33.5159 0.955 -0.271 -0.116 227 214 190 0
-17.9393 28.1876 -33.1054 0.967 0.094 0.235 144 105 95 0
-1.7294 27.0189 -28.9044 0.834 -0.552 -0.025 118 50 50 0
-1.6970 27.2369 -28.8627 0.803 -0.595 -0.032 117 48 49 0
-1.4131 39.4926 -26.9293 0.943 -0.281 -0.179 125 92 49 0
-1.6350 40.8344 -26.7859 0.843 0.118 0.525 128 91 47 0
-3.2483 41.8358 -27.0699 0.997 0.052 -0.050 127 90 46 0
-3.5642 42.2370 -27.0945 0.990 -0.088 -0.113 126 88 44 0
-2.7638 43.1291 -26.7431 0.909 -0.324 -0.261 134 92 49 0
1.1028 43.2547 -25.6798 0.409 -0.867 0.284 131 86 51 0
5.1721 47.3431 -23.9614 0.963 0.104 0.251 95 35 37 0
6.0953 48.0719 -23.6016 0.056 -0.985 0.164 90 34 37 0
8.1468 48.8778 -22.9254 0.523 -0.126 0.843 79 35 37 0
3.0785 52.8789 -23.6882 0.475 -0.262 0.840 79 40 41 0
3.0509 53.1565 -23.6536 0.452 -0.033 0.891 79 44 45 0
2.5584 53.7127 -23.7023 0.250 0.026 0.968 82 48 49 0
1.7502 54.4615 -23.8071 0.318 -0.122 0.940 85 54 53 0
0.8265 59.0772 -23.3574 0.234 -0.959 -0.160 213 203 191 0
4.4352 71.1628 -20.5518 0.441 -0.856 0.270 206 194 178 0
0.5803 81.1398 -20.0814 0.609 -0.790 -0.066 198 187 167 0
-0.3619 82.2376 -20.1695 0.601 -0.256 0.757 199 188 169 0
10.7471 94.0275 -15.3830 -0.240 -0.788 0.567 184 165 140 0
34.7496 71.9941 -12.2384 0.958 0.113 0.265 179 154 134 0
34.6376 72.3658 -12.2124 0.961 0.100 -0.259 179 154 134 0
28.4247 82.3810 -12.3731 0.343 0.232 0.910 175 154 127 0
31.9788 82.1565 -11.4472 0.553 -0.705 -0.443 254 255 255 0
-7.7680 -9.8439 -36.3358 0.829 -0.512 -0.224 255 255 255 0
1.1222 1.6073 -32.1925 0.511 -0.777 0.367 239 223 197 0
-17.9160 28.2321 -33.3540 0.972 0.087 0.220 143 103 94 0
2.3391 32.9103 -27.1422 0.599 0.251 0.760 116 47 32 0
-1.6341 40.8952 -27.0185 0.856 0.207 0.474 129 95 50 0
-2.7723 42.6881 -27.0576 0.555 -0.226 0.801 127 89 46 0
-2.4902 42.8074 -26.9629 0.650 -0.421 0.632 129 89 47 0
-2.5792 43.1039 -26.9424 0.762 -0.634 -0.131 130 88 47 0
-1.7835 43.4811 -26.6692 0.548 -0.662 -0.511 135 93 53 0
7.3264 46.2156 -23.7803 0.701 -0.339 0.628 94 34 34 0
6.7789 46.7650 -23.8464 0.691 -0.721 -0.048 91 34 34 0
6.1326 47.6207 -23.8930 0.844 -0.435 -0.315 89 35 35 0
6.1194 47.8767 -23.8580 0.549 -0.739 -0.390 89 34 35 0
1.8572 54.7367 -23.9825 0.353 0.132 0.926 86 55 53 0
0.9801 80.5995 -20.3217 0.817 -0.545 0.190 201 189 172 0
1.4678 80.5028 -20.2037 0.631 -0.753 -0.189 199 188 170 0
1.1238 81.0993 -20.2073 0.713 -0.524 0.467 198 187 169 0
17.4614 77.8352 -16.2579 0.867 -0.400 0.296 192 174 154 0
10.5886 90.1878 -16.2639 -0.103 -0.948 0.302 187 165 151 0
17.9174 86.0739 -14.8918 0.278 0.044 0.960 185 166 143 0
34.3224 73.3077 -12.3567 0.898 -0.218 0.381 175 153 132 0
30.2194 81.0155 -12.3100 0.623 0.473 0.624 173 152 125 0
31.0150 80.3868 -12.1885 0.498 0.059 0.865 173 152 125 0
31.0881 80.5743 -12.1404 0.673 -0.065 0.737 171 149 126 0
31.9224 82.3293 -11.6490 0.555 -0.697 -0.454 254 255 255 0
-18.1648 26.0724 -34.0080 0.753 -0.440 0.489 233 222 200 0
-18.4435 26.6611 -33.9960 0.770 -0.574 0.280 230 219 195 0
-17.6111 27.9347 -33.5771 0.956 0.225 0.190 148 111 101 0
-1.4602 40.6264 -27.2535 0.856 0.182 0.485 126 92 48 0
-1.6817 41.2284 -27.2238 0.849 0.209 0.486 125 91 46 0
-2.4219 42.3312 -27.2608 0.533 -0.238 0.812 123 88 46 0
-2.5453 43.1510 -27.1716 0.743 -0.620 0.253 131 92 51 0
-2.2402 43.2583 -27.0720 0.624 -0.777 -0.075 132 92 51 0
4.9321 42.4397 -25.2323 0.631 -0.107 0.768 135 69 47 0
7.5187 46.1743 -23.9642 0.698 -0.346 0.627 94 34 34 0
6.9226 46.7510 -24.0408 0.615 -0.714 0.335 91 33 32 0
0.3179 81.5640 -20.6249 0.133 -0.964 0.230 198 186 170 0
30.8038 80.4597 -12.4486 0.639 0.480 0.601 174 153 126 0
31.4066 80.0470 -12.3456 0.486 0.082 0.870 172 151 125 0
31.1281 80.6335 -12.3338 0.677 -0.075 0.732 171 149 125 0
31.5344 80.4409 -12.2515 0.360 -0.363 0.859 171 150 126 0
31.9071 82.4545 -11.8474 0.556 -0.701 -0.448 254 255 255 0
-18.1959 26.1315 -34.2688 0.855 -0.437 0.279 232 222 198 0
-18.3437 26.6820 -34.2274 0.770 -0.574 0.280 231 219 195 0
-18.0371 26.8445 -34.1186 0.824 -0.566 0.026 228 216 192 0
-17.7506 27.0123 -34.0147 0.882 -0.471 -0.020 226 211 188 0
-1.5462 26.4159 -29.6408 0.713 -0.700 0.022 115 53 54 0
-1.8148 40.8516 -27.5596 0.942 0.333 0.043 123 91 46 0
-2.2660 41.8151 -27.5400 0.968 0.252 0.007 122 89 46 0
-1.5959 43.5170 -27.1013 0.238 -0.955 0.175 132 90 49 0
4.6677 41.4252 -25.6885 0.066 -0.475 0.877 136 79 52 0
5.2274 42.3518 -25.3961 0.538 -0.276 0.796 131 61 42 0
7.7632 45.8603 -24.1738 0.774 -0.606 0.182 96 33 34 0
7.0979 46.7193 -24.2288 0.691 -0.668 0.277 92 32 32 0
5.4185 48.6584 -24.4019 0.959 -0.243 -0.146 85 33 32 0
5.3647 48.9405 -24.3746 0.848 -0.410 0.335 83 31 31 0
5.3979 49.1735 -24.3306 0.785 -0.399 0.474 82 30 32 0
5.7155 52.5504 -23.7390 0.982 -0.117 0.150 83 53 49 0
5.6986 52.8179 -23.7037 0.982 -0.127 0.138 85 54 51 0
30.4680 80.9444 -12.6826 0.554 0.427 0.715 174 152 127 0
31.3894 80.1707 -12.5443 0.766 0.044 0.641 174 152 128 0
31.4079 80.4196 -12.5021 0.703 -0.025 0.710 173 151 127 0
31.7005 80.3559 -12.4310 0.299 -0.442 0.845 170 150 125 0
31.5772 80.7671 -12.4036 0.770 -0.595 -0.229 168 148 123 0
31.6230 82.8949 -12.0733 0.407 -0.800 -0.441 254 255 255 0
-7.9080 -9.7796 -37.0137 0.793 -0.564 -0.230 255 255 255 0
-5.1800 -8.5379 -36.0730 0.881 -0.445 -0.163 232 218 192 0
-17.2827 25.6625 -34.3469 0.898 -0.354 0.260 233 222 199 0
-18.1526 26.1689 -34.5128 0.842 -0.420 0.338 232 222 198 0
-17.9775 26.8773 -34.3590 0.814 -0.580 0.012 228 215 192 0
-17.7323 27.0575 -34.2642 0.882 -0.471 -0.020 225 209 186 0
-0.4218 40.5140 -27.4667 0.931 0.175 0.321 123 91 46 0
5.6160 49.6218 -24.4399 0.681 0.298 0.669 81 31 33 0
5.3704 52.5736 -24.0695 0.980 -0.198 -0.019 81 48 44 0
5.7360 52.8674 -23.9245 0.982 -0.127 0.138 82 50 49 0
1.6390 55.8954 -24.6103 0.373 0.538 0.756 88 58 59 0
12.3659 64.0594 -20.4240 0.927 0.035 0.373 209 197 182 0
25.5432 60.4388 -17.3092 -0.188 -0.426 0.885 199 187 171 0
17.6877 67.7786 -18.3963 0.399 0.104 0.911 201 188 171 0
22.3097 65.9227 -17.3908 0.070 -0.381 0.922 197 184 166 0
35.2394 68.6318 -13.4042 0.598 -0.780 -0.186 187 166 145 0
34.4061 69.9951 -13.4327 0.465 -0.884 -0.051 186 165 143 0
34.4222 70.2260 -13.3939 0.502 -0.831 -0.240 186 166 142 0
31.5749 80.3338 -12.6815 0.334 0.016 0.942 171 150 125 0
31.3642 80.8450 -12.6640 0.356 0.038 0.934 170 149 123 0
-7.9074 -9.7590 -37.2275 0.821 -0.517 -0.242 255 255 255 0
-5.0302 -8.7075 -36.2693 0.829 -0.485 -0.277 233 218 190 0
-22.8917 27.0869 -35.9609 0.861 0.481 -0.165 234 224 197 0
-18.0921 26.7083 -34.6779 0.867 -0.497 0.028 230 219 196 0
-17.9658 26.9245 -34.6106 0.822 -0.569 0.013 229 217 193 0
-17.7447 27.1121 -34.5213 0.876 -0.481 -0.030 221 205 182 0
2.1440 41.0813 -26.9077 -0.160 -0.290 0.944 130 93 54 0
2.4263 41.4341 -26.7767 -0.156 -0.290 0.944 132 85 49 0
6.4245 41.3884 -25.6681 0.317 -0.379 0.869 136 60 42 0
8.2060 42.3803 -25.0245 0.738 -0.673 -0.043 128 54 44 0
6.6462 47.1041 -24.7613 0.966 -0.231 -0.117 94 31 32 0
4.5690 50.8077 -24.7933 0.379 -0.914 -0.143 78 32 34 0
5.6979 52.4479 -24.2359 0.628 0.269 0.730 78 43 42 0
5.3848 52.8951 -24.2571 0.970 -0.244 0.010 79 45 45 0
5.3947 53.4066 -24.1788 0.990 -0.127 -0.065 81 50 51 0
22.3546 62.4263 -18.1139 0.161 -0.596 0.787 203 189 177 0
17.9453 67.9149 -18.5327 0.382 -0.009 0.924 198 185 168 0
35.2423 68.4752 -13.6243 0.669 -0.731 -0.131 185 164 145 0
35.4233 68.5302 -13.5657 0.560 -0.818 -0.134 184 163 142 0
35.6025 68.8302 -13.4714 0.638 -0.758 0.135 187 165 144 0
30.7357 76.0339 -13.7642 -0.008 -0.982 0.188 182 164 139 0
31.1945 75.8021 -13.6704 -0.107 -0.947 0.302 182 162 138 0
31.6961 75.7829 -13.5333 -0.109 -0.938 0.328 177 155 132 0
15.8432 93.3087 -15.3651 -0.038 -0.101 0.994 176 155 132 0
31.6104 79.8585 -12.9548 0.544 0.384 0.746 171 151 127 0
30.8682 80.9728 -12.9971 0.544 0.386 0.745 170 150 126 0
31.2164 81.1195 -12.8783 0.598 0.231 0.768 172 149 124 0
32.2382 82.6614 -12.3653 0.533 -0.713 -0.456 255 255 254 0
-7.9613 -9.7373 -37.4567 0.821 -0.517 -0.242 255 255 255 0
-5.1488 -8.6831 -36.5119 0.850 -0.455 -0.267 233 217 191 0
-19.2168 25.8172 -35.3870 0.921 0.230 -0.313 234 224 199 0
-23.0879 27.1954 -36.2712 0.869 0.466 -0.166 234 224 197 0
-17.9069 25.9441 -35.0006 0.968 -0.035 0.250 232 222 197 0
-18.0539 26.4937 -34.9610 0.891 -0.444 0.091 229 218 196 0
-17.8839 26.9507 -34.8460 0.872 -0.489 -0.003 228 216 192 0
-17.7281 27.1579 -34.7718 0.876 -0.481 -0.030 214 198 175 0
-8.8046 26.1296 -32.4177 0.017 -0.999 -0.046 136 88 86 0
3.4075 28.4221 -28.6518 0.726 -0.216 0.653 115 43 45 0
3.3518 35.5526 -27.6186 0.240 0.134 0.961 125 80 49 0
2.6434 39.2038 -27.2804 -0.062 -0.206 0.977 119 84 42 0
6.3346 40.7787 -26.0124 0.125 -0.340 0.932 129 67 43 0
7.8853 42.3714 -25.3427 0.303 -0.610 0.733 126 52 40 0
8.1241 42.4850 -25.2589 0.660 -0.405 0.633 126 52 42 0
6.9783 46.9848 -24.9188 0.929 -0.355 -0.102 94 32 33 0
7.3059 47.0476 -24.8175 0.970 -0.225 -0.094 89 30 31 0
4.5055 50.9151 -25.0349 0.367 -0.927 -0.072 77 31 33 0
28.7701 52.8551 -17.9369 0.424 -0.901 0.089 206 194 178 0
18.7524 66.7941 -18.6992 0.381 0.098 0.919 199 186 169 0
18.5955 67.1893 -18.6851 0.395 0.096 0.914 199 186 169 0
21.9145 68.7750 -17.5200 0.486 0.287 0.826 193 182 164 0
1.5864 87.8658 -20.4193 0.387 -0.917 0.101 190 178 162 0
34.5449 70.5296 -13.7158 0.526 -0.824 -0.210 184 163 142 0
33.4165 71.9760 -13.8198 0.459 -0.838 -0.295 183 162 141 0
31.1999 74.8488 -14.0196 0.352 -0.687 -0.635 182 161 140 0
31.4257 74.8679 -13.9534 0.356 -0.682 -0.639 182 161 140 0
31.3086 75.7776 -13.8525 0.008 -0.978 0.211 183 162 141 0
17.1127 92.3532 -15.4000 -0.023 -0.070 0.997 177 155 132 0
31.9257 79.8732 -13.0768 0.741 -0.118 0.661 169 148 127 0
32.3134 79.6993 -12.9935 0.276 -0.065 0.959 170 147 128 0
32.1769 80.1243 -12.9693 0.226 -0.121 0.967 171 148 128 0
-8.0074 -9.7157 -37.6842 0.842 -0.483 -0.241 255 255 255 0
-5.2142 -8.6601 -36.7404 0.841 -0.467 -0.273 234 216 191 0
-19.9230 25.8152 -35.8508 0.851 0.525 0.010 234 224 199 0
-17.8828 25.9870 -35.2492 0.860 -0.328 0.391 232 222 197 0
-18.1933 26.5854 -35.2494 0.852 -0.512 0.112 230 219 197 0
-18.0015 26.7825 -35.1663 0.863 -0.505 -0.000 228 216 193 0
-17.8750 26.9989 -35.0989 0.863 -0.505 -0.000 227 215 191 0
-17.7060 27.2022 -35.0214 0.862 -0.506 -0.011 204 187 165 0
-9.3937 26.1243 -32.8305 0.013 -1.000 -0.029 138 90 87 0
-7.0735 25.6315 -32.2470 0.054 -0.999 -0.005 135 87 85 0
-0.7692 26.1176 -30.3946 0.585 -0.809 -0.050 115 58 59 0
3.8217 28.9889 -28.6772 0.658 -0.666 0.352 118 42 45 0
4.1897 29.2975 -28.5281 0.616 -0.698 0.364 118 38 40 0
4.4886 34.8791 -27.6267 0.208 0.187 0.960 134 84 51 0
3.9990 35.3254 -27.6997 0.227 0.202 0.953 131 83 50 0
4.3929 38.2075 -27.1666 -0.003 -0.213 0.977 121 79 43 0
8.1856 42.5148 -25.4646 0.657 -0.364 0.659 116 42 33 0
7.9691 42.8670 -25.4742 0.826 -0.188 0.532 117 42 35 0
8.0504 43.0634 -25.4225 0.580 -0.484 0.655 116 41 35 0
6.6123 52.2940 -24.4779 0.207 -0.273 0.940 75 40 41 0
28.4642 52.7122 -18.2424 0.437 -0.891 0.123 208 196 181 0
12.0583 69.1700 -20.4692 0.963 -0.058 0.263 204 192 178 0
12.8442 68.8087 -20.3001 0.803 -0.129 0.581 202 190 176 0
18.4352 67.1482 -18.9633 0.927 -0.335 0.168 199 186 169 0
26.0775 69.2055 -16.5029 0.741 0.665 0.093 190 175 155 0
39.3732 61.1464 -13.9256 0.891 0.315 -0.327 185 167 145 0
39.5092 62.3689 -13.7083 0.822 0.404 -0.401 182 163 145 0
31.7231 72.5839 -14.4132 0.736 -0.115 -0.667 184 162 147 0
32.1559 79.7148 -13.2473 0.766 -0.151 0.625 171 150 131 0
32.2069 79.9253 -13.2021 0.758 -0.163 0.631 171 148 131 0
32.6328 79.7058 -13.1139 0.719 -0.555 0.417 171 148 129 0
32.2792 82.8290 -12.7567 0.535 -0.714 -0.451 255 255 254 0
-8.0783 -9.6936 -37.9191 0.847 -0.472 -0.245 255 255 255 0
-18.2275 26.6461 -35.5132 0.871 -0.490 0.040 230 219 197 0
-18.0129 26.8367 -35.4245 0.887 -0.462 0.017 227 215 192 0
-17.8875 27.0535 -35.3572 0.876 -0.481 0.048 227 214 190 0
-17.6918 27.2490 -35.2731 0.866 -0.501 -0.010 203 186 164 0
-8.4371 25.8725 -32.8421 -0.086 -0.984 0.155 138 90 88 0
-0.1177 26.6245 -30.3670 0.372 -0.927 -0.046 113 48 52 0
3.6740 28.6457 -28.9946 0.779 -0.311 0.545 116 40 47 0
4.6518 31.1956 -28.3452 0.731 -0.245 0.636 120 44 39 0
4.2859 37.1315 -27.5849 -0.200 -0.439 0.876 122 69 40 0
6.1430 37.9183 -26.9423 0.049 -0.409 0.911 128 75 46 0
8.4866 42.4190 -25.6205 0.736 -0.348 0.581 113 39 32 0
8.2830 42.7642 -25.6281 0.571 -0.616 0.543 112 37 32 0
8.4423 42.9188 -25.5603 0.553 -0.635 0.539 112 37 32 0
9.0196 44.5240 -25.1624 0.778 -0.623 0.080 116 49 47 0
7.2074 50.4826 -24.8100 0.165 -0.517 0.840 71 30 31 0
2.7860 56.5625 -25.1819 0.572 0.591 0.570 98 74 74 0
28.6785 52.6184 -18.3939 0.544 -0.839 0.009 209 197 183 0
12.7617 68.6904 -20.5793 0.959 -0.213 0.185 203 191 176 0
12.8738 68.8739 -20.5208 0.996 -0.034 0.086 202 190 174 0
21.8528 63.5947 -18.7364 0.138 -0.598 0.790 200 187 170 0
18.3426 67.3137 -19.1929 0.925 -0.260 0.277 198 185 168 0
18.4708 67.4700 -19.1337 0.950 -0.216 0.224 199 186 169 0
19.8517 70.7978 -18.2565 0.970 -0.053 -0.237 192 179 162 0
28.3873 76.4415 -15.0077 0.936 -0.163 0.313 186 164 150 0
34.9406 70.5437 -14.0031 0.465 -0.642 -0.610 180 161 144 0
31.3370 75.1588 -14.3557 0.365 -0.582 -0.727 180 160 143 0
14.9307 95.2986 -16.0880 -0.035 -0.032 0.999 178 156 135 0
-23.1633 27.3727 -37.0836 -0.035 -0.797 0.603 234 224 197 0
-22.0512 27.3099 -36.7746 0.251 -0.689 0.680 232 222 197 0
-19.9857 26.9615 -36.2340 0.379 -0.549 0.745 230 220 197 0
-17.9688 26.8742 -35.6695 0.876 -0.481 0.048 226 215 192 0
-17.8519 27.0937 -35.6043 0.876 -0.481 0.048 224 212 188 0
-17.6432 27.2853 -35.5168 0.908 -0.393 0.148 195 178 156 0
-12.0534 26.8141 -33.9857 -0.090 -0.959 0.267 140 94 91 0
3.8183 28.6411 -29.1796 0.782 -0.298 0.547 113 37 44 0
9.0348 44.3393 -25.4126 0.757 -0.649 0.079 110 40 38 0
7.9779 50.8483 -24.7721 0.527 0.012 0.850 73 33 34 0
6.9059 53.2849 -24.7258 0.686 0.655 0.317 81 52 51 0
12.0607 69.9015 -20.8434 0.899 0.008 -0.438 202 190 174 0
18.8800 66.4230 -19.3962 0.852 -0.073 0.518 200 187 170 0
18.6139 66.9091 -19.4019 0.849 0.021 0.529 200 187 170 0
19.8746 71.1380 -18.4285 0.958 -0.075 -0.276 194 181 162 0
1.9205 98.5026 -19.6012 0.993 -0.040 -0.110 182 165 142 0
2.3106 98.4529 -19.4968 0.829 0.164 -0.534 181 165 140 0
-12.2822 23.0428 -34.8479 0.977 -0.111 0.181 237 226 205 0
-19.4990 26.8688 -36.3743 0.407 -0.454 0.793 230 220 197 0
-17.8787 26.8981 -35.9036 0.924 -0.364 0.120 227 216 192 0
-17.7381 27.1104 -35.8325 0.914 -0.379 0.143 225 211 187 0
-17.5434 27.3062 -35.7482 0.840 -0.474 0.263 185 167 146 0
-8.4799 25.9835 -33.3292 -0.074 -0.985 0.154 134 87 83 0
-5.8971 25.4034 -32.6692 -0.028 -0.999 -0.036 132 83 80 0
0.6819 26.2197 -30.6573 0.648 -0.411 0.641 111 49 54 0
4.0156 28.6166 -29.3519 0.868 -0.310 0.389 112 36 43 0
9.4251 44.6696 -25.4805 0.831 -0.551 0.074 103 35 37 0
6.6885 49.9189 -25.5119 0.994 0.098 0.049 73 24 30 0
-5.6845 64.0651 -27.0354 0.490 0.736 0.468 214 199 185 0
21.2431 59.4954 -19.9408 -0.078 -0.222 0.972 204 196 178 0
19.8245 65.4578 -19.4899 0.787 0.003 0.617 200 188 172 0
19.0228 66.3900 -19.5864 0.848 -0.073 0.525 199 186 170 0
2.0952 99.1344 -19.7406 0.826 0.170 -0.538 181 165 143 0
-7.8232 -8.6860 -38.3565 0.763 -0.599 -0.242 232 216 193 0
-12.6997 23.4493 -35.1612 0.996 -0.043 0.080 236 225 203 0
-18.5833 26.6487 -36.4070 0.540 -0.511 0.669 230 219 197 0
-18.4475 27.1196 -36.3002 0.483 -0.631 0.607 226 214 190 0
-18.1460 27.2846 -36.1892 0.632 -0.449 0.632 224 210 186 0
-17.9454 27.4795 -36.1031 0.651 -0.417 0.635 181 161 141 0
-17.1239 27.7387 -35.8279 0.447 -0.671 0.591 150 116 106 0
-17.2439 28.0308 -35.8208 0.501 -0.559 0.661 147 110 101 0
-8.3795 26.0007 -33.5437 -0.087 -0.981 0.175 135 88 84 0
-6.3821 25.6054 -33.0217 -0.078 -0.988 0.132 132 82 81 0
6.2169 30.7202 -28.6380 0.612 -0.689 0.388 112 37 41 0
6.6092 31.0087 -28.4830 0.866 -0.393 0.310 113 37 38 0
4.2213 52.2133 -26.1341 0.707 -0.302 0.639 70 27 29 0
-0.3238 76.1915 -24.0125 -0.183 -0.522 0.833 205 196 179 0
18.9168 66.8289 -19.7807 0.944 -0.261 0.203 198 187 170 0
29.9807 65.3917 -16.7813 0.688 0.682 0.248 189 175 159 0
26.0613 69.5832 -17.3158 0.669 0.670 0.323 189 176 159 0
15.5465 84.2092 -18.2648 0.690 0.681 0.246 184 166 151 0
1.8128 99.5434 -20.0449 0.826 0.170 -0.538 179 163 144 0
21.4716 88.4489 -15.9403 -0.073 -0.066 0.995 175 154 135 0
-7.8027 -8.8560 -38.5942 0.840 -0.485 -0.244 228 216 192 0
-11.4344 22.4188 -35.1914 0.803 0.469 0.369 237 226 204 0
-17.9922 26.2700 -36.5537 0.677 -0.734 0.049 230 219 197 0
-18.3871 26.6414 -36.6158 0.515 -0.556 0.653 230 219 197 0
-18.2182 27.1019 -36.5009 0.483 -0.631 0.607 225 213 190 0
-17.9452 27.2752 -36.3966 0.632 -0.449 0.632 219 205 182 0
-17.7845 27.4820 -36.3202 0.658 -0.429 0.619 174 154 135 0
-16.6939 27.6577 -35.9772 0.438 -0.653 0.617 150 116 106 0
-17.1895 28.0657 -36.0635 0.448 -0.526 0.723 143 107 97 0
-10.4353 26.4562 -34.3241 -0.015 -0.978 0.209 136 92 87 0
-7.9159 25.9030 -33.6686 -0.087 -0.976 0.199 133 90 86 0
-6.3578 25.6460 -33.2510 -0.077 -0.990 0.120 129 81 79 0
0.9422 27.1298 -30.9113 0.714 -0.429 0.553 116 59 60 0
3.0086 28.4175 -30.1252 0.513 -0.450 0.731 115 40 47 0
6.8562 31.4068 -28.5771 0.894 -0.447 0.040 131 54 48 0
8.6609 37.8819 -27.1273 0.443 -0.662 0.604 120 56 48 0
8.8092 38.0414 -27.0613 0.443 -0.662 0.604 115 51 43 0
9.7178 38.9829 -26.6621 0.331 -0.642 0.692 108 39 31 0
9.8346 39.1560 -26.6034 0.711 -0.107 0.695 106 38 30 0
10.4516 42.8085 -25.9025 0.849 -0.107 0.518 104 29 34 0
6.1955 48.8301 -26.2842 0.580 -0.181 -0.794 84 24 31 0
6.3407 48.9985 -26.2178 0.608 -0.181 -0.773 81 23 29 0
-4.5466 64.0824 -27.2399 0.490 0.683 0.542 210 202 183 0
17.1947 66.7671 -20.5189 0.825 0.287 -0.486 201 188 172 0
27.2591 67.5254 -17.4767 0.320 -0.450 0.834 192 176 158 0
25.9574 69.7723 -17.5356 0.699 0.678 0.228 188 175 159 0
15.4841 84.3789 -18.5051 0.684 0.677 0.273 184 167 151 0
1.6758 99.8066 -20.3297 0.994 -0.080 -0.077 179 164 145 0
31.9133 81.3315 -14.1504 0.776 -0.469 -0.422 168 147 124 0
30.7839 84.8675 -13.9752 0.592 -0.599 -0.540 254 255 255 0
-7.8379 -8.8337 -38.8208 0.834 -0.497 -0.241 226 216 192 0
-19.6062 26.5391 -37.2528 0.903 0.407 -0.136 231 220 198 0
-17.8135 26.2677 -36.7655 0.634 -0.770 -0.067 230 219 197 0
-17.9156 26.5522 -36.7551 0.609 -0.487 0.626 230 219 197 0
-18.0083 27.0899 -36.7059 0.490 -0.621 0.612 226 212 190 0
-17.7561 27.2692 -36.6065 0.712 -0.362 0.602 216 201 178 0
-17.5925 27.4749 -36.5293 0.658 -0.429 0.619 170 150 133 0
-16.3154 27.5923 -36.1381 0.462 -0.670 0.580 147 114 105 0
-6.0742 25.6040 -33.4163 -0.077 -0.990 0.120 128 82 79 0
-4.5740 25.3587 -33.0111 0.415 -0.859 0.301 119 74 71 0
-4.4733 25.5589 -32.9531 0.331 -0.894 0.301 113 68 65 0
1.0781 26.6782 -31.1660 0.929 0.021 0.369 110 54 55 0
1.0246 26.9229 -31.1469 0.849 -0.041 0.527 106 50 51 0
1.0144 27.1530 -31.1173 0.848 -0.425 0.317 106 48 50 0
2.8604 28.2963 -30.4135 0.493 -0.477 0.728 113 42 48 0
4.7080 28.9514 -29.7786 0.801 -0.580 0.144 114 39 46 0
5.2874 29.1762 -29.5768 0.721 -0.307 0.622 115 40 45 0
9.2680 38.5696 -27.0761 0.453 -0.664 0.595 102 34 29 0
9.6129 38.8623 -26.9334 0.306 -0.762 0.571 110 39 34 0
9.8423 38.9796 -26.8495 0.319 -0.738 0.594 109 38 32 0
9.9829 39.1407 -26.7854 0.707 -0.101 0.700 105 35 29 0
9.5793 40.7416 -26.6766 0.480 -0.836 0.267 103 35 36 0
10.4669 42.1554 -26.2156 0.566 -0.587 0.579 117 46 45 0
10.5430 42.5857 -26.1322 0.763 -0.080 0.642 105 30 35 0
5.5427 49.0199 -26.6858 0.654 -0.135 -0.745 86 24 31 0
6.3989 49.7912 -26.3252 0.706 -0.294 -0.645 77 22 28 0
-5.0603 64.5017 -27.5988 0.485 0.686 0.542 210 202 182 0
0.9478 75.3905 -24.2913 -0.175 -0.525 0.833 206 194 178 0
17.3472 66.7283 -20.7103 0.765 0.125 -0.631 201 189 173 0
12.1289 73.5861 -21.2677 0.203 -0.877 0.436 198 185 169 0
1.8265 99.7798 -20.5723 0.996 -0.082 -0.041 179 164 146 0
30.7485 85.0203 -14.1835 0.592 -0.599 -0.540 254 255 255 0
31.7672 84.0903 -14.0167 0.631 -0.615 -0.473 255 255 255 0
-17.8097 26.5714 -36.9854 0.627 -0.472 0.620 230 219 197 0
-17.7400 27.0603 -36.8958 0.633 -0.459 0.623 227 212 191 0
