ply
format ascii 1.0
element vertex 841
property float x
property float y
property float z
property float nx
property float ny
property float nz
property uchar diffuse_red
property uchar diffuse_green
property uchar diffuse_blue
property uchar class
end_header
8.8111 59.9131 -43.4176 0.390 -0.839 0.378 57 105 79 0
9.0193 60.0790 -43.1673 0.551 -0.718 0.426 80 121 99 0
9.0388 60.2704 -43.0148 0.762 -0.602 0.239 107 140 123 0
9.1256 60.4520 -42.8279 0.795 -0.082 -0.601 120 149 134 0
9.2568 60.6269 -42.6185 0.758 -0.022 -0.652 132 155 143 0
9.2003 60.8282 -42.5057 0.809 -0.014 -0.587 137 153 145 0
8.8808 61.0681 -42.5270 0.985 -0.169 0.013 140 152 146 0
8.9239 61.2552 -42.3630 0.994 -0.096 0.049 141 152 147 0
8.9351 61.4468 -42.2155 0.994 -0.096 0.049 144 154 149 0
9.0198 61.6271 -42.0309 0.979 0.199 -0.052 147 154 150 0
-0.3411 83.8191 -31.5256 0.865 0.229 0.446 193 186 177 0
-0.2938 83.9952 -31.3671 0.912 0.240 0.331 193 186 178 0
-0.1092 84.1268 -31.1565 0.920 0.244 0.307 191 184 177 0
14.7271 87.5801 -19.4599 0.779 -0.478 -0.406 180 173 164 0
8.3559 38.4061 -59.8290 0.915 -0.318 -0.247 240 234 93 0
16.8740 43.5547 -50.7612 0.919 0.388 0.073 170 178 58 0
9.2049 44.5447 -54.7928 0.785 0.366 0.500 134 153 49 0
9.2465 44.7519 -54.6147 0.848 -0.231 0.478 127 147 48 0
10.4110 44.9519 -53.7452 0.667 0.607 0.432 120 142 49 0
10.1431 45.1589 -53.7594 0.858 0.266 0.440 111 137 51 0
10.0353 45.3652 -53.6748 0.865 0.258 0.430 97 128 49 0
9.9013 45.5719 -53.6061 0.960 0.071 0.273 84 120 48 0
21.9683 52.4717 -41.0495 0.930 -0.211 -0.300 19 108 59 0
4.1664 55.1557 -50.1245 0.274 -0.155 0.949 16 106 57 0
8.4949 57.7405 -45.5397 0.905 -0.412 -0.106 16 100 56 0
8.5247 57.9342 -45.3790 0.886 -0.317 -0.339 18 99 56 0
8.6747 58.1132 -45.1544 0.886 -0.317 -0.339 17 100 57 0
9.0275 58.2667 -44.8227 0.844 -0.525 -0.110 18 100 58 0
8.7803 58.8852 -44.5218 0.368 -0.408 0.835 23 98 58 0
8.5686 60.2814 -43.6274 0.773 -0.107 -0.626 38 94 65 0
8.7048 60.4572 -43.4138 0.769 -0.042 -0.638 46 98 72 0
8.8783 60.6270 -43.1814 0.760 -0.035 -0.649 54 103 79 0
8.9668 60.8084 -42.9932 0.758 -0.022 -0.651 73 114 94 0
8.9507 61.0045 -42.8592 0.790 -0.022 -0.613 104 138 122 0
8.8939 61.2065 -42.7460 0.998 -0.034 -0.062 122 151 136 0
8.9066 61.3982 -42.5973 0.998 -0.026 -0.053 131 157 144 0
8.8694 61.5972 -42.4742 0.995 -0.005 0.099 142 161 153 0
9.0174 61.7679 -42.2570 0.801 0.429 -0.418 144 159 153 0
9.1091 61.9466 -42.0688 0.781 0.455 -0.427 147 160 156 0
9.1058 62.1397 -41.9290 0.781 0.459 -0.424 149 160 156 0
9.2062 62.3163 -41.7370 0.750 0.487 -0.449 151 159 157 0
9.1410 62.5187 -41.6287 0.749 0.490 -0.447 154 159 158 0
9.0715 62.7220 -41.5226 0.749 0.490 -0.447 155 161 159 0
8.9498 62.9337 -41.4425 0.751 0.490 -0.443 154 162 160 0
8.9053 69.7550 -36.4592 0.818 0.262 0.512 185 181 183 0
8.5971 70.0103 -36.4629 0.747 0.282 0.603 184 181 184 0
8.6168 70.1926 -36.3168 0.962 0.145 0.231 186 183 184 0
-0.0047 83.8732 -31.6169 0.922 0.196 0.335 193 186 178 0
0.5700 83.8793 -31.2558 0.614 0.022 0.789 193 186 179 0
17.4503 34.9948 -57.0147 -0.170 -0.176 0.970 233 227 137 0
14.0562 41.4539 -54.3814 0.920 0.384 0.081 220 217 76 0
10.4185 45.0820 -53.9817 0.670 0.607 0.427 115 140 50 0
10.1435 45.4948 -53.8496 0.857 0.240 0.455 90 127 51 0
21.3903 52.4615 -41.7144 0.881 -0.457 0.121 18 108 57 0
21.8977 52.5986 -41.2972 0.887 -0.342 -0.309 17 107 56 0
3.4798 55.7790 -50.4422 0.048 0.617 0.785 13 107 57 0
2.8228 56.0513 -50.6516 -0.050 0.657 0.752 15 107 58 0
8.2566 59.0919 -45.0278 0.244 -0.472 0.848 22 99 57 0
8.2852 59.2850 -44.8680 0.219 -0.450 0.866 23 99 58 0
8.5551 60.6189 -43.7189 0.818 -0.155 -0.555 36 100 67 0
8.5125 60.8199 -43.5976 0.761 -0.041 -0.647 36 97 66 0
8.6060 61.0011 -43.4060 0.752 -0.051 -0.657 41 97 69 0
8.6766 61.1852 -43.2266 0.792 -0.052 -0.609 50 100 74 0
9.0834 61.3189 -42.8747 -0.026 -0.326 0.945 68 113 89 0
8.7713 61.5592 -42.8926 -0.157 -0.274 0.949 85 125 105 0
8.5339 61.7890 -42.8716 -0.148 -0.277 0.950 111 145 130 0
7.1309 70.1063 -37.6306 0.952 -0.086 -0.292 184 180 181 0
-0.7659 84.4713 -31.9912 0.807 0.590 -0.021 192 187 181 0
3.4093 101.8104 -16.6382 0.803 0.357 0.477 178 164 159 0
17.9967 35.3584 -56.7285 -0.191 -0.114 0.975 234 229 134 0
14.0271 41.7790 -54.4895 0.920 0.392 -0.016 217 214 77 0
13.6830 41.9735 -54.5619 0.914 0.400 -0.071 215 213 76 0
16.7608 43.7983 -51.2906 0.809 0.580 0.095 164 174 59 0
16.6317 43.9928 -51.2282 0.906 0.422 0.044 156 170 59 0
16.7599 44.1878 -51.0045 0.996 0.064 0.058 148 165 56 0
10.5782 45.0060 -54.2749 0.547 0.506 0.667 117 140 52 0
10.5279 45.2114 -54.1552 0.620 0.493 0.610 107 134 52 0
10.2127 45.6248 -54.0484 0.857 0.240 0.455 79 121 50 0
23.6415 51.5239 -41.2936 0.021 0.424 0.905 21 110 62 0
7.4718 58.3406 -46.4061 0.965 -0.233 -0.118 16 102 59 0
7.9941 58.4755 -45.9796 0.692 -0.531 -0.490 18 102 58 0
9.9896 59.5889 -43.9099 0.161 0.014 0.987 22 100 58 0
9.8310 59.8040 -43.8510 0.155 0.011 0.988 22 100 58 0
9.6897 60.0170 -43.7827 0.157 -0.016 0.988 22 100 58 0
9.5823 60.9990 -43.1272 -0.016 -0.460 0.888 36 103 68 0
9.1989 61.8285 -42.7568 -0.148 -0.277 0.950 51 101 77 0
8.9335 62.0626 -42.7508 -0.148 -0.264 0.953 61 105 86 0
8.5963 62.3087 -42.7810 -0.135 -0.149 0.980 79 119 102 0
8.2824 62.5520 -42.7985 -0.135 -0.152 0.979 100 135 123 0
7.9119 62.8052 -42.8442 -0.145 -0.144 0.979 122 150 141 0
7.3646 70.2014 -37.7432 0.892 -0.273 -0.361 184 180 181 0
7.4877 70.3629 -37.5471 0.863 -0.351 -0.363 185 180 183 0
-0.9886 84.7064 -32.2999 0.805 0.592 0.021 192 187 181 0
13.9439 88.4946 -20.1567 0.568 0.745 0.348 180 170 168 0
3.4643 101.9490 -16.8188 0.797 0.368 0.479 178 164 161 0
18.1397 28.9908 -61.6525 0.419 0.151 0.895 235 231 219 0
17.8482 29.1552 -61.7149 0.673 0.197 0.713 236 232 220 0
17.5470 29.5258 -61.6315 0.704 0.167 0.691 237 233 219 0
17.5952 29.7388 -61.4441 0.644 0.138 0.752 237 234 219 0
18.2145 35.6924 -56.6679 -0.184 0.197 0.963 234 230 129 0
13.3025 43.1034 -54.2995 0.938 0.255 0.234 186 190 65 0
16.6845 44.1156 -51.4249 0.997 0.063 -0.045 152 166 61 0
16.7388 44.3105 -51.2471 0.980 0.179 0.090 144 160 58 0
10.6758 45.1355 -54.4558 0.489 0.447 0.749 110 136 55 0
10.2416 45.7554 -54.2723 0.705 0.359 0.612 71 118 52 0
23.5773 51.8233 -41.4073 -0.040 0.505 0.862 20 110 62 0
7.5949 58.2675 -46.7198 0.882 -0.332 0.335 15 104 59 0
7.5762 58.6678 -46.4366 0.846 -0.425 0.322 16 103 58 0
10.5447 59.6523 -43.8427 0.835 -0.292 -0.466 23 101 60 0
10.5113 59.8495 -43.7184 0.274 0.019 0.961 24 102 60 0
10.5810 60.0322 -43.5399 0.024 0.379 0.925 24 102 60 0
10.0931 60.2932 -43.6548 0.065 0.049 0.997 24 103 61 0
9.8639 60.5187 -43.6329 0.069 0.062 0.996 24 104 61 0
10.4722 61.0075 -42.8898 -0.138 -0.375 0.917 27 106 66 0
8.4271 63.0587 -42.6659 -0.140 -0.154 0.978 69 111 96 0
8.1213 63.3025 -42.6788 -0.120 -0.284 0.951 88 127 113 0
7.9885 63.5184 -42.6033 -0.112 -0.372 0.921 111 145 133 0
7.7622 64.1384 -42.2889 -0.015 -0.567 0.823 149 169 162 0
7.3418 70.3536 -37.9744 0.895 -0.187 -0.404 182 179 180 0
7.4515 70.5182 -37.7841 0.854 -0.368 -0.369 183 179 182 0
7.8836 70.6089 -37.4452 0.898 -0.321 -0.302 184 179 183 0
18.3959 69.2442 -31.8336 0.187 0.072 0.980 185 183 186 0
3.5486 102.0737 -16.9915 0.794 0.359 0.491 177 165 162 0
17.9393 29.2806 -61.8930 0.656 0.243 0.715 237 233 221 0
17.6747 29.6565 -61.7832 0.686 0.183 0.704 236 233 218 0
18.5944 34.8410 -57.3779 0.591 -0.795 0.136 234 230 193 0
18.8201 35.0607 -57.0731 0.591 -0.795 0.136 234 229 182 0
13.4815 43.2313 -54.4237 0.953 0.212 0.215 183 187 65 0
13.4696 43.4329 -54.2826 0.908 -0.340 0.244 178 183 65 0
16.7997 44.0436 -51.7260 0.830 0.547 0.108 157 167 60 0
16.4691 44.2385 -51.7914 0.997 0.069 -0.028 148 162 61 0
12.0463 47.4719 -52.2040 -0.195 0.217 0.956 35 120 64 0
7.7082 58.3947 -46.8920 0.882 -0.332 0.335 16 105 59 0
7.6829 58.5969 -46.7590 0.950 -0.295 -0.097 17 104 58 0
7.7310 58.7897 -46.5863 0.784 -0.533 0.317 16 104 58 0
7.9289 59.1614 -46.1870 0.900 -0.401 0.169 17 103 58 0
10.2901 59.8256 -44.2038 0.830 -0.320 -0.457 21 102 61 0
11.0635 59.9113 -43.6514 0.104 0.231 0.967 22 101 59 0
9.8272 60.2767 -44.1639 -0.032 0.598 0.801 22 101 59 0
10.3375 60.3976 -43.7519 -0.057 0.390 0.919 23 104 61 0
10.6230 60.5491 -43.4597 0.068 0.408 0.911 24 105 62 0
11.0054 60.6852 -43.1174 0.018 0.109 0.994 24 104 62 0
8.5796 63.7557 -42.3872 -0.075 -0.480 0.874 64 107 91 0
8.4262 63.9748 -42.3227 -0.008 -0.585 0.811 78 117 104 0
8.2564 64.1970 -42.2661 0.000 -0.360 0.933 100 137 124 0
8.0605 64.4242 -42.2225 0.002 -0.288 0.957 122 155 141 0
7.9029 64.6451 -42.1592 0.041 -0.081 0.996 134 164 149 0
7.3661 70.4955 -38.1841 0.887 -0.330 -0.324 181 181 181 0
7.7120 70.6064 -37.8835 0.891 -0.330 -0.310 182 180 182 0
8.0602 70.7154 -37.5828 0.899 -0.324 -0.295 183 179 183 0
-0.0448 85.1072 -32.0950 0.997 0.073 -0.021 190 185 179 0
0.2024 85.4062 -31.7181 0.655 0.551 0.517 189 184 178 0
13.2812 88.5670 -21.1152 0.847 0.068 -0.527 182 175 167 0
18.0474 28.7890 -62.5159 0.774 -0.096 0.626 236 232 221 0
18.0349 28.9939 -62.3726 0.816 -0.513 0.267 235 231 220 0
19.8957 34.4774 -57.1420 -0.107 0.229 0.967 237 233 207 0
12.1750 42.3230 -56.2563 0.677 0.730 0.091 210 207 77 0
12.4944 42.5331 -55.8982 0.595 0.785 0.174 205 202 75 0
7.8188 47.5204 -55.1876 0.009 0.739 0.674 36 122 63 0
6.6081 57.8654 -48.3199 0.196 -0.494 0.847 14 106 58 0
7.3354 58.1817 -47.6242 0.481 0.257 0.838 14 106 59 0
7.7293 58.7323 -46.9674 0.904 -0.173 -0.392 16 105 59 0
11.4530 59.9948 -43.6692 0.109 0.254 0.961 20 101 60 0
10.3431 60.3432 -44.1173 -0.061 0.622 0.780 21 103 61 0
8.5735 64.4780 -42.1894 0.011 -0.194 0.981 64 109 90 0
8.3979 64.7016 -42.1359 0.007 -0.087 0.996 75 119 99 0
8.1268 64.9426 -42.1302 0.059 -0.003 0.998 101 140 121 0
7.9120 65.1743 -42.0957 0.076 0.124 0.989 128 160 144 0
7.4460 65.4522 -42.1866 -0.140 -0.081 0.987 146 172 160 0
7.7815 70.5490 -38.2109 0.818 -0.439 -0.373 181 181 181 0
8.0875 70.6679 -37.9286 0.864 -0.390 -0.319 182 180 181 0
8.4127 70.9688 -37.4999 0.890 0.317 0.327 183 181 182 0
8.4813 71.1401 -37.3298 0.991 0.073 -0.109 182 180 183 0
2.1112 73.8063 -39.4095 0.369 -0.917 0.152 186 184 187 0
3.3416 73.7020 -38.7046 0.419 -0.890 0.179 186 184 187 0
-0.2174 85.3272 -32.3841 0.995 0.103 -0.006 190 185 179 0
-0.1186 85.4854 -32.2045 0.923 0.328 -0.200 190 185 179 0
0.0622 85.6158 -31.9934 0.931 0.220 0.291 189 184 178 0
12.2028 89.1493 -21.6700 0.764 0.519 -0.383 181 174 165 0
18.5526 28.9746 -62.3855 0.534 -0.457 0.711 235 231 219 0
18.7743 29.2122 -62.0685 0.488 -0.066 0.870 235 231 219 0
18.5801 29.3900 -62.0611 0.484 -0.047 0.874 236 232 220 0
18.2591 29.5507 -62.1472 0.561 0.262 0.785 238 234 222 0
20.9038 34.4883 -56.8100 -0.018 0.315 0.949 239 234 212 0
20.2716 34.6260 -57.1118 -0.118 0.209 0.971 239 235 210 0
11.9978 42.4475 -56.6147 0.548 0.800 0.245 209 206 78 0
5.1885 52.3832 -53.6199 0.393 -0.898 0.200 21 113 62 0
6.2999 52.5143 -52.8135 0.316 -0.920 0.233 21 113 62 0
6.7805 52.6868 -52.3792 0.319 -0.921 0.222 21 113 62 0
7.0826 52.8706 -52.0505 0.319 -0.921 0.222 21 113 64 0
6.6873 53.1059 -52.1290 0.677 -0.594 0.435 22 114 64 0
7.7573 53.2290 -51.3548 0.315 -0.926 0.207 21 113 63 0
13.2392 56.2753 -45.6038 0.190 -0.068 0.979 13 108 59 0
6.8975 57.5707 -48.6955 0.097 -0.634 0.767 14 107 59 0
6.9037 57.7716 -48.5430 0.099 -0.622 0.776 14 106 59 0
6.4856 58.0221 -48.6249 0.381 0.239 0.893 13 106 59 0
7.4716 58.1067 -47.9328 0.859 0.217 0.464 13 106 59 0
11.2912 60.3469 -43.8387 -0.006 0.405 0.914 21 105 63 0
11.0387 60.5747 -43.8316 0.303 -0.778 0.550 21 105 63 0
11.2627 60.7334 -43.5713 0.284 -0.792 0.540 21 105 63 0
12.4290 60.7517 -42.8132 0.032 0.000 0.999 21 105 63 0
5.5552 62.5705 -45.8578 0.726 -0.300 -0.619 27 108 67 0
8.5177 65.0164 -42.1589 0.053 -0.009 0.999 55 110 86 0
8.3186 65.2449 -42.1172 0.047 0.007 0.999 62 112 90 0
8.1540 65.4676 -42.0577 -0.125 -0.149 0.981 79 123 104 0
7.8964 65.7079 -42.0446 -0.075 -0.213 0.974 95 135 119 0
7.6043 65.9553 -42.0483 -0.100 -0.210 0.973 118 152 139 0
7.2989 66.2060 -42.0580 -0.115 -0.232 0.966 138 166 155 0
7.7853 70.6954 -38.4300 0.804 -0.537 -0.255 182 180 181 0
8.2779 70.7712 -38.0595 0.892 -0.392 -0.226 181 181 181 0
8.2387 71.3437 -37.6615 0.796 0.562 -0.227 182 181 182 0
2.5180 73.8624 -39.4527 0.381 -0.918 0.107 184 184 186 0
3.7585 73.7535 -38.7411 0.457 -0.873 0.170 185 183 186 0
-0.2365 85.4969 -32.6139 0.995 0.103 -0.006 188 183 177 0
-2.4480 87.2034 -32.7648 0.519 0.854 0.024 190 185 180 0
11.9496 83.5066 -26.3042 0.853 -0.518 -0.066 187 179 174 0
17.7399 28.7619 -63.3927 0.516 -0.265 0.815 235 231 219 0
21.0839 34.6179 -56.9160 -0.047 0.280 0.959 240 235 213 0
20.5170 34.7621 -57.1729 -0.042 0.310 0.950 240 235 212 0
19.4552 36.4511 -56.6047 0.425 0.704 0.568 232 224 152 0
19.1334 36.6253 -56.6823 0.734 0.117 0.669 232 223 144 0
19.7925 37.2631 -55.7878 0.678 -0.720 -0.152 238 230 127 0
20.6524 37.5154 -55.0495 0.678 -0.674 -0.293 239 229 121 0
12.2816 42.5794 -56.6733 0.763 -0.339 0.551 207 203 78 0
12.9147 46.6353 -53.2671 0.561 -0.040 0.827 46 126 63 0
6.3654 52.6496 -53.0196 0.793 -0.462 -0.397 19 114 63 0
6.5230 52.8452 -52.7738 0.798 -0.432 -0.420 19 113 63 0
6.8585 53.0267 -52.4244 0.861 -0.323 -0.394 17 112 62 0
7.1325 53.2115 -52.1118 0.876 -0.331 -0.350 18 112 62 0
8.0640 53.3436 -51.4166 0.566 -0.823 -0.048 18 112 62 0
8.4919 53.5127 -51.0171 0.547 -0.820 -0.166 18 112 62 0
8.9666 53.6762 -50.5916 0.555 -0.804 -0.215 18 112 62 0
9.3229 53.8478 -50.2361 0.556 -0.803 -0.214 17 112 62 0
10.0606 56.3645 -47.9013 0.292 0.137 0.947 12 110 59 0
7.2520 58.0739 -48.4385 0.179 -0.632 0.755 13 107 60 0
9.9205 59.9065 -45.3711 0.505 -0.583 -0.636 14 108 61 0
13.2978 62.0681 -41.6058 -0.016 0.335 0.942 26 110 68 0
7.9306 66.4247 -41.8262 -0.117 -0.351 0.929 86 125 108 0
7.7514 66.6517 -41.7732 -0.131 -0.426 0.895 111 143 130 0
7.6034 66.8731 -41.7044 -0.162 -0.499 0.851 128 156 144 0
8.3193 71.0966 -38.1210 0.965 -0.262 -0.009 180 180 180 0
8.6375 71.2099 -37.8331 0.736 0.160 0.658 180 182 181 0
8.4244 71.4473 -37.7943 0.968 -0.252 -0.004 181 182 182 0
7.8725 71.7654 -37.9129 0.938 0.348 -0.004 182 183 183 0
8.4178 71.8232 -37.5203 0.986 -0.122 0.115 183 183 185 0
2.8000 73.9484 -39.5521 0.362 -0.917 0.168 185 185 187 0
3.8480 73.8850 -38.9267 0.450 -0.871 0.196 186 185 188 0
14.1404 71.8741 -33.8118 0.863 0.467 -0.193 188 187 187 0
-0.4286 85.7246 -32.9123 0.971 0.230 0.062 191 186 180 0
-0.3093 85.8762 -32.7237 0.993 0.109 0.042 192 187 181 0
-0.6433 86.1799 -32.7132 0.985 0.168 -0.033 192 187 181 0
-1.3110 86.5974 -32.8328 0.796 0.490 -0.356 189 184 178 0
-3.2393 87.4452 -33.4426 0.568 0.785 -0.247 189 184 178 0
-3.8330 87.8431 -33.5291 0.574 0.788 -0.222 190 185 179 0
-4.1664 88.1535 -33.5134 0.598 0.757 -0.264 189 184 177 0
18.8808 29.2458 -62.6310 0.577 0.111 0.809 236 231 218 0
19.0261 29.4717 -62.3701 0.595 0.317 0.738 238 233 219 0
20.9461 34.9145 -57.1026 -0.032 0.280 0.960 239 236 212 0
19.7975 36.5920 -56.6008 0.310 0.662 0.682 233 224 163 0
19.3535 36.7573 -56.7646 0.761 0.066 0.645 231 223 155 0
19.2752 36.9495 -56.6727 0.776 0.010 0.631 233 225 145 0
19.3346 37.3487 -56.3388 0.736 -0.494 0.463 235 227 135 0
20.1822 37.6003 -55.6063 0.680 -0.711 -0.176 235 227 126 0
12.4550 42.7095 -56.8035 0.652 0.375 0.659 203 200 79 0
12.3384 42.9131 -56.7278 0.693 -0.277 0.665 197 195 75 0
12.2674 43.1174 -56.6224 0.588 -0.231 0.775 191 189 71 0
11.4042 43.9338 -56.5742 0.125 -0.449 0.885 165 172 66 0
6.2668 52.7969 -53.3227 0.727 -0.129 -0.675 19 116 65 0
6.5490 52.9833 -53.0028 0.767 -0.277 -0.578 17 114 63 0
6.9562 53.1590 -52.6103 0.793 -0.228 -0.565 16 113 62 0
8.2338 53.4686 -51.5577 0.566 -0.823 -0.048 15 112 61 0
8.6579 53.6373 -51.1594 0.548 -0.821 -0.163 15 112 61 0
9.2458 53.7906 -50.6670 0.506 -0.861 0.051 16 113 62 0
9.3845 53.9799 -50.4374 0.558 -0.798 -0.228 16 113 62 0
7.9768 58.1291 -48.2725 0.104 -0.641 0.761 12 109 61 0
7.6334 58.3705 -48.3151 0.517 0.231 0.824 14 111 62 0
10.5193 63.9908 -42.2937 -0.004 -0.423 0.906 35 108 73 0
10.5225 64.1802 -42.1514 -0.014 -0.406 0.914 38 109 74 0
8.3613 67.0622 -41.4104 -0.127 -0.455 0.881 79 121 102 0
8.2241 67.2808 -41.3369 -0.164 -0.557 0.814 97 133 116 0
7.6380 67.7821 -41.3435 -0.110 -0.215 0.970 136 162 148 0
8.7573 71.3287 -37.9961 0.736 0.160 0.658 179 181 180 0
8.4111 71.5977 -38.0200 0.749 0.174 0.639 180 182 181 0
8.5185 71.7595 -37.8310 0.969 -0.249 0.006 181 182 182 0
-4.0886 88.4927 -33.5665 0.607 0.764 0.220 188 184 175 0
19.1106 29.5956 -62.5517 0.589 0.303 0.749 239 233 219 0
19.4375 37.0771 -56.7950 0.512 0.686 0.517 230 224 153 0
19.3055 37.2658 -56.7407 0.891 0.106 0.441 232 225 147 0
19.2436 37.4593 -56.6373 0.857 0.203 0.473 231 224 140 0
19.1739 37.6525 -56.5393 0.779 0.249 0.576 231 225 132 0
19.3042 37.8579 -56.3026 0.704 -0.704 -0.094 232 226 125 0
12.3988 43.0416 -56.9320 0.662 -0.240 0.710 194 192 77 0
12.1843 43.2447 -56.9204 0.430 -0.037 0.902 188 188 73 0
11.0880 44.0628 -57.0239 -0.048 -0.237 0.970 162 168 67 0
5.8096 52.9711 -53.8393 0.728 -0.128 -0.674 18 115 62 0
6.4077 53.1342 -53.3311 0.738 -0.126 -0.663 16 113 62 0
7.0197 53.2939 -52.8164 0.782 -0.406 -0.472 17 114 63 0
9.5688 53.7001 -50.8648 0.271 -0.935 0.229 16 113 61 0
13.1575 58.2156 -45.1942 0.337 -0.931 0.140 11 109 60 0
8.6407 60.1685 -46.6716 0.493 -0.599 -0.631 14 110 62 0
9.5413 60.2395 -46.0358 0.493 -0.599 -0.631 15 111 63 0
10.1045 60.5490 -45.4417 0.491 -0.772 -0.404 14 107 60 0
8.4404 63.3320 -44.4566 0.537 -0.754 -0.380 23 108 66 0
9.0650 63.4222 -43.9853 0.465 -0.850 -0.247 26 109 68 0
8.0943 68.0271 -41.2009 -0.167 -0.003 0.986 90 128 109 0
7.7221 68.2954 -41.2431 -0.164 0.046 0.985 113 145 130 0
7.2479 68.5860 -41.3347 -0.163 0.052 0.985 141 165 154 0
6.8505 68.8618 -41.3876 -0.170 -0.033 0.985 154 173 165 0
8.7523 71.4769 -38.2179 0.889 -0.169 0.426 179 180 180 0
8.7706 71.6596 -38.0707 0.678 0.334 0.655 180 180 180 0
20.5179 36.2859 -57.0012 0.494 0.658 0.568 237 232 200 0
20.4583 36.4779 -56.8976 0.676 0.621 0.397 234 230 195 0
20.2787 36.6611 -56.8784 0.676 0.621 0.397 233 228 188 0
20.1759 36.8504 -56.8049 0.701 0.626 0.342 231 226 178 0
19.3814 37.3874 -56.9233 0.891 0.106 0.441 230 224 152 0
19.2841 37.5788 -56.8446 0.888 0.356 0.291 229 224 144 0
19.2286 37.7729 -56.7368 0.883 0.349 0.313 230 225 137 0
19.9862 38.0158 -56.0637 0.550 -0.823 -0.140 231 225 130 0
12.9400 43.1749 -56.8201 0.449 -0.744 0.495 193 191 79 0
12.2102 43.3734 -57.1476 0.247 -0.393 0.886 187 186 76 0
12.8760 44.3972 -55.9548 0.026 -0.820 0.571 152 158 66 0
13.5691 44.5982 -55.3549 0.034 -0.832 0.553 145 154 64 0
15.6013 45.5801 -53.3043 0.189 -0.883 0.429 83 137 66 0
17.9197 46.7066 -50.9603 -0.119 0.263 0.957 47 131 69 0
18.7572 46.8775 -50.2887 -0.011 -0.594 0.805 47 131 70 0
19.6033 47.0451 -49.6139 0.077 -0.692 0.718 44 129 69 0
20.5821 47.2056 -48.8581 0.054 -0.634 0.771 41 128 68 0
6.0219 53.3045 -53.8055 0.731 -0.065 -0.679 16 115 61 0
9.7466 53.8225 -50.9981 0.097 -0.883 0.459 16 114 61 0
13.3083 58.1416 -45.4766 0.851 -0.507 0.137 11 110 61 0
13.3855 58.3221 -45.2924 0.857 -0.513 0.051 11 109 60 0
7.5130 68.8699 -41.2874 -0.170 -0.056 0.984 97 131 117 0
7.0718 69.1557 -41.3624 -0.130 -0.105 0.986 117 145 133 0
6.8117 69.4039 -41.3474 -0.171 -0.375 0.911 141 164 154 0
20.4961 36.7921 -56.9596 0.770 0.494 0.404 234 230 191 0
20.3502 36.9781 -56.9168 0.746 0.505 0.434 232 227 184 0
13.2417 43.3052 -56.8642 0.443 -0.751 0.489 190 189 81 0
12.4283 43.5034 -57.2486 0.250 -0.318 0.914 186 184 79 0
13.2004 44.5249 -55.9854 -0.097 0.031 0.995 152 157 69 0
21.3190 47.3047 -48.6147 0.138 -0.615 0.776 40 130 69 0
13.5523 58.2462 -45.5653 0.420 -0.797 0.434 12 110 63 0
13.6070 58.4291 -45.3937 0.432 -0.877 0.209 12 110 61 0
11.5662 65.7330 -41.3034 -0.142 0.227 0.963 34 113 75 0
11.0055 66.0285 -41.4505 -0.134 0.259 0.957 36 114 75 0
10.5236 66.3103 -41.5562 -0.025 0.035 0.999 38 113 75 0
10.0452 66.5928 -41.6590 0.072 -0.292 0.954 40 112 75 0
10.2279 66.7459 -41.4259 -0.014 -0.318 0.948 45 113 78 0
10.6934 66.8419 -41.0504 -0.139 -0.443 0.886 46 112 77 0
7.4552 69.6052 -41.1147 -0.168 -0.499 0.850 88 127 109 0
7.3922 69.8105 -41.0034 -0.167 -0.498 0.851 106 143 125 0
7.2586 70.0314 -40.9267 -0.165 -0.507 0.846 121 156 137 0
7.1487 70.2474 -40.8381 -0.165 -0.508 0.846 142 170 155 0
21.7182 36.0212 -57.0508 -0.053 0.186 0.981 239 237 211 0
13.6478 43.0290 -57.1407 0.434 -0.877 0.207 200 195 94 0
13.5565 43.4350 -56.8988 0.450 -0.750 0.486 189 187 88 0
20.1094 47.0869 -49.8811 0.424 -0.702 0.572 42 130 69 0
20.5776 47.2612 -49.4441 0.385 -0.677 0.628 41 129 69 0
21.3408 47.4245 -48.8215 0.293 -0.306 0.906 39 128 68 0
24.6761 48.3951 -45.9099 0.048 -0.214 0.976 30 121 64 0
13.7753 58.3530 -45.6653 0.417 -0.781 0.464 14 112 63 0
13.9293 58.5227 -45.4380 0.404 -0.883 0.240 13 111 62 0
15.1198 59.1162 -44.2151 0.521 -0.747 -0.412 14 112 63 0
7.9167 70.4146 -40.5460 -0.162 -0.496 0.853 94 134 113 0
7.8044 70.6303 -40.4594 -0.163 -0.491 0.856 116 148 131 0
-0.2907 89.1718 -31.9914 -0.178 -0.226 0.958 185 180 176 0
19.8848 40.1216 -55.5271 0.601 -0.490 0.631 224 220 115 0
16.8198 45.9394 -53.2199 0.380 -0.821 0.425 62 141 75 0
20.2871 47.2037 -49.9918 0.598 -0.678 0.428 42 130 69 0
25.3534 48.3059 -45.8294 -0.057 -0.406 0.912 31 124 66 0
25.2177 48.4892 -45.7825 -0.124 -0.323 0.938 30 122 65 0
14.2237 66.5968 -39.5608 -0.081 -0.121 0.989 36 113 72 0
15.4993 66.5167 -38.7789 -0.077 -0.319 0.945 37 114 72 0
20.4732 40.4563 -55.2092 0.598 -0.802 -0.006 223 219 119 0
20.4111 40.8415 -54.9635 0.222 -0.347 0.911 223 218 114 0
17.1988 46.0582 -53.2067 0.193 -0.891 0.412 59 142 77 0
17.6884 46.2437 -52.7440 0.094 -0.738 0.668 57 142 77 0
23.0151 47.6102 -48.1958 0.346 -0.027 0.938 40 131 71 0
22.8853 47.7974 -48.1425 0.346 -0.027 0.938 37 128 69 0
23.2624 47.9661 -47.7668 0.350 -0.573 0.741 35 128 69 0
23.7502 48.1290 -47.3222 0.373 -0.672 0.639 34 128 68 0
24.6898 48.2717 -46.5932 0.234 -0.719 0.655 32 126 66 0
26.8138 49.2338 -44.4688 0.741 -0.629 -0.234 26 120 67 0
5.0478 69.0124 -44.1619 0.834 -0.398 -0.381 38 113 72 0
5.0466 69.2097 -44.0158 0.861 -0.420 -0.285 39 113 75 0
6.2753 69.1465 -43.2486 0.511 -0.845 0.161 40 112 74 0
6.3748 69.3199 -43.0534 0.515 -0.843 0.157 41 113 75 0
7.7322 71.8949 -40.2357 -0.256 -0.043 0.966 98 135 112 0
7.2863 72.1914 -40.3104 -0.249 -0.134 0.959 112 147 125 0
6.7912 72.6921 -40.2656 0.798 -0.592 -0.110 151 175 160 0
6.8705 72.8634 -40.0854 0.787 -0.610 -0.091 163 184 171 0
7.0005 73.0219 -39.8813 0.791 -0.605 -0.092 167 185 175 0
7.1433 73.1765 -39.6714 0.791 -0.605 -0.092 174 184 178 0
7.3575 73.3128 -39.4279 0.813 -0.565 -0.142 179 182 181 0
-4.1724 90.1354 -34.5388 0.341 0.670 0.659 189 184 180 0
17.5301 46.1771 -53.2233 0.171 -0.907 0.386 56 144 78 0
17.8324 46.3653 -52.8818 0.085 -0.745 0.662 52 141 75 0
22.3973 47.5666 -48.9466 0.545 0.330 0.771 41 132 71 0
22.2352 47.7562 -48.9132 0.545 0.330 0.771 40 132 72 0
5.2769 69.3124 -44.1318 0.836 -0.393 -0.382 37 113 74 0
6.2333 69.3053 -43.5003 0.487 -0.742 0.461 37 113 74 0
6.3216 69.4812 -43.3104 0.487 -0.742 0.461 39 114 75 0
13.3172 68.7105 -39.2271 -0.247 -0.187 0.951 45 114 78 0
6.9435 72.8059 -40.4173 0.825 -0.542 -0.161 95 136 113 0
7.0828 72.9622 -40.2080 0.825 -0.539 -0.167 107 144 124 0
7.1653 73.1320 -40.0265 0.820 -0.552 -0.154 123 153 137 0
7.2609 73.2980 -39.8390 0.806 -0.581 -0.112 158 177 167 0
7.4098 73.4503 -39.6264 0.812 -0.563 -0.154 176 185 181 0
20.1429 36.9513 -58.6870 0.678 0.715 0.174 239 238 210 0
17.2660 46.3070 -53.6286 0.110 -0.832 0.543 56 145 81 0
18.6217 46.6653 -52.4544 0.302 -0.747 0.592 50 140 76 0
18.7169 46.8549 -52.2492 0.304 -0.751 0.586 50 140 75 0
15.9696 48.6862 -52.7201 -0.048 -0.569 0.821 33 130 72 0
15.8622 48.8858 -52.6429 -0.045 -0.590 0.806 32 129 71 0
13.0069 69.6519 -39.0537 -0.080 0.071 0.994 48 116 81 0
7.3696 72.6622 -40.5778 0.600 -0.491 0.632 73 130 97 0
6.9885 72.9458 -40.6210 0.825 -0.539 -0.167 77 131 101 0
7.1327 73.1008 -40.4089 0.825 -0.539 -0.167 83 134 108 0
7.2576 73.2599 -40.2066 0.823 -0.541 -0.173 93 135 115 0
7.3707 73.4215 -40.0103 0.822 -0.543 -0.168 122 151 138 0
7.4221 73.5980 -39.8442 0.819 -0.553 -0.157 170 184 178 0
12.2909 73.9975 -36.2893 0.999 0.036 0.002 185 184 187 0
16.6689 46.0521 -54.5474 0.103 -0.858 0.504 69 153 91 0
17.1664 46.2391 -54.0733 0.276 -0.909 0.312 65 152 90 0
18.1918 46.6066 -53.1098 0.152 -0.766 0.625 53 145 80 0
17.4202 46.8182 -53.4701 -0.274 -0.311 0.910 51 143 78 0
7.8819 70.4019 -42.2600 0.749 0.594 -0.292 41 116 75 0
7.5414 72.5806 -40.8611 0.547 -0.431 0.718 63 128 92 0
7.6112 72.7536 -40.6849 0.612 -0.469 0.637 66 130 95 0
7.0733 73.0762 -40.8054 0.819 -0.536 -0.205 68 130 98 0
7.2274 73.2284 -40.5881 0.819 -0.536 -0.205 75 133 104 0
7.2901 73.4029 -40.4156 0.830 -0.526 -0.184 87 135 114 0
7.4212 73.5598 -40.2103 0.822 -0.543 -0.168 122 155 141 0
7.3755 73.7608 -40.0908 0.986 -0.156 -0.063 167 184 178 0
-0.0018 80.0220 -40.3704 0.969 0.076 0.233 191 191 186 0
-0.0488 80.2334 -40.2441 0.969 0.076 0.233 192 190 186 0
18.6174 46.5286 -53.2055 0.211 -0.847 0.489 57 152 88 0
15.3625 49.5577 -53.1374 0.092 -0.436 0.895 32 128 72 0
28.3058 56.2052 -39.4282 0.217 -0.969 -0.114 13 113 61 0
7.6491 70.6039 -42.6048 0.756 0.599 -0.263 41 116 73 0
7.7900 70.7635 -42.3903 0.714 0.699 -0.033 42 116 75 0
8.2973 72.1677 -40.9977 0.597 0.291 0.748 57 125 88 0
7.8839 72.8369 -40.7763 0.952 0.036 0.304 61 129 93 0
-0.0978 80.4108 -40.5003 0.972 0.110 0.207 191 190 186 0
17.9113 46.2805 -54.1943 0.490 -0.667 0.562 74 166 109 0
18.8321 46.4554 -53.4388 0.381 -0.866 0.324 71 167 106 0
19.2645 46.6379 -53.0090 0.376 -0.841 0.388 65 163 99 0
15.7014 50.2558 -52.7169 -0.037 -0.257 0.966 28 126 71 0
7.3406 70.8239 -42.9893 0.759 0.591 -0.273 39 116 73 0
7.2497 71.0372 -42.8913 0.743 0.656 -0.131 39 115 73 0
7.8903 72.6062 -41.2822 0.637 -0.056 0.769 57 123 88 0
8.0816 72.7490 -41.0456 0.970 -0.193 0.148 60 125 90 0
8.2377 72.8997 -40.8269 0.983 -0.129 0.129 62 127 92 0
-3.8625 88.7142 -37.1939 -0.204 0.176 0.963 195 188 185 0
8.1776 71.7362 -42.0770 0.862 -0.199 0.466 43 118 79 0
8.3181 71.8929 -41.8639 0.478 -0.105 0.872 46 118 80 0
8.7206 71.9858 -41.5200 0.382 -0.164 0.910 50 117 81 0
8.1206 72.7001 -41.3935 0.608 -0.019 0.794 60 123 90 0
4.3767 75.7643 -41.6479 0.624 0.047 0.780 178 182 181 0
8.1757 71.8866 -42.3046 0.858 -0.121 0.500 42 117 78 0
8.5663 71.9830 -41.9649 0.437 0.070 0.897 46 117 80 0
8.9247 72.0858 -41.6425 0.387 -0.137 0.912 46 116 79 0
6.0349 75.2896 -41.2170 0.861 -0.229 0.454 173 179 179 0
5.8918 75.5191 -41.1429 0.947 0.101 0.305 177 181 182 0
5.7970 75.7359 -41.0451 0.958 0.253 0.135 179 182 184 0
21.4790 39.4962 -57.8199 0.685 0.621 -0.381 237 236 209 0
17.7128 46.2701 -55.3227 0.837 -0.377 -0.397 84 167 119 0
8.2931 72.0086 -42.4720 0.823 0.107 0.558 40 116 77 0
9.2755 72.1498 -41.6906 0.864 -0.250 0.438 44 116 78 0
6.2047 75.3990 -41.3620 0.894 -0.186 0.407 172 178 178 0
5.7350 75.9073 -41.3032 0.816 0.253 0.519 179 183 186 0
6.4891 76.8459 -40.0800 0.338 0.905 0.259 184 186 188 0
19.7051 47.1214 -53.6370 0.957 -0.049 -0.286 70 164 109 0
19.8450 47.3084 -53.3999 0.843 0.152 0.516 66 164 108 0
19.9625 48.0657 -52.7496 0.482 -0.795 0.367 58 167 109 0
9.1920 72.1307 -42.0995 0.839 -0.287 0.463 41 116 77 0
9.2537 72.3043 -41.9264 0.850 -0.299 0.435 43 116 78 0
9.2557 72.4923 -41.7837 0.877 -0.234 0.419 48 117 81 0
6.6439 75.0548 -41.6615 0.553 0.684 0.476 163 171 167 0
6.1988 75.5550 -41.5929 0.888 -0.189 0.418 173 179 178 0
5.9352 76.0086 -41.4340 0.737 0.378 0.560 179 183 185 0
20.5583 47.4105 -53.1518 0.747 -0.551 0.371 68 163 110 0
19.8094 47.8148 -53.3671 0.503 -0.797 0.334 61 164 109 0
19.8880 48.0025 -53.1713 0.466 -0.811 0.354 57 163 107 0
20.1199 48.1839 -52.8740 0.479 -0.801 0.360 57 164 107 0
20.3335 48.3649 -52.5896 0.547 -0.821 0.164 55 164 106 0
16.0612 52.4377 -52.4891 -0.121 -0.527 0.841 27 130 75 0
9.3077 72.6290 -41.9823 0.752 -0.226 0.619 49 119 82 0
6.4952 75.2479 -41.9630 0.543 0.680 0.493 165 172 170 0
69.1919 69.7551 -2.5993 0.552 0.595 -0.585 173 160 156 0
20.1498 47.5467 -53.6558 0.510 -0.674 0.534 69 162 110 0
20.7276 47.7175 -53.1244 0.234 -0.329 0.915 65 162 110 0
20.3455 48.4885 -52.8101 0.875 0.465 -0.131 58 164 108 0
18.4173 54.6467 -49.5156 -0.099 -0.551 0.829 23 122 70 0
9.5488 72.7187 -42.0847 0.732 -0.249 0.634 49 119 81 0
6.1193 75.8859 -42.0893 0.852 0.166 0.496 175 178 177 0
5.8796 76.3343 -41.9186 0.821 0.110 0.560 180 183 184 0
-2.8547 90.5699 -37.2837 -0.210 0.371 0.905 190 187 180 0
-10.0479 93.4064 -40.1603 -0.209 0.380 0.901 190 187 180 0
19.0144 47.3225 -54.9435 0.692 -0.656 -0.299 75 164 115 0
19.8755 47.6796 -54.0714 0.700 -0.703 0.125 70 164 114 0
20.1300 47.8617 -53.7560 0.182 -0.687 0.704 67 163 112 0
6.4020 75.5816 -42.4671 0.542 0.704 0.458 169 170 173 0
5.9057 76.4829 -42.1351 0.815 0.159 0.557 181 182 184 0
-6.1574 91.9542 -38.9154 -0.175 0.389 0.904 191 188 181 0
-1.7407 94.7648 -33.7045 0.769 0.609 -0.193 184 175 170 0
18.1958 45.9107 -56.9130 0.382 0.705 0.597 209 219 197 0
19.8895 47.8036 -54.2934 0.745 -0.656 0.123 70 164 115 0
19.3748 49.5426 -53.3430 0.934 -0.355 -0.028 55 161 108 0
19.5563 49.7234 -53.0788 0.881 -0.402 -0.250 54 163 108 0
19.6215 49.9098 -52.8923 0.984 0.120 -0.132 51 162 108 0
17.9008 54.5818 -50.5763 -0.073 -0.536 0.841 23 126 75 0
16.2893 71.1447 -39.2094 0.251 0.942 0.221 45 117 79 0
6.2949 76.1490 -42.4608 0.851 0.186 0.491 181 181 183 0
-2.0192 95.0504 -34.0422 0.777 0.600 -0.192 183 174 169 0
17.2084 48.0232 -56.3473 0.937 -0.301 0.181 72 164 117 0
17.3915 48.2124 -56.0751 0.941 -0.270 0.205 69 164 115 0
21.4147 48.2508 -53.2042 0.147 -0.757 0.637 66 164 113 0
22.6556 48.3880 -52.2240 0.261 -0.757 0.599 65 164 113 0
17.4391 48.7964 -55.6002 0.897 -0.372 -0.239 64 164 112 0
17.8144 48.9746 -55.2005 0.904 -0.428 -0.022 63 163 112 0
18.4828 49.3303 -54.4597 0.766 -0.624 -0.154 59 162 109 0
18.5681 49.5185 -54.2572 0.786 -0.587 -0.193 58 161 108 0
18.8604 49.6955 -53.9170 0.752 -0.625 -0.208 57 161 108 0
19.3675 49.8597 -53.4348 0.904 -0.294 -0.311 56 162 109 0
19.5880 50.0378 -53.1444 0.872 -0.029 -0.489 54 161 109 0
18.1429 55.0652 -50.3672 -0.140 -0.165 0.976 20 126 72 0
-1.3071 94.9359 -33.9846 0.412 0.884 0.223 181 173 167 0
-2.6691 95.6798 -34.3847 0.468 0.861 0.198 180 172 166 0
1.1222 98.5709 -29.5224 0.660 0.558 0.503 172 162 156 0
16.3362 41.1474 -62.5010 0.782 0.375 -0.499 229 231 210 0
19.1241 45.5611 -57.1851 0.524 0.431 0.735 216 224 203 0
18.9628 45.9533 -57.0029 0.270 0.201 0.942 209 221 199 0
17.2501 48.1497 -56.5571 0.910 -0.324 0.257 74 165 119 0
17.2001 48.3477 -56.4429 0.919 -0.310 0.243 71 164 117 0
17.2336 48.5424 -56.2719 0.933 -0.281 0.227 67 163 115 0
17.2482 48.7375 -56.1139 0.936 -0.348 0.053 66 164 115 0
17.4273 48.9252 -55.8450 0.897 -0.372 -0.239 65 163 114 0
17.5758 49.1134 -55.5972 0.795 -0.584 -0.166 64 163 113 0
18.3012 49.2735 -54.9615 0.823 -0.551 -0.137 62 162 110 0
18.3741 49.4630 -54.7664 0.863 -0.073 -0.500 59 162 109 0
18.2037 49.6645 -54.7350 0.226 -0.279 0.933 58 162 109 0
18.8682 50.0137 -53.9994 0.867 -0.098 -0.489 55 162 110 0
18.1652 53.8727 -51.5798 -0.048 -0.551 0.833 36 155 97 0
6.4315 76.6144 -42.7070 0.731 0.682 -0.004 181 184 183 0
11.5724 79.1882 -37.1130 0.094 0.688 0.720 189 190 185 0
-2.2327 95.6769 -34.4385 0.647 0.748 0.149 178 173 167 0
-2.7056 96.0621 -34.4828 0.647 0.751 0.131 178 172 166 0
-3.7106 96.6672 -34.7383 0.598 0.793 0.117 177 172 165 0
16.7250 41.0797 -62.6191 0.675 0.681 -0.285 228 230 210 0
17.6515 48.4583 -56.3731 0.640 -0.751 0.164 71 163 116 0
17.8364 48.6459 -56.0993 0.640 -0.751 0.162 70 163 116 0
17.2186 48.8674 -56.3719 0.920 -0.295 0.256 69 164 116 0
17.4350 49.0534 -56.0769 0.965 -0.261 -0.039 67 163 115 0
17.9478 49.2244 -55.5819 0.911 -0.412 -0.020 65 163 114 0
18.1704 49.6010 -55.1382 0.863 -0.073 -0.500 63 163 111 0
18.3348 49.7857 -54.8812 0.863 -0.073 -0.500 62 164 113 0
18.4707 49.9711 -54.6440 0.873 -0.076 -0.483 61 163 112 0
18.6376 50.1541 -54.3865 0.871 -0.065 -0.486 57 162 111 0
18.6719 52.0628 -52.9171 0.941 0.339 0.001 46 162 105 0
16.4542 70.9945 -40.1660 0.355 0.931 0.088 40 116 72 0
10.5381 73.4034 -42.5590 0.884 0.413 0.220 76 132 104 0
10.3183 73.6470 -42.5312 0.828 0.537 0.164 92 141 117 0
6.8891 75.8790 -43.2855 0.449 0.798 0.401 168 175 171 0
2.1907 79.7242 -43.7233 0.238 0.820 0.521 187 187 188 0
11.9120 79.2330 -37.1666 0.129 0.651 0.748 189 190 186 0
-2.9275 96.1361 -34.9470 0.618 0.785 -0.030 177 174 167 0
16.1148 41.3922 -63.1627 0.904 0.110 -0.413 229 230 212 0
17.5773 42.8414 -61.0175 0.762 0.221 -0.608 227 230 211 0
20.5786 46.1735 -56.3439 -0.154 -0.014 0.988 211 222 205 0
17.7985 47.0131 -57.6978 0.085 0.602 0.794 183 213 185 0
19.3564 49.6677 -54.5709 -0.059 0.350 0.935 65 164 114 0
19.8974 49.8299 -54.0607 0.006 0.601 0.799 64 164 114 0
21.2715 49.9437 -52.9908 -0.006 0.669 0.743 62 163 113 0
16.6702 71.0819 -40.2665 0.272 0.928 0.257 40 115 73 0
14.9977 71.8607 -40.8736 0.231 0.938 0.258 48 118 81 0
10.5039 73.7487 -42.6600 0.902 -0.331 0.278 94 139 119 0
7.3207 105.3369 -21.0015 0.992 -0.117 -0.053 152 138 131 0
16.2233 39.8762 -64.5807 0.852 0.289 -0.436 229 230 215 0
16.2700 40.2903 -64.2330 0.733 0.267 -0.626 227 230 213 0
15.0266 40.6606 -64.8462 0.685 0.143 -0.715 228 229 213 0
17.8788 42.7697 -61.1954 0.875 -0.259 -0.409 227 230 211 0
17.4706 42.9652 -61.3406 0.752 0.567 -0.337 228 231 212 0
20.8943 50.2781 -53.3314 0.002 0.683 0.731 61 162 113 0
18.5920 55.1664 -51.2788 -0.159 0.123 0.980 43 167 107 0
18.3419 55.3807 -51.2960 -0.173 0.139 0.975 41 165 105 0
17.4695 57.3629 -50.4197 0.129 0.141 0.982 19 132 75 0
17.2593 57.5773 -50.4083 0.126 0.129 0.984 19 130 74 0
16.4687 71.2740 -40.5869 0.243 0.915 0.322 41 117 75 0
7.3294 105.4996 -21.1964 0.992 -0.117 -0.053 150 137 129 0
16.1881 38.7572 -65.8035 0.886 0.205 -0.415 233 231 216 0
15.8556 38.9485 -65.8985 0.838 0.387 -0.384 233 231 216 0
15.8793 39.3654 -65.5647 0.792 0.523 -0.316 232 230 216 0
16.1893 40.2064 -64.7022 0.860 0.270 -0.432 227 230 214 0
16.2213 40.4138 -64.5216 0.870 0.272 -0.410 227 230 213 0
16.1961 40.6189 -64.3841 0.922 0.184 -0.340 227 230 213 0
16.2190 40.8255 -64.2107 0.922 0.184 -0.340 227 228 214 0
20.7714 43.9054 -58.5839 0.392 0.919 -0.031 224 228 209 0
17.8952 47.4617 -57.9608 0.006 0.386 0.923 155 197 169 0
18.1007 48.8239 -56.7780 -0.163 -0.471 0.867 78 169 124 0
17.8456 57.4497 -50.4123 0.290 0.368 0.883 21 138 79 0
17.6601 57.6606 -50.3861 0.279 0.489 0.826 20 135 77 0
16.6792 58.5412 -50.4260 0.162 0.256 0.953 18 130 72 0
15.9632 59.3957 -50.2942 0.145 0.118 0.982 17 125 71 0
21.6012 60.0355 -45.7362 0.856 0.096 -0.509 20 119 66 0
21.6638 60.2039 -45.5630 0.860 0.089 -0.503 20 117 65 0
14.9770 71.7932 -41.5926 0.319 0.894 0.315 42 119 77 0
8.6087 75.1167 -43.6686 0.491 0.782 0.385 112 138 127 0
-7.6976 100.0351 -36.5246 0.516 0.730 -0.448 176 163 161 0
-8.1265 100.4166 -36.5447 0.548 0.628 -0.552 174 163 158 0
7.3275 105.6681 -21.3949 0.988 -0.144 -0.062 150 137 129 0
15.5865 39.2693 -66.2002 0.847 0.360 -0.391 232 230 215 0
15.5552 39.8930 -65.7488 0.859 0.487 -0.161 228 229 215 0
15.8376 40.3190 -65.2201 0.868 0.221 -0.445 226 229 212 0
15.6626 40.5201 -65.1943 0.957 -0.099 0.272 226 229 213 0
19.1171 46.9671 -57.7875 0.012 0.332 0.943 206 222 206 0
21.1557 49.7610 -54.1849 0.396 -0.746 0.535 73 166 121 0
18.8739 55.9612 -51.1273 -0.208 -0.136 0.969 39 163 105 0
20.8676 59.9203 -46.6715 0.823 0.272 -0.498 18 121 68 0
20.9923 60.0810 -46.4589 0.804 0.334 -0.492 19 122 67 0
21.0084 60.2580 -46.3127 0.804 0.334 -0.492 20 120 67 0
21.3918 60.3770 -45.9440 0.838 0.098 -0.537 21 119 68 0
11.4492 73.7643 -42.9812 0.557 -0.405 0.725 91 135 117 0
17.7139 83.7003 -30.8837 0.841 0.446 0.306 184 181 176 0
5.8156 90.6836 -34.2076 0.698 -0.362 -0.618 185 175 173 0
-7.7923 99.8604 -37.1044 0.532 0.704 -0.471 173 164 161 0
7.3389 105.8298 -21.5894 0.988 -0.144 -0.062 150 137 129 0
15.5182 38.9739 -66.8266 0.980 -0.010 0.197 229 230 215 0
16.9926 39.2520 -65.5406 0.924 -0.032 0.380 230 230 215 0
15.2632 40.0077 -66.2257 0.892 -0.413 -0.182 228 230 216 0
19.2096 47.0908 -57.9606 -0.024 0.066 0.997 207 222 207 0
19.3894 50.5579 -55.1913 -0.070 -0.514 0.855 70 165 121 0
15.1712 52.2016 -57.0144 0.002 -0.669 0.743 60 164 113 0
18.0747 57.8748 -50.5819 0.289 0.498 0.817 35 159 99 0
20.6691 60.2623 -46.8746 0.814 0.477 -0.330 20 122 71 0
20.4548 60.4761 -46.8681 0.821 0.412 -0.396 20 120 69 0
20.3027 60.6806 -46.8234 0.828 0.377 -0.415 20 119 69 0
20.2128 60.8755 -46.7406 0.885 0.347 -0.311 21 119 70 0
19.2584 61.2107 -47.1809 0.684 -0.689 -0.240 21 120 70 0
19.4747 61.3573 -46.9119 0.673 -0.697 -0.248 20 119 70 0
14.9672 71.7224 -42.3096 0.272 0.827 0.492 34 116 70 0
5.1289 78.5049 -44.3179 0.692 -0.173 0.701 181 185 188 0
17.7817 83.6559 -31.1784 0.890 0.397 0.224 185 182 174 0
17.6703 83.8630 -31.1020 0.890 0.397 0.224 184 181 174 0
17.5767 84.0636 -31.0176 0.890 0.398 0.223 184 181 175 0
17.4541 84.2752 -30.9458 0.848 0.474 0.235 184 181 176 0
19.2607 87.6254 -27.0802 0.530 0.742 -0.411 174 169 164 0
7.3503 105.9917 -21.7843 0.988 -0.144 -0.062 149 136 127 0
15.7553 39.3198 -66.7427 0.869 0.052 0.492 229 229 216 0
14.9103 39.7016 -67.0704 0.864 -0.503 0.005 228 229 215 0
19.2538 47.2157 -58.1679 0.004 -0.165 0.986 208 222 209 0
17.8326 58.4151 -50.6776 0.230 0.486 0.843 36 160 98 0
17.6316 58.6297 -50.6613 0.321 0.373 0.871 34 157 96 0
20.0416 60.6736 -47.3405 0.835 0.365 -0.412 20 123 72 0
20.1074 60.8443 -47.1624 0.983 0.161 -0.091 20 122 72 0
20.3102 60.9924 -46.9011 0.989 -0.135 -0.061 21 122 72 0
19.7055 61.2716 -47.1310 0.955 -0.192 -0.226 19 121 72 0
19.5106 61.4851 -47.1110 0.671 -0.698 -0.249 19 121 72 0
19.8097 61.6167 -46.7919 0.746 -0.593 -0.303 19 121 73 0
12.4341 71.9527 -44.3175 0.606 0.624 0.494 32 114 68 0
14.8432 71.8983 -42.5957 0.320 0.847 0.425 35 117 71 0
14.0781 72.2748 -42.8689 0.435 0.848 0.302 40 118 75 0
12.9334 72.9352 -43.2036 0.423 0.851 0.310 55 120 84 0
12.0159 73.7282 -43.2711 0.963 -0.005 0.271 87 133 111 0
7.9157 75.9567 -44.5748 0.477 0.806 0.351 155 175 170 0
4.2801 78.9104 -44.9859 0.862 -0.430 0.267 181 183 187 0
4.3007 79.0994 -44.8269 0.902 -0.426 0.062 182 183 187 0
6.0077 95.0764 -31.4080 0.590 0.697 -0.408 172 162 156 0
5.6726 95.3997 -31.4070 0.598 0.692 -0.404 171 162 155 0
6.4572 95.2376 -30.9562 0.491 0.861 -0.135 170 161 153 0
7.3617 106.1539 -21.9793 0.988 -0.144 -0.062 148 134 126 0
15.7372 39.4449 -67.0136 0.994 -0.031 0.104 228 228 216 0
17.2180 52.5091 -55.9638 -0.135 -0.700 0.701 62 166 117 0
18.9816 56.7182 -51.4580 0.494 0.849 -0.189 42 158 103 0
18.2463 60.9082 -48.8037 0.926 0.177 -0.333 18 128 75 0
18.2954 61.0850 -48.6329 0.940 0.192 -0.282 18 126 74 0
18.4678 61.2415 -48.3868 0.939 0.137 -0.317 19 124 73 0
18.4102 61.4348 -48.2818 0.926 -0.235 -0.294 19 124 73 0
18.8492 61.5463 -47.8740 0.905 -0.235 -0.354 19 124 73 0
19.4669 61.6264 -47.3588 0.804 -0.538 -0.252 20 123 74 0
19.8378 61.7456 -46.9952 0.855 -0.507 -0.107 20 123 75 0
15.6097 62.8330 -49.2745 0.128 0.468 0.874 19 122 73 0
14.8102 72.0515 -42.8334 0.246 0.838 0.487 37 117 74 0
12.7196 73.1384 -43.5415 0.416 0.855 0.311 58 121 87 0
12.1167 73.8506 -43.4417 0.967 -0.069 0.246 89 132 111 0
4.4154 79.0319 -45.1527 0.798 -0.594 0.102 180 182 186 0
4.5139 79.3925 -44.8053 0.912 -0.409 0.025 180 182 186 0
3.3259 79.9387 -45.2622 0.726 0.583 0.364 180 182 186 0
3.0968 80.2030 -45.2291 0.726 0.583 0.364 179 182 185 0
6.1069 81.4044 -42.1002 0.961 0.132 0.243 185 185 186 0
6.6802 81.4123 -41.6727 0.917 -0.187 0.353 185 185 185 0
17.9730 84.2080 -31.2392 0.704 0.605 0.371 184 181 174 0
17.5036 84.5509 -31.3227 0.677 0.708 0.201 183 180 174 0
17.5060 84.7157 -31.1954 0.808 0.571 -0.145 181 178 174 0
4.1213 90.1806 -36.8683 0.716 -0.145 -0.682 181 176 173 0
4.0707 95.8989 -32.5454 0.632 0.711 -0.308 169 160 155 0
18.6107 57.0827 -51.7832 0.498 0.861 -0.104 39 156 101 0
17.6990 60.1999 -50.0772 -0.059 -0.178 0.982 27 152 90 0
17.4336 60.4267 -50.1000 0.026 -0.208 0.978 22 145 84 0
17.6909 60.7601 -49.6556 0.889 0.129 -0.440 24 142 84 0
17.7768 60.9325 -49.4605 0.887 0.117 -0.447 24 139 82 0
17.8734 61.1029 -49.2592 0.880 0.133 -0.457 19 135 78 0
18.0772 61.2554 -48.9923 0.861 0.093 -0.501 20 132 77 0
17.9966 61.4533 -48.9007 0.839 -0.073 -0.539 20 129 76 0
16.7230 62.9659 -48.6866 0.306 -0.092 0.948 19 121 71 0
18.5122 63.2012 -47.1860 0.873 -0.208 0.441 22 121 71 0
13.8939 71.5143 -44.2510 0.036 0.467 0.884 28 111 67 0
12.9547 72.1176 -44.4841 0.231 0.552 0.801 32 114 70 0
12.5615 73.3278 -43.8506 0.416 0.855 0.311 67 126 94 0
4.8321 79.2653 -45.0261 0.916 0.321 -0.243 178 182 185 0
18.1424 84.2907 -31.3622 0.457 0.720 0.522 182 179 171 0
17.8903 84.5514 -31.3493 0.442 0.609 0.658 182 179 172 0
1.3269 97.6256 -33.6005 0.421 0.871 0.255 170 159 156 0
-0.8415 99.5117 -33.7620 0.591 0.667 -0.455 165 154 150 0
-3.7314 109.8431 -28.0103 0.559 -0.803 0.206 151 140 136 0
6.4819 107.9679 -21.9002 0.989 0.100 0.109 255 255 255 0
17.4574 39.7697 -66.1979 0.956 0.169 0.242 229 228 216 0
20.9269 53.2259 -53.3436 0.971 -0.237 0.009 61 168 119 0
21.6891 53.3449 -52.6874 0.897 0.436 -0.070 61 168 120 0
22.0302 53.4991 -52.3165 0.757 0.638 0.140 60 166 118 0
22.3919 53.8338 -51.7927 0.141 0.620 0.772 60 164 118 0
17.8305 60.5021 -50.0805 0.043 -0.182 0.982 37 163 102 0
17.6166 60.7214 -50.0717 0.020 -0.159 0.987 34 158 98 0
17.6240 60.9067 -49.9247 0.861 0.094 -0.500 31 154 94 0
17.7270 61.0765 -49.7185 0.865 0.104 -0.490 25 147 88 0
17.7840 61.2532 -49.5411 0.877 0.145 -0.458 22 143 84 0
17.9189 61.4170 -49.3160 0.865 0.095 -0.493 22 141 85 0
17.4023 61.6868 -49.4930 0.532 -0.704 0.471 23 138 83 0
16.8155 62.3432 -49.4266 0.004 -0.216 0.976 22 131 78 0
16.6004 62.5664 -49.4156 -0.048 -0.129 0.991 20 127 75 0
17.8189 63.0955 -48.1076 0.992 -0.105 0.069 20 123 70 0
18.4637 63.1637 -47.5773 0.848 -0.107 0.519 21 121 69 0
18.6995 63.3036 -47.2956 0.874 -0.197 0.445 21 122 70 0
12.9464 72.2672 -44.7136 0.169 0.399 0.901 30 113 69 0
12.7255 72.5084 -44.6931 0.298 0.179 0.938 34 115 72 0
5.4661 82.8816 -42.1513 0.647 0.478 -0.594 183 181 184 0
17.3092 84.9204 -31.8103 0.410 0.802 0.433 182 179 172 0
2.1740 97.2443 -33.6190 0.381 0.873 0.303 169 159 154 0
0.5800 98.1251 -34.1281 0.374 0.870 0.320 167 157 152 0
-3.5462 109.9318 -28.1673 0.559 -0.803 0.206 150 139 135 0
-2.9887 109.8282 -27.8330 0.834 -0.551 0.014 150 139 135 0
6.4868 108.1359 -22.0987 0.989 0.100 0.109 254 255 255 0
17.3321 39.8891 -66.5494 0.919 0.171 0.355 227 227 215 0
17.0807 40.0854 -66.5865 0.919 0.241 0.312 227 227 214 0
18.5911 54.5148 -54.4252 -0.214 -0.058 0.975 59 163 116 0
18.8101 54.6834 -54.1332 -0.267 -0.338 0.903 59 163 115 0
15.1272 56.8102 -55.2498 0.875 -0.260 -0.409 49 163 111 0
17.4019 60.8913 -50.4341 0.899 0.283 -0.335 38 163 104 0
17.4390 61.0723 -50.2680 0.921 0.024 -0.388 35 160 101 0
17.5014 61.2489 -50.0864 0.919 0.052 -0.391 34 159 99 0
17.6169 61.4166 -49.8721 0.881 0.135 -0.453 33 156 96 0
17.7336 61.5835 -49.6575 0.883 0.071 -0.463 32 154 95 0
17.6295 61.7863 -49.5799 0.500 -0.708 0.499 28 148 90 0
15.6390 72.0925 -43.1801 0.274 0.849 0.451 36 117 75 0
9.6916 75.3292 -45.1346 0.366 0.761 0.536 104 136 123 0
-5.0871 87.3287 -46.9652 0.892 0.009 -0.451 183 182 182 0
19.2678 83.5007 -31.7516 0.441 0.685 0.579 182 179 172 0
19.7282 83.4911 -31.4160 0.471 0.468 0.748 182 178 172 0
13.8407 102.0828 -21.5817 0.642 -0.624 0.445 148 137 132 0
17.4158 40.0174 -66.7392 0.870 0.153 0.468 224 226 213 0
21.7373 49.8524 -55.9761 0.511 0.099 0.854 193 225 212 0
20.5892 51.4377 -55.6212 -0.218 -0.149 0.965 125 191 165 0
20.2934 51.6484 -55.6813 -0.217 -0.141 0.966 111 183 154 0
14.5893 56.8143 -55.9935 0.876 -0.258 -0.408 50 162 111 0
14.8769 56.9768 -55.6540 0.885 -0.255 -0.389 50 163 112 0
17.2315 61.0550 -50.7700 0.867 0.314 -0.388 37 161 103 0
17.2327 61.2420 -50.6259 0.912 0.055 -0.407 37 162 104 0
17.3065 61.4172 -50.4366 0.912 0.055 -0.407 41 166 107 0
17.4374 61.5827 -50.2119 0.924 0.038 -0.380 41 165 105 0
17.7712 61.7141 -49.8616 0.558 -0.501 0.661 39 163 103 0
17.8591 61.8851 -49.6649 0.257 -0.667 0.700 37 161 101 0
10.2293 75.1473 -45.2191 0.389 0.738 0.552 103 135 124 0
9.6599 75.4913 -45.3817 0.352 0.698 0.624 108 138 127 0
-4.7639 88.8357 -45.9558 0.811 0.514 -0.279 181 182 176 0
18.4558 83.7867 -32.4499 0.941 -0.214 -0.264 182 180 174 0
15.2731 87.3516 -32.1015 0.425 0.114 0.898 178 171 164 0
15.2222 87.5402 -31.9953 0.471 0.288 0.834 178 171 164 0
15.2744 87.6876 -31.8434 0.409 0.391 0.825 179 170 163 0
14.8742 88.0163 -31.8911 0.691 -0.619 -0.372 178 170 163 0
7.2484 106.8925 -23.1440 0.948 -0.283 -0.144 146 133 125 0
7.4190 106.9680 -22.9586 0.988 -0.144 -0.062 146 133 125 0
17.2661 38.6860 -68.2232 0.809 0.327 -0.489 228 228 218 0
24.7737 43.8537 -58.6213 0.629 -0.418 -0.656 219 225 213 0
24.1132 44.2309 -58.8286 0.813 -0.053 -0.579 219 224 213 0
23.6579 44.4213 -59.0247 0.988 0.102 0.117 221 224 213 0
23.8117 44.6111 -58.7637 0.952 0.261 0.160 219 225 215 0
14.2271 56.4031 -56.9279 0.813 -0.581 -0.026 56 167 115 0
14.3649 56.5850 -56.6850 0.813 -0.581 -0.026 56 167 116 0
14.4591 56.7711 -56.4715 0.831 -0.392 0.395 54 166 115 0
14.4899 56.9641 -56.3005 0.860 -0.439 0.261 53 164 115 0
14.4824 57.1613 -56.1550 0.873 -0.440 0.211 54 165 115 0
19.1834 60.1448 -50.3359 0.575 0.118 0.809 38 158 104 0
17.9011 61.8295 -50.0082 0.617 -0.685 0.388 37 161 101 0
17.0672 64.2006 -48.8175 0.327 0.219 0.919 20 132 76 0
17.2605 64.9022 -48.1346 0.912 -0.037 0.408 21 125 72 0
10.6117 75.0079 -45.3853 0.387 0.754 0.531 97 131 118 0
10.1789 75.3139 -45.4759 0.423 0.748 0.512 105 137 126 0
-4.7878 88.6111 -46.5307 0.948 -0.063 -0.310 182 179 176 0
-5.0164 88.8955 -46.4844 0.946 -0.095 -0.311 181 180 175 0
18.4047 83.9526 -32.6740 0.958 -0.252 -0.138 182 180 172 0
18.5686 84.0561 -32.4716 0.845 -0.437 -0.307 181 178 171 0
15.1676 87.7144 -32.2233 0.489 0.339 0.804 178 169 164 0
14.8892 87.9945 -32.2178 0.499 0.310 0.809 177 168 163 0
-2.9975 109.0925 -29.4880 0.421 0.764 0.489 152 138 135 0
7.4305 107.1314 -23.1552 0.988 -0.144 -0.062 145 131 124 0
20.6457 41.5860 -63.8013 0.729 0.120 -0.673 222 225 214 0
20.7649 41.7877 -63.5566 0.719 0.144 -0.679 223 225 214 0
21.0282 41.9920 -63.2011 0.723 0.133 -0.678 223 225 214 0
21.3962 42.1972 -62.7659 0.721 0.147 -0.677 221 224 213 0
23.6190 44.7323 -59.1435 0.877 0.468 0.110 218 224 214 0
23.4270 44.9239 -59.1413 0.893 0.434 0.121 218 224 214 0
23.5836 45.1131 -58.8780 0.988 0.118 0.098 218 224 214 0
13.7636 56.7919 -57.3287 0.801 -0.430 -0.416 59 167 117 0
13.9870 56.9642 -57.0279 0.889 -0.445 -0.107 57 166 116 0
14.4102 57.1120 -56.5952 0.765 -0.644 -0.002 58 166 117 0
14.5072 57.2970 -56.3800 0.810 -0.583 -0.060 56 165 117 0
14.4440 57.5009 -56.2713 0.892 -0.440 -0.105 56 164 117 0
24.4815 56.8194 -49.2190 -0.096 -0.312 0.945 53 162 114 0
17.1314 61.9082 -50.8618 0.883 -0.117 -0.455 38 158 102 0
17.3700 62.0554 -50.5688 0.861 -0.209 -0.464 37 159 102 0
18.1627 62.1080 -49.9301 0.652 -0.740 0.166 36 159 101 0
17.4233 64.0883 -48.9688 -0.041 0.077 0.996 24 143 85 0
17.1881 64.3172 -48.9707 -0.033 0.084 0.996 23 139 82 0
17.2314 64.8630 -48.5193 0.957 0.269 0.113 17 128 72 0
17.1492 65.0633 -48.4276 0.975 -0.198 0.102 19 128 73 0
12.9391 73.9721 -44.7699 0.369 0.504 0.781 85 130 109 0
10.4071 75.4044 -45.5818 0.389 0.844 0.368 105 137 128 0
8.6028 76.4725 -46.1240 0.384 0.856 0.347 167 186 183 0
18.3831 84.1078 -32.8850 0.862 -0.336 -0.380 180 178 171 0
16.4464 87.3538 -31.8561 0.058 0.586 0.809 177 168 163 0
7.2516 107.2307 -23.5452 0.953 -0.280 -0.115 146 133 125 0
22.9139 44.8573 -59.9105 0.797 0.604 -0.011 218 223 214 0
23.3564 45.0456 -59.4305 0.981 0.190 0.047 217 223 214 0
20.3475 50.5033 -57.5196 0.986 0.013 -0.164 197 223 213 0
14.4970 57.4371 -56.6287 0.741 -0.527 -0.417 59 165 118 0
14.6897 57.6098 -56.3500 0.798 -0.599 -0.066 59 165 119 0
14.3544 57.8473 -56.4217 0.727 0.321 0.607 57 164 118 0
13.8868 58.1025 -56.5802 -0.218 0.051 0.975 55 162 116 0
17.0439 62.0609 -51.1470 0.862 -0.200 -0.465 40 157 102 0
17.2414 62.2150 -50.8789 0.861 -0.209 -0.464 39 158 102 0
17.6705 62.3288 -50.4663 0.825 -0.387 -0.412 38 158 102 0
17.6625 64.3667 -48.9073 -0.012 0.076 0.997 32 151 93 0
