ply
format ascii 1.0
element vertex 832
property float x
property float y
property float z
property float nx
property float ny
property float nz
property uchar diffuse_red
property uchar diffuse_green
property uchar diffuse_blue
property uchar class
end_header
17.1601 35.7940 -49.5206 0.813 0.100 0.574 235 230 84 0
17.1181 36.0538 -49.5363 0.957 -0.289 -0.031 235 230 85 0
15.8217 40.9199 -50.0877 0.939 -0.339 0.055 215 208 59 0
15.9340 41.0998 -50.0267 0.971 -0.226 0.079 213 206 56 0
14.7166 42.3381 -50.6183 0.999 -0.012 0.031 210 202 53 0
5.7127 48.9305 -55.0511 0.735 -0.368 0.570 203 194 51 0
6.2600 49.1445 -54.7681 0.535 -0.246 0.808 198 189 47 0
15.5580 43.8376 -50.1573 0.027 -0.950 -0.310 192 183 44 0
26.4873 47.2419 -44.5241 -0.198 -0.749 0.633 17 99 53 0
16.4055 60.9762 -49.3469 0.884 -0.145 -0.445 31 121 69 0
12.1249 65.0755 -51.4330 0.708 0.683 0.182 33 121 72 0
8.9891 68.5898 -52.9499 0.752 0.658 -0.038 33 112 72 0
7.3915 70.2371 -53.7258 0.621 0.735 0.271 36 113 73 0
12.2765 68.8916 -51.2714 0.953 0.268 -0.145 43 109 77 0
16.1014 80.1593 -49.0769 0.953 0.303 -0.024 180 182 172 0
9.8789 87.1901 -52.0856 0.493 0.660 0.567 182 182 170 0
33.8462 67.2237 -40.3396 0.470 0.540 0.698 187 179 169 0
14.5387 91.3047 -49.6249 0.641 0.662 0.388 183 174 167 0
12.9466 93.4418 -50.3872 0.409 0.336 0.848 182 173 166 0
40.4525 63.1200 -37.0709 0.950 0.311 0.019 181 172 164 0
34.7242 79.4676 -39.6221 0.642 -0.639 0.423 171 160 158 0
28.1060 99.7709 -42.5382 0.756 0.479 0.447 157 146 137 0
26.4494 103.1908 -43.3049 0.519 0.362 0.774 156 141 134 0
26.0666 104.1014 -43.4794 0.515 0.369 0.774 156 141 134 0
8.3298 -2.7754 -55.0847 1.000 0.027 -0.002 233 224 217 0
8.3007 -2.5864 -55.0955 0.998 0.065 0.014 233 224 217 0
-17.9074 2.7575 -68.3627 0.936 -0.046 0.348 230 223 213 0
-20.3198 3.3524 -69.5818 0.994 0.106 -0.032 229 222 212 0
6.4653 26.5818 -55.4137 0.228 -0.242 0.943 213 208 205 0
3.3914 30.0479 -56.9096 0.792 -0.078 0.605 208 206 203 0
-5.7065 35.5807 -61.4372 0.480 -0.683 -0.551 203 204 198 0
-4.3520 36.5934 -60.7242 -0.024 -0.890 -0.455 198 197 193 0
12.6952 31.5738 -52.1272 0.707 -0.696 -0.125 219 212 100 0
12.7852 31.7653 -52.0771 0.754 -0.631 -0.183 220 214 95 0
13.0292 31.8812 -51.9501 0.707 -0.696 -0.125 222 215 91 0
13.2496 32.0079 -51.8349 0.738 -0.664 0.119 225 217 90 0
10.2634 33.7263 -53.3230 0.746 0.238 0.623 227 221 87 0
9.8147 34.1934 -53.5422 0.600 -0.289 0.746 226 222 80 0
12.2921 33.9145 -52.2833 0.573 -0.451 0.684 231 225 78 0
11.8627 34.3745 -52.4928 0.870 -0.396 0.293 231 225 75 0
11.7749 34.6615 -52.5315 0.907 -0.406 0.114 231 225 77 0
9.3595 36.1505 -53.7331 0.685 0.678 0.267 234 228 80 0
16.2931 34.6747 -50.2244 0.748 0.163 0.643 236 230 79 0
6.2915 48.9202 -55.0286 0.314 -0.365 0.876 201 192 48 0
20.5042 42.7209 -47.9038 0.691 0.300 0.658 162 149 48 0
20.1171 43.4649 -48.0856 0.849 -0.011 0.528 139 134 51 0
16.0843 55.9785 -49.8791 0.946 -0.298 0.131 21 103 56 0
14.7723 58.3856 -50.4978 0.789 -0.607 -0.089 23 105 58 0
15.1046 58.4096 -50.3277 0.685 -0.729 -0.014 23 105 58 0
17.8480 57.6480 -48.9432 0.943 0.063 0.326 28 111 62 0
12.7997 68.5352 -51.2896 0.869 0.457 0.189 46 111 79 0
13.9254 73.7352 -50.6046 0.978 0.163 -0.133 157 181 173 0
13.9699 74.0091 -50.5761 0.949 0.304 0.086 159 180 174 0
13.8223 74.4632 -50.6418 0.945 -0.087 -0.316 159 178 174 0
18.4106 76.3350 -48.2595 0.923 0.382 0.051 171 176 172 0
15.8896 80.4868 -49.4585 0.873 0.458 0.168 181 183 174 0
9.6261 87.5694 -52.5061 0.558 0.687 0.466 183 182 171 0
10.3851 87.1381 -52.1278 0.922 -0.363 -0.135 185 183 171 0
21.9037 76.5154 -46.4723 0.538 -0.834 -0.121 186 182 173 0
33.4354 68.3238 -40.7585 0.356 0.431 0.829 186 177 168 0
13.2742 93.5614 -50.5164 0.668 0.451 0.592 182 173 167 0
34.6047 73.2331 -40.0574 0.683 0.244 -0.688 177 168 161 0
32.7119 75.7521 -40.9703 0.683 0.254 -0.685 177 168 161 0
24.7569 85.4535 -44.8259 0.181 -0.961 -0.207 176 167 160 0
38.8230 71.0310 -37.9504 0.936 -0.240 0.259 173 163 155 0
31.6175 81.6219 -41.4045 0.592 0.554 0.585 172 161 157 0
28.0128 87.0561 -43.1296 0.543 0.542 0.641 172 161 159 0
28.8542 87.9611 -42.6808 0.412 0.284 0.866 167 156 152 0
21.6595 106.6818 -45.9569 0.561 0.372 0.740 151 140 136 0
25.5174 103.9217 -44.0459 0.623 0.540 0.567 155 144 135 0
-10.2528 -7.7784 -64.9314 0.372 -0.919 -0.129 255 255 255 0
-7.9639 -6.5048 -63.7323 0.575 -0.815 0.072 229 220 215 0
-10.8199 -1.5611 -65.0959 0.845 0.467 0.261 232 225 217 0
-18.4414 1.6861 -68.9367 0.159 -0.954 -0.254 232 223 216 0
-19.7094 2.0987 -69.5782 0.193 -0.958 -0.213 232 223 216 0
-18.1522 2.5873 -68.7701 0.970 0.025 0.242 231 224 213 0
-18.2623 3.0765 -68.8167 0.948 -0.007 0.319 230 223 213 0
-19.8639 3.5552 -69.6279 0.973 -0.106 -0.207 230 223 213 0
5.5627 26.5250 -56.1285 -0.199 -0.973 0.115 214 210 208 0
7.0690 26.6183 -55.3545 0.284 -0.158 0.946 213 208 205 0
-0.4655 32.5332 -59.0965 0.929 0.041 0.368 206 207 201 0
13.0799 31.4398 -52.1756 0.989 -0.143 0.039 220 213 100 0
13.0040 31.7119 -52.2089 0.994 -0.107 0.006 223 217 97 0
13.1657 31.8679 -52.1229 0.976 -0.170 0.137 225 218 93 0
13.5286 31.9239 -51.9357 0.636 -0.498 0.590 226 219 89 0
10.7748 33.7702 -53.3098 0.672 -0.392 0.628 227 222 81 0
12.3646 34.1742 -52.4867 0.903 -0.340 0.263 233 227 77 0
18.2034 37.6904 -49.4225 0.793 0.375 0.481 227 221 73 0
16.2579 44.0339 -50.2910 0.194 -0.885 -0.424 188 178 45 0
21.0432 42.6774 -47.8657 0.831 0.117 0.544 155 145 52 0
20.1027 43.5407 -48.3302 0.904 0.044 0.425 143 137 53 0
15.7490 50.8725 -50.4131 0.302 -0.528 0.794 21 98 51 0
16.1309 56.0237 -50.1128 0.946 -0.298 0.131 22 104 58 0
14.6469 58.2836 -50.8276 0.646 -0.761 -0.059 24 106 60 0
14.6183 58.5890 -50.8360 0.701 -0.709 -0.074 25 107 60 0
17.4161 58.0745 -49.4124 0.802 0.158 0.576 26 112 64 0
17.3441 58.4109 -49.4425 0.746 0.159 0.646 28 118 69 0
18.9180 57.9805 -48.6445 0.096 -0.965 0.243 28 121 71 0
12.6625 68.7500 -51.6324 0.861 0.454 0.231 50 113 82 0
14.3679 68.1801 -50.7698 0.731 0.242 0.638 46 115 82 0
18.5314 76.3207 -48.4704 0.908 0.417 0.033 170 176 172 0
28.2286 74.7197 -43.5323 0.677 0.684 0.272 185 176 169 0
16.7363 88.4088 -49.1452 0.725 0.644 0.243 182 173 165 0
40.8137 63.9356 -37.3002 0.914 0.378 0.149 180 172 162 0
38.4506 71.3080 -38.3619 0.579 -0.681 0.448 173 162 154 0
28.4028 86.6935 -43.2000 0.567 0.547 0.616 169 159 156 0
31.5096 99.7982 -41.3416 0.552 -0.674 -0.491 255 255 254 0
-7.9461 -6.6905 -63.9768 0.619 -0.769 -0.156 228 219 212 0
-8.0525 -6.4762 -64.0274 0.603 -0.797 0.026 229 220 214 0
-7.7239 -6.2974 -63.8548 0.538 -0.842 0.048 230 220 214 0
-17.0769 2.4605 -68.4983 0.296 -0.929 -0.224 230 223 212 0
-9.0418 21.5276 -63.9940 0.778 -0.314 0.544 225 221 213 0
0.1071 32.3375 -59.0764 0.871 0.190 0.454 206 207 201 0
-0.2500 33.2679 -59.2422 0.899 0.025 0.437 203 204 198 0
12.8460 31.6075 -52.5350 0.978 -0.197 0.066 221 214 99 0
13.0837 31.7266 -52.4103 0.990 -0.114 -0.079 224 218 98 0
10.5154 33.7128 -53.6936 0.833 -0.173 0.526 227 222 86 0
12.0650 33.9015 -52.8925 0.976 0.089 0.198 232 228 82 0
11.9854 34.1831 -52.9280 0.990 -0.074 0.117 232 228 78 0
18.3152 37.6852 -49.6027 0.793 0.375 0.481 228 222 76 0
18.1872 37.9987 -49.6625 0.769 0.385 0.510 227 221 72 0
22.6066 35.6399 -47.4339 0.422 -0.904 -0.070 227 220 69 0
12.3786 42.9312 -52.5561 0.922 0.119 0.369 218 212 52 0
16.7363 49.4587 -50.1872 0.887 0.166 0.430 27 100 53 0
15.9732 50.7888 -50.5541 0.302 -0.528 0.794 22 99 52 0
14.7061 52.2255 -51.1783 -0.009 -0.937 0.349 21 99 53 0
16.2673 51.6481 -50.3861 0.650 -0.271 -0.710 17 98 51 0
16.0982 56.1295 -50.3863 0.936 -0.340 0.090 22 104 58 0
12.7745 59.2431 -52.0364 0.937 -0.275 0.216 23 105 59 0
12.8366 59.4831 -51.9998 0.937 -0.275 0.216 23 105 59 0
13.1777 59.5068 -51.8239 0.955 -0.227 0.192 24 107 60 0
14.5673 58.7126 -51.1241 0.671 -0.633 0.387 24 108 59 0
17.8422 57.8185 -49.4561 0.951 -0.165 0.260 29 119 71 0
19.0455 57.9608 -48.8341 0.117 -0.967 0.227 31 121 74 0
19.1679 58.1381 -48.7677 0.617 -0.787 0.001 32 120 73 0
12.8321 71.7967 -51.7636 0.831 0.451 -0.325 84 131 109 0
12.2112 72.6698 -52.0662 0.833 0.444 -0.329 104 145 126 0
13.0003 85.3605 -51.4143 0.976 0.217 -0.009 183 181 171 0
21.6595 77.2996 -47.1143 0.611 -0.599 -0.518 183 181 171 0
40.5407 64.3439 -37.6487 0.974 -0.031 -0.226 179 170 161 0
30.9223 76.2755 -42.3674 0.868 -0.447 -0.217 179 170 162 0
27.3575 81.9797 -44.0914 0.674 0.234 -0.701 177 168 161 0
38.2498 70.8166 -38.7023 0.809 0.584 0.074 173 162 156 0
30.6483 82.1163 -42.3952 0.552 0.540 0.635 171 161 153 0
29.8025 83.4715 -42.8042 0.563 0.535 0.630 171 161 152 0
29.3347 85.6518 -43.0027 0.583 0.569 0.580 168 159 154 0
25.9216 90.5964 -44.6634 0.660 0.597 0.456 167 158 153 0
18.2863 102.4352 -48.3633 0.735 0.589 0.336 167 156 151 0
31.9332 97.9204 -41.4279 0.473 -0.748 -0.466 51 50 49 0
32.2437 97.8187 -41.2700 0.826 -0.541 -0.159 247 247 245 0
-7.9836 -6.6662 -64.2458 0.619 -0.769 -0.156 228 219 211 0
-8.0715 -6.4532 -64.2873 0.649 -0.761 -0.005 230 221 213 0
-7.4977 -6.2947 -63.9879 0.544 -0.757 0.361 230 221 213 0
7.0476 26.4894 -55.8683 -0.044 -0.996 -0.078 211 210 208 0
0.2462 32.5882 -59.2698 0.947 0.107 0.302 205 205 201 0
-2.8127 34.4666 -60.8155 0.684 -0.171 0.710 203 203 198 0
-2.8232 35.0021 -60.8110 0.639 -0.149 0.755 204 203 198 0
12.1121 33.2127 -53.1277 0.285 -0.474 0.834 228 225 84 0
12.1889 33.4140 -53.0844 0.291 -0.467 0.835 229 226 83 0
11.5032 35.9510 -53.3918 0.917 0.191 0.350 237 232 76 0
11.6041 36.1435 -53.3362 0.913 0.183 0.365 237 232 77 0
17.5192 34.6501 -50.3077 0.752 0.143 0.643 238 234 88 0
17.1299 35.3332 -50.4962 0.674 -0.386 0.629 239 237 96 0
22.3316 35.1742 -47.8116 0.582 -0.780 -0.230 230 223 81 0
17.9950 38.1716 -49.9969 0.766 0.351 0.539 227 221 72 0
22.3602 35.8426 -47.7845 0.449 -0.893 -0.030 226 219 67 0
15.7320 39.9898 -51.1325 0.611 -0.587 -0.531 225 218 62 0
14.3431 42.5736 -51.8024 0.882 -0.399 0.249 217 208 54 0
16.0872 42.7610 -50.8979 0.957 0.282 -0.065 206 196 48 0
15.6268 44.8265 -51.0976 0.344 -0.770 -0.537 187 174 45 0
20.6884 43.5326 -48.5064 0.768 0.357 0.532 134 134 47 0
17.6183 47.3601 -50.0220 0.614 0.605 0.507 37 96 48 0
15.5657 51.1519 -51.0125 0.323 -0.582 0.746 22 100 52 0
15.0495 51.7867 -51.2675 0.793 -0.189 -0.579 20 100 52 0
14.7348 52.2814 -51.4210 0.788 -0.000 -0.615 19 101 52 0
15.9660 51.6716 -50.7961 0.319 -0.934 0.160 19 100 52 0
15.7558 52.0914 -50.8970 0.648 -0.323 -0.690 18 100 51 0
16.3918 51.9023 -50.5719 0.249 -0.938 -0.243 18 100 51 0
14.8709 57.9941 -51.2453 0.860 0.074 0.504 24 106 60 0
16.1363 57.2940 -50.6044 0.543 -0.709 0.451 25 109 61 0
17.2508 56.7045 -50.0395 0.490 -0.871 0.027 24 111 61 0
8.3837 70.1099 -54.3734 0.463 0.020 0.886 43 111 76 0
12.7837 71.6272 -52.0721 0.831 0.447 -0.330 104 147 128 0
11.6708 73.2590 -52.6170 0.833 0.442 -0.332 145 177 164 0
16.9737 78.7447 -49.7761 0.992 0.002 0.129 173 176 169 0
14.4892 82.2560 -50.9949 0.764 0.616 0.192 176 177 169 0
13.0008 85.4781 -51.7044 0.973 -0.137 0.187 181 182 171 0
20.8886 83.6955 -47.6621 0.683 0.676 0.277 184 175 168 0
17.9478 92.4857 -49.0193 0.638 0.025 -0.770 175 166 159 0
29.8397 85.1424 -43.0108 0.583 0.569 0.580 169 158 154 0
33.9133 93.8359 -40.7459 0.909 -0.376 -0.177 154 137 127 0
31.7299 98.0086 -41.7969 0.456 -0.760 -0.464 97 87 82 0
32.2508 97.9520 -41.5288 0.828 -0.539 -0.155 247 247 245 0
32.8265 97.8093 -41.2340 0.590 -0.611 -0.528 254 255 255 0
-8.2736 -6.8279 -64.6496 0.688 -0.701 -0.188 224 217 210 0
-8.0212 -6.6419 -64.5154 0.619 -0.769 -0.156 229 220 210 0
-7.8719 -6.4481 -64.4346 0.492 -0.870 0.027 230 221 212 0
4.9281 26.6910 -57.2148 -0.219 -0.965 0.140 216 210 210 0
-2.8004 33.1988 -61.1094 0.932 0.282 0.228 208 205 202 0
-8.1536 36.0775 -63.8356 0.676 -0.553 0.486 208 207 203 0
0.1768 32.6742 -59.5743 0.945 -0.114 0.306 206 205 202 0
-2.8784 35.0850 -61.1168 0.663 -0.137 0.736 203 202 197 0
-7.1378 37.8371 -63.2779 0.230 -0.681 -0.695 201 201 194 0
-6.1282 37.6502 -62.7575 0.232 -0.678 -0.697 202 201 193 0
13.0969 31.8278 -52.8877 0.975 -0.181 0.126 224 219 97 0
13.1344 32.0454 -52.8645 0.975 -0.181 0.126 226 222 91 0
13.1423 32.2778 -52.8563 0.951 -0.289 -0.112 226 222 89 0
11.1281 33.5192 -53.8792 0.400 0.037 0.916 227 224 87 0
11.9207 34.8142 -53.4454 0.926 -0.021 -0.377 236 233 75 0
13.6274 35.6160 -52.5462 0.655 0.164 0.737 237 232 80 0
11.1958 37.1608 -53.7804 0.820 -0.311 -0.481 238 232 81 0
17.3543 35.0318 -50.6233 0.863 -0.136 0.487 240 238 95 0
17.4597 35.4446 -50.5614 0.873 -0.438 0.215 242 240 112 0
17.7856 35.4994 -50.3914 0.852 -0.524 -0.010 245 241 118 0
22.1397 36.0304 -48.1236 0.601 -0.799 -0.000 227 220 67 0
14.0967 42.0283 -52.1904 0.909 -0.399 0.122 220 213 53 0
14.4366 42.5819 -52.0044 0.882 -0.409 0.233 219 208 57 0
15.9678 42.3983 -51.2134 0.968 0.142 -0.208 211 201 52 0
20.8886 43.4662 -48.6423 0.773 0.425 0.472 138 137 47 0
14.8096 52.5762 -51.6358 0.730 -0.279 -0.624 19 101 52 0
15.5427 52.3211 -51.2600 0.688 -0.292 -0.664 20 101 52 0
20.2030 50.0007 -48.8834 0.834 -0.236 0.500 21 100 52 0
16.9409 54.8239 -50.4909 0.938 -0.322 0.125 19 105 58 0
18.3477 56.4785 -49.7322 0.774 -0.568 -0.278 28 119 67 0
18.4190 56.6972 -49.6915 0.827 -0.451 -0.336 27 120 68 0
17.3006 64.4236 -50.1362 0.925 0.365 -0.102 49 116 82 0
16.4818 65.4249 -50.5433 0.944 0.293 -0.154 50 116 84 0
12.7760 71.4213 -52.3604 0.828 0.422 -0.368 110 151 133 0
12.2176 72.2353 -52.6358 0.831 0.447 -0.332 138 175 160 0
15.1733 71.1186 -51.1223 0.431 -0.899 0.079 161 182 173 0
9.2690 78.4922 -54.0556 0.434 0.438 0.787 162 180 174 0
11.7595 86.1976 -52.6287 0.626 0.598 0.500 178 180 171 0
13.1238 85.4686 -51.9339 0.968 -0.116 0.223 180 182 171 0
23.0997 78.8100 -46.8762 0.485 0.570 0.663 183 179 167 0
33.8975 72.1755 -41.3917 0.730 0.610 0.307 180 171 163 0
24.3936 84.0778 -46.1127 0.729 0.317 -0.606 177 168 161 0
23.0038 86.0226 -46.7995 0.729 0.311 -0.610 177 168 161 0
21.1870 88.4777 -47.6989 0.731 0.316 -0.605 175 166 158 0
21.7589 88.1462 -47.4081 0.683 0.245 -0.688 174 165 157 0
38.5012 70.1666 -39.0390 0.909 0.406 0.098 171 161 154 0
29.9633 84.1500 -43.2225 0.747 0.546 0.380 167 157 151 0
17.4538 103.0414 -49.3801 0.529 0.537 0.657 164 153 147 0
24.2912 103.2743 -45.8295 0.338 0.082 0.938 148 136 128 0
23.2750 105.4285 -46.3188 0.454 0.431 0.779 150 137 127 0
33.6905 94.2935 -41.1116 0.774 -0.571 -0.273 152 135 124 0
32.5751 98.3215 -41.6195 0.578 -0.672 -0.464 254 255 255 0
-8.3235 -6.8028 -64.9265 0.688 -0.701 -0.188 226 218 211 0
-8.0588 -6.6176 -64.7856 0.619 -0.769 -0.156 231 222 212 0
-8.0919 -6.4086 -64.7994 0.611 -0.788 -0.071 230 222 214 0
-13.7963 -5.7246 -67.7584 0.716 -0.684 -0.141 230 223 215 0
-25.9786 2.8502 -73.9598 0.427 -0.889 -0.166 233 224 217 0
-25.2717 3.0005 -73.5892 0.345 -0.768 0.539 232 223 216 0
-25.0142 3.2127 -73.4516 0.345 -0.768 0.539 231 222 213 0
-2.5237 33.1346 -61.2436 0.974 0.211 0.078 209 207 204 0
-0.1331 32.8668 -60.0032 0.912 0.195 0.362 206 205 201 0
12.9343 31.9618 -53.2136 0.974 0.016 -0.225 226 221 94 0
12.8533 32.2385 -53.2512 0.979 -0.014 -0.203 227 223 89 0
11.8797 34.4067 -53.7222 0.925 0.288 -0.248 233 232 79 0
12.1310 34.7627 -53.5855 0.902 -0.058 -0.428 235 232 75 0
13.2164 34.9243 -53.0176 0.719 0.077 0.691 236 231 77 0
11.6980 36.9511 -53.7746 0.940 -0.119 -0.320 238 233 80 0
19.7874 33.2958 -49.6229 0.934 -0.188 -0.305 241 236 87 0
18.9110 34.0033 -50.0675 0.897 -0.368 -0.246 241 238 94 0
17.0845 35.7100 -50.9903 0.861 -0.277 0.426 248 244 122 0
17.6671 35.6230 -50.6884 0.876 -0.366 0.314 249 246 129 0
15.5118 40.4934 -51.7299 0.864 -0.366 0.347 223 218 59 0
14.3199 42.4648 -52.3179 0.843 -0.453 0.289 216 209 55 0
14.4635 42.6310 -52.2403 0.820 -0.278 0.501 215 205 55 0
15.7403 43.1088 -51.5675 0.996 0.075 0.049 206 196 48 0
20.7169 43.8934 -48.9630 0.953 0.230 0.196 120 125 42 0
13.0019 55.9058 -52.7811 0.996 -0.059 0.067 20 103 54 0
18.4075 54.3320 -49.9924 1.000 -0.018 -0.016 21 109 61 0
18.3152 54.6735 -50.0348 0.999 0.002 0.045 22 110 62 0
18.3331 56.5717 -49.9939 0.768 -0.624 0.146 28 119 69 0
19.2415 56.1291 -49.5283 0.623 -0.292 0.725 31 121 72 0
5.4746 73.4159 -56.4102 0.580 0.686 0.440 47 114 79 0
7.3563 80.3874 -55.3146 0.430 0.583 0.689 163 181 175 0
30.7906 62.2170 -43.4133 0.796 0.259 0.547 166 178 174 0
30.1340 64.2279 -43.7218 -0.133 -0.843 0.521 168 173 168 0
13.9105 83.0782 -51.8570 0.710 0.605 0.360 174 176 169 0
12.8313 85.8921 -52.3723 0.975 0.223 -0.020 180 180 170 0
30.8489 82.8542 -43.0404 0.810 0.537 0.236 165 156 148 0
17.5996 103.0000 -49.6054 0.507 0.522 0.686 161 150 145 0
24.6988 102.8587 -45.9110 0.345 0.095 0.934 147 137 127 0
23.9479 104.6430 -46.2724 0.440 0.397 0.806 149 136 127 0
23.5182 105.6171 -46.4800 0.449 0.413 0.792 152 139 128 0
33.8051 94.2677 -41.3117 0.787 -0.551 -0.279 151 134 122 0
31.9151 98.3783 -42.2276 0.461 -0.754 -0.469 50 50 49 0
-8.3737 -6.7776 -65.2041 0.688 -0.701 -0.188 226 219 211 0
-8.0965 -6.5932 -65.0563 0.619 -0.769 -0.156 230 220 211 0
-8.1641 -6.3811 -65.0883 0.619 -0.775 -0.126 230 221 214 0
-13.8642 -5.6961 -68.0574 0.735 -0.615 -0.283 230 222 216 0
-19.2597 -3.8788 -70.8495 0.941 -0.327 -0.088 231 222 217 0
-12.2880 0.7510 -67.1324 0.632 -0.708 -0.315 232 223 216 0
-1.9766 30.3611 -61.2780 0.525 -0.793 0.309 214 207 207 0
1.2188 31.3062 -59.5927 0.881 -0.456 -0.123 209 208 206 0
-1.0316 34.3664 -60.7212 0.372 -0.174 0.912 203 204 196 0
15.1409 30.6978 -52.3242 0.812 0.294 0.504 224 218 97 0
11.6922 34.5595 -54.0666 0.955 0.235 -0.179 233 232 79 0
12.4145 56.1373 -53.3509 0.967 -0.094 -0.237 20 101 53 0
13.0277 55.9676 -53.0330 0.974 -0.226 -0.015 21 103 55 0
17.6065 54.4783 -50.6626 0.990 -0.139 0.012 20 107 61 0
16.8356 55.3378 -51.0522 0.825 -0.563 0.053 18 108 62 0
17.0195 55.4724 -50.9540 0.438 -0.391 0.809 19 111 64 0
16.9923 55.7684 -50.9635 0.472 -0.326 0.819 20 112 63 0
16.7853 56.7581 -51.0562 0.928 0.371 0.025 26 118 69 0
16.6342 57.1539 -51.1291 0.906 0.416 0.085 28 120 71 0
17.7162 56.5865 -50.5723 0.728 -0.684 -0.045 29 119 71 0
18.1137 56.5508 -50.3650 0.810 -0.477 0.342 30 119 72 0
14.8833 61.3864 -51.9780 0.513 0.388 0.765 36 115 75 0
7.9696 70.7537 -55.4455 0.696 0.694 0.186 44 116 79 0
6.9639 71.9260 -55.9529 0.700 0.694 0.168 46 116 80 0
4.6036 74.2597 -57.1502 0.666 0.711 0.226 49 116 83 0
21.8942 80.6639 -48.0109 0.757 0.604 0.250 181 177 166 0
32.5461 69.3339 -42.6199 0.801 0.493 0.340 181 177 166 0
38.0738 71.1664 -39.7015 0.665 -0.741 -0.092 168 157 153 0
38.3118 71.1603 -39.5772 0.711 -0.703 0.020 167 156 152 0
41.1003 68.8799 -38.1552 0.697 -0.547 0.464 167 156 151 0
41.1304 69.1153 -38.1357 0.515 -0.684 0.517 166 157 148 0
32.1558 81.3516 -42.6357 0.548 0.034 0.836 165 156 148 0
25.7191 101.2288 -45.6891 0.611 0.483 0.627 148 137 131 0
24.6703 103.7864 -46.1973 0.369 0.318 0.873 146 134 125 0
24.4133 104.5173 -46.3203 0.373 0.312 0.874 150 137 127 0
25.4996 104.8504 -45.7471 0.733 0.553 0.396 150 135 121 0
27.1947 102.8086 -44.8930 0.184 -0.412 0.892 150 135 122 0
33.1070 98.1790 -41.8747 0.665 -0.637 -0.389 255 255 254 0
-11.7783 -7.3358 -67.2513 0.213 -0.970 -0.117 255 255 255 0
-8.1343 -6.5687 -65.3276 0.619 -0.769 -0.156 230 220 212 0
-8.1098 -6.3640 -65.3117 0.625 -0.768 -0.140 230 221 214 0
-22.2743 -3.1001 -72.6973 0.987 -0.006 -0.162 232 222 217 0
-2.8750 29.4954 -62.0358 0.396 -0.724 0.565 215 209 209 0
-5.3854 31.5584 -63.3229 0.412 -0.911 0.020 213 207 207 0
-3.0700 30.8663 -62.1180 0.529 -0.843 -0.093 215 207 208 0
-2.5935 30.9281 -61.8670 0.676 -0.682 0.277 214 207 207 0
11.7763 32.1627 -54.3073 0.811 0.270 0.519 222 216 106 0
13.2103 31.6981 -53.5616 0.822 -0.404 0.401 225 220 97 0
19.7707 28.9192 -50.1595 0.718 -0.194 0.669 227 224 86 0
14.1842 33.5763 -53.0227 0.453 0.458 0.765 234 234 76 0
13.8492 35.1881 -53.1748 0.416 0.378 0.827 238 235 81 0
16.8444 35.7216 -51.5950 0.713 -0.561 0.422 246 243 117 0
17.3139 35.6987 -51.3490 0.885 -0.220 0.410 248 246 126 0
17.8905 35.6143 -51.0476 0.663 -0.671 0.331 250 247 131 0
15.8266 41.4274 -52.0451 0.995 -0.040 -0.088 217 210 60 0
14.9384 42.2187 -52.4995 0.608 0.142 0.781 216 209 59 0
15.0580 42.9047 -52.4267 0.563 0.075 0.823 211 203 57 0
20.6978 45.0341 -49.4355 0.940 0.271 0.209 42 93 44 0
12.5753 55.8176 -53.5393 0.859 -0.453 0.240 20 102 55 0
12.8912 55.8673 -53.3728 0.773 -0.581 0.255 20 102 54 0
16.2332 54.2254 -51.6430 0.627 -0.336 0.703 20 103 56 0
17.5792 54.5784 -50.9314 0.989 -0.145 -0.001 22 113 66 0
17.2868 55.0741 -51.0776 0.928 0.167 0.332 21 113 66 0
17.2995 55.3385 -51.0670 0.933 0.138 0.332 20 114 67 0
16.6008 56.1501 -51.4218 0.556 -0.259 0.790 21 116 68 0
16.5581 56.4602 -51.4396 0.533 -0.241 0.811 24 121 70 0
16.1583 57.0477 -51.6407 0.591 -0.563 0.578 26 122 72 0
16.3129 57.2073 -51.5573 0.873 -0.275 0.403 27 120 71 0
16.5482 57.3035 -51.4324 0.907 0.418 0.053 29 120 73 0
19.2643 55.4561 -50.0342 0.888 -0.458 0.025 31 119 74 0
18.3919 59.7537 -50.4286 0.791 -0.454 -0.409 40 114 79 0
19.0034 59.5310 -50.1110 0.797 -0.604 -0.007 39 113 78 0
8.0625 73.9895 -55.6398 -0.019 -0.265 0.964 110 154 133 0
19.7799 82.4292 -49.3660 0.741 0.659 0.130 184 176 166 0
39.2786 68.1740 -39.3429 0.855 -0.394 -0.337 168 163 151 0
39.0444 68.9989 -39.4536 0.786 0.303 -0.539 170 162 151 0
37.3755 71.8286 -40.2878 0.801 0.335 -0.496 170 159 153 0
41.1563 68.9140 -38.3465 0.772 -0.483 0.413 165 154 149 0
40.9325 69.4611 -38.4559 0.636 -0.662 0.398 165 155 147 0
28.1600 87.4200 -44.8944 0.617 0.588 0.523 164 153 148 0
21.5276 97.5305 -48.2262 0.508 0.534 0.676 159 149 142 0
26.8605 99.4373 -45.3993 0.548 0.399 0.736 147 136 132 0
26.1740 100.7457 -45.7403 0.643 0.502 0.578 146 135 131 0
25.2184 102.4344 -46.2169 0.338 -0.141 0.931 144 133 129 0
25.1054 103.3287 -46.2630 0.364 -0.121 0.923 145 133 126 0
34.4139 92.9958 -41.5301 0.868 -0.491 -0.081 150 134 121 0
34.1683 93.6846 -41.6488 0.844 -0.484 -0.232 148 133 121 0
34.2841 93.8561 -41.5855 0.844 -0.484 -0.232 147 132 121 0
34.3988 94.0289 -41.5228 0.787 -0.557 -0.265 144 130 119 0
-8.4209 -6.7312 -65.7330 0.626 -0.762 -0.164 226 217 212 0
-8.2277 -6.3327 -65.6257 0.632 -0.764 -0.128 229 220 214 0
-18.6038 -3.6633 -71.0557 0.348 -0.734 -0.583 230 222 219 0
-1.6880 30.8629 -61.6665 0.603 -0.086 0.793 212 207 206 0
1.3262 31.3680 -60.0715 0.934 -0.343 -0.094 210 206 205 0
8.0710 32.0581 -56.5083 0.492 -0.844 0.213 204 201 186 0
14.2505 29.6161 -53.2863 0.627 -0.774 0.086 205 202 170 0
14.4568 29.7486 -53.1758 0.609 -0.787 0.098 206 203 159 0
12.9528 31.4059 -53.9453 0.891 -0.329 0.312 219 215 115 0
12.9449 31.8824 -53.9429 0.871 -0.276 0.405 223 220 99 0
19.6058 29.0518 -50.4726 0.703 -0.341 0.624 226 224 89 0
20.1439 29.0051 -50.1897 0.701 -0.168 0.693 227 226 88 0
20.0410 29.2774 -50.2402 0.694 -0.207 0.689 229 228 86 0
20.0516 29.4933 -50.2316 0.697 -0.200 0.688 231 230 85 0
20.4468 29.7363 -50.0201 0.569 -0.201 0.797 233 232 81 0
11.1044 35.7127 -54.8597 0.904 0.295 -0.309 236 233 76 0
11.7124 35.6413 -54.5404 0.940 0.338 -0.033 237 234 78 0
13.8781 36.1994 -53.3916 0.917 -0.391 0.081 240 236 85 0
17.1178 35.1549 -51.6992 0.746 -0.597 0.296 241 239 97 0
16.9982 35.4573 -51.7580 0.756 -0.567 0.327 243 242 105 0
22.5029 36.5093 -48.8432 0.769 -0.620 -0.153 225 218 67 0
15.2155 42.8732 -52.5948 0.311 0.092 0.946 211 204 56 0
15.2432 43.1098 -52.5770 0.374 0.054 0.926 210 202 56 0
15.7016 43.3316 -52.3324 0.531 0.300 0.793 206 198 51 0
15.7851 45.3223 -52.2609 0.042 -0.947 -0.319 187 174 49 0
20.8676 43.7469 -49.6049 0.853 0.332 0.403 148 143 48 0
20.9733 43.9232 -49.5468 0.848 0.332 0.413 132 132 48 0
20.9070 45.9602 -49.5535 0.427 -0.197 0.883 33 100 51 0
16.3399 49.3833 -51.9125 -0.266 -0.278 0.923 32 102 53 0
13.1173 55.5003 -53.5259 0.829 -0.534 0.169 20 103 57 0
16.4874 53.8417 -51.7732 0.718 -0.610 0.336 22 105 58 0
16.9903 53.7397 -51.5097 0.771 -0.635 0.049 19 105 58 0
17.5578 53.5870 -51.2128 0.217 -0.973 0.080 19 107 59 0
17.7081 54.2878 -51.1240 0.996 0.003 0.094 18 110 61 0
17.7690 54.5136 -51.0887 0.984 -0.012 0.178 20 114 66 0
16.6677 57.2929 -51.6306 0.637 0.449 0.627 31 119 74 0
16.2578 57.8939 -51.8382 0.570 0.441 0.693 32 118 75 0
15.7051 59.7481 -52.1038 0.677 0.367 0.637 35 112 74 0
8.5504 73.6633 -55.6812 0.047 -0.177 0.983 151 183 168 0
8.6361 73.9117 -55.6326 0.035 -0.215 0.976 150 180 167 0
8.7879 74.1018 -55.5500 0.000 -0.264 0.965 154 183 171 0
18.0675 69.1640 -50.7291 0.732 -0.157 -0.663 164 182 182 0
29.3797 63.6025 -44.8460 0.685 0.278 -0.674 164 175 169 0
15.2769 82.6861 -52.0126 0.932 0.259 0.252 172 173 165 0
14.5468 83.7793 -52.3823 0.923 0.315 -0.223 174 174 166 0
14.3430 84.3294 -52.4820 0.922 0.319 -0.222 178 175 167 0
14.2257 84.7912 -52.5375 0.918 0.317 -0.238 181 177 168 0
14.0413 85.3250 -52.6272 0.910 0.307 -0.277 182 178 168 0
21.7688 81.0293 -48.6152 0.748 0.598 0.288 183 174 165 0
35.4969 70.4661 -41.5283 0.601 0.525 0.603 174 166 156 0
34.4443 71.9651 -42.0621 0.660 0.578 0.480 174 165 156 0
39.6748 67.2648 -39.3713 0.822 -0.422 -0.383 171 162 153 0
39.6344 67.5831 -39.3882 0.823 -0.302 -0.481 169 162 152 0
39.2161 68.3490 -39.5980 0.654 -0.736 -0.173 169 162 151 0
39.3400 68.4755 -39.5309 0.647 -0.738 -0.191 168 162 150 0
42.8006 67.8042 -37.7170 0.992 -0.124 0.005 164 155 145 0
17.5780 102.7106 -50.5238 0.892 -0.348 -0.290 159 148 142 0
33.7064 89.4725 -42.2091 0.774 0.088 -0.627 152 138 130 0
25.8300 101.7328 -46.1896 0.024 -0.005 1.000 146 135 131 0
25.2842 103.5980 -46.4514 0.026 0.115 0.993 149 136 128 0
34.2869 93.9906 -41.8409 0.828 -0.497 -0.259 146 132 121 0
34.4006 94.1653 -41.7786 0.785 -0.558 -0.269 147 131 120 0
32.5984 98.8680 -42.6631 0.680 -0.667 -0.304 254 255 255 0
-8.4627 -6.7066 -66.0078 0.626 -0.762 -0.164 226 218 213 0
-8.1363 -6.3186 -65.8301 0.613 -0.781 -0.124 230 221 215 0
-20.3321 -3.4712 -72.2440 0.304 -0.757 -0.578 228 224 219 0
-18.4253 -3.4274 -71.2349 0.286 -0.773 -0.566 229 223 217 0
-22.0187 -0.9470 -73.1035 0.956 0.290 0.045 232 223 216 0
-0.8939 30.3285 -61.5275 0.178 -0.346 0.921 211 210 206 0
-0.9858 30.6229 -61.5724 0.457 -0.265 0.849 211 208 204 0
-2.7930 34.0068 -62.4846 0.577 -0.816 -0.043 205 204 202 0
14.3618 29.6150 -53.4678 0.652 -0.756 -0.063 205 202 168 0
17.2781 31.6302 -51.8994 0.682 -0.454 0.573 234 233 83 0
12.2322 35.4272 -54.5193 0.818 0.442 0.367 240 236 85 0
17.8109 33.4308 -51.5944 0.655 -0.032 -0.755 239 235 87 0
17.1411 34.2570 -51.9380 0.723 -0.242 0.647 239 235 86 0
17.4107 34.8160 -51.7882 0.790 -0.269 0.551 240 237 93 0
17.1341 35.2034 -51.9295 0.750 -0.551 0.367 241 239 96 0
17.1251 35.6823 -51.9281 0.750 -0.585 0.309 243 240 109 0
17.3529 35.7932 -51.8062 0.810 -0.517 0.277 245 242 116 0
15.8497 41.7925 -52.5240 0.955 -0.131 0.268 217 210 59 0
16.1628 41.8513 -52.3576 0.693 0.051 0.719 215 208 58 0
15.5202 43.2576 -52.6794 0.560 0.127 0.819 208 201 52 0
17.3434 48.7590 -51.6442 -0.248 -0.213 0.945 32 101 53 0
13.0288 53.9669 -53.8592 0.404 -0.503 -0.764 21 103 55 0
14.1005 54.0254 -53.2916 0.712 -0.478 -0.515 20 104 55 0
17.2741 53.0648 -51.6255 0.750 -0.628 0.206 21 104 59 0
17.9104 53.1313 -51.2880 0.583 -0.427 0.691 19 107 59 0
17.7008 56.8448 -51.3511 0.971 -0.234 0.041 34 118 76 0
16.2016 58.3034 -52.1252 0.492 0.102 0.865 35 118 76 0
16.1832 58.8835 -52.1275 0.592 0.220 0.775 37 113 75 0
9.0130 73.0361 -55.7376 0.104 -0.117 0.988 152 182 170 0
28.5824 68.4295 -45.4464 0.384 0.095 0.919 172 174 168 0
14.6936 83.7433 -52.5952 0.826 0.406 0.391 172 173 165 0
14.8742 83.8924 -52.4977 0.981 0.152 0.123 175 173 166 0
14.8156 84.2914 -52.5236 0.981 0.152 0.123 178 174 165 0
13.8172 85.6794 -53.0338 0.913 0.406 -0.035 179 175 166 0
35.7805 70.2423 -41.6159 0.601 0.525 0.603 173 166 156 0
40.2236 66.4511 -39.3147 0.868 -0.061 0.493 172 161 155 0
19.4869 100.0476 -49.8500 0.038 -0.756 0.654 159 147 141 0
35.7806 91.3103 -41.3446 0.992 -0.102 -0.068 146 133 122 0
34.2562 94.1739 -42.1139 0.767 -0.546 -0.336 146 131 119 0
30.9034 99.3675 -43.8204 0.774 -0.490 -0.401 147 131 118 0
-8.5046 -6.6819 -66.2831 0.626 -0.762 -0.164 228 219 215 0
-8.5469 -6.2629 -66.3006 0.783 -0.622 -0.003 231 221 217 0
-16.2621 -3.3909 -70.3628 0.068 -0.996 0.062 231 223 217 0
-20.1942 -1.1287 -72.4235 0.991 -0.023 0.130 232 222 216 0
-19.1950 -1.0101 -71.8916 0.074 -0.979 0.190 231 222 215 0
-12.6780 -0.6564 -68.4270 -0.034 -0.648 0.761 233 223 223 0
-17.4248 0.6371 -70.9320 0.982 0.103 0.157 231 223 219 0
-8.2286 19.8781 -65.8192 0.474 -0.770 0.428 225 220 214 0
-2.9255 29.9321 -62.8834 0.402 -0.806 -0.435 215 213 208 0
-3.6511 30.4865 -63.2620 0.467 -0.560 -0.684 215 212 208 0
-0.6666 30.0321 -61.6827 0.178 -0.346 0.921 213 213 207 0
1.3666 31.9684 -60.5800 1.000 -0.005 -0.012 208 206 204 0
-0.8302 33.1956 -61.7318 0.843 0.490 0.224 207 206 203 0
14.1194 29.7821 -53.8349 0.453 -0.871 0.189 205 203 166 0
16.9709 33.0004 -52.2824 0.892 0.055 -0.448 237 235 85 0
17.3311 33.7428 -52.0822 0.650 -0.033 -0.759 239 236 89 0
17.8757 34.3846 -51.7854 0.800 -0.536 0.269 239 236 90 0
17.6791 34.7264 -51.8858 0.769 -0.466 0.439 239 236 91 0
17.5549 35.5021 -51.9424 0.799 -0.573 0.184 243 239 104 0
17.7260 35.6436 -51.8499 0.812 -0.552 0.187 245 240 108 0
17.8767 35.7960 -51.7681 0.866 -0.497 -0.057 243 240 109 0
19.5501 35.5586 -50.8824 0.760 -0.633 0.148 240 236 111 0
15.5421 44.0750 -52.9087 0.923 0.382 0.044 202 194 48 0
15.3636 44.7012 -52.9960 0.977 0.205 -0.052 195 186 44 0
16.4117 45.3096 -52.4323 0.030 -0.974 -0.224 181 170 53 0
17.5950 49.1804 -51.7577 -0.200 -0.186 0.962 31 100 55 0
12.5740 54.3725 -54.3616 0.402 -0.496 -0.769 22 104 56 0
14.4983 53.2641 -53.3532 0.760 -0.549 -0.347 22 104 56 0
16.4972 52.9026 -52.2962 -0.147 -0.411 0.900 19 104 57 0
13.9354 55.0593 -53.6306 0.373 -0.770 -0.518 19 105 59 0
15.9154 53.8760 -52.5934 0.450 -0.769 -0.454 19 104 59 0
17.4943 52.9792 -51.7658 0.905 -0.095 0.414 18 104 58 0
18.1108 53.0594 -51.4375 0.638 -0.396 0.661 18 110 61 0
18.0364 56.6635 -51.4339 0.980 -0.198 0.016 35 116 75 0
16.4658 58.4611 -52.2464 0.991 0.098 -0.095 37 114 76 0
16.4745 58.7368 -52.2385 0.837 0.201 0.509 39 114 77 0
25.2419 68.4356 -47.4674 0.594 0.007 -0.805 164 174 168 0
32.5063 63.9367 -43.6640 0.287 0.250 0.925 169 173 167 0
15.0305 83.1732 -52.7133 0.944 0.246 0.219 172 173 165 0
14.9207 83.6237 -52.7662 0.935 0.249 0.254 173 174 166 0
13.4197 86.5618 -53.5281 0.983 0.184 0.019 180 176 168 0
13.1256 87.2188 -53.6763 0.933 0.299 0.198 180 176 167 0
37.9612 67.2811 -40.7277 0.665 0.132 0.735 171 166 154 0
37.5255 73.1062 -40.8894 0.180 0.075 0.981 163 152 146 0
35.5396 91.1283 -41.7286 0.840 -0.516 -0.164 146 134 123 0
35.7406 91.5031 -41.6174 0.988 -0.070 -0.136 146 132 122 0
34.2581 94.3104 -42.3710 0.770 -0.542 -0.337 147 131 118 0
-8.5466 -6.6571 -66.5590 0.626 -0.762 -0.164 226 217 214 0
-8.5405 -6.2417 -66.5512 0.737 -0.676 -0.012 230 220 218 0
-18.0617 -3.4131 -71.5950 0.309 -0.885 0.347 232 224 219 0
-20.6053 -1.0543 -72.9248 0.996 -0.047 -0.075 232 221 216 0
-12.3186 -1.1201 -68.5086 -0.041 -0.658 0.752 233 223 220 0
-12.0364 -0.7104 -68.3537 0.097 -0.254 0.962 233 223 221 0
-18.0641 0.7493 -71.5504 0.978 0.205 0.033 231 222 218 0
-7.9962 19.8516 -65.9737 0.476 -0.724 0.499 225 221 217 0
-1.8302 30.8263 -62.5662 0.334 -0.638 -0.694 211 210 206 0
1.4669 31.9791 -60.7961 1.000 0.012 -0.002 208 207 205 0
14.0359 29.8739 -54.1197 0.432 -0.876 0.215 206 203 167 0
13.9763 30.3671 -54.1460 0.838 0.038 0.545 207 206 145 0
19.4700 29.0503 -51.2323 0.409 -0.804 0.431 224 221 101 0
19.8411 29.0877 -51.0341 0.775 -0.183 0.605 226 223 97 0
19.7281 29.8112 -51.0863 0.893 0.236 0.384 231 230 90 0
16.7604 33.1661 -52.6312 0.890 0.010 -0.455 238 237 88 0
17.5578 35.0856 -52.1850 0.725 -0.435 0.534 238 237 92 0
17.3808 35.4196 -52.2757 0.691 -0.423 0.586 239 238 95 0
17.9057 35.8380 -51.9913 0.883 -0.467 -0.033 241 237 101 0
15.1206 43.8964 -53.3871 0.906 0.423 0.002 208 200 51 0
15.4272 43.9592 -53.2230 0.946 0.320 0.048 204 196 49 0
15.7106 53.0108 -52.9722 0.457 -0.879 -0.135 21 104 55 0
16.6966 52.5632 -52.4516 -0.193 -0.388 0.901 20 104 54 0
17.5144 53.0421 -52.0104 0.849 -0.140 0.509 20 109 58 0
16.9487 53.7342 -52.3043 0.425 0.147 0.893 21 112 62 0
18.7623 53.1861 -51.3437 0.511 -0.856 0.074 23 121 67 0
18.7242 53.4840 -51.3607 0.477 -0.697 0.535 24 121 70 0
20.1736 53.1844 -50.5915 0.941 0.178 0.287 28 120 73 0
18.3106 56.5300 -51.5476 0.951 -0.297 0.085 37 115 75 0
16.3594 58.3470 -52.5676 0.999 -0.025 0.044 37 114 75 0
16.3533 58.6346 -52.5677 0.999 -0.013 0.045 39 113 76 0
16.2180 59.0255 -52.6356 0.981 0.120 0.153 41 114 77 0
16.1821 59.3385 -52.6513 0.981 0.120 0.153 43 114 79 0
16.0611 60.0063 -52.7084 0.468 0.243 0.850 44 115 81 0
8.8648 74.9952 -56.3790 0.016 -0.673 0.739 166 186 185 0
9.4123 74.8305 -56.0891 0.059 -0.534 0.843 166 186 184 0
14.9753 83.6835 -53.0263 0.935 0.249 0.254 173 173 166 0
15.1135 83.8765 -52.9506 0.990 0.060 0.131 174 174 166 0
36.0687 68.7162 -41.9479 0.752 -0.361 0.551 175 165 157 0
19.6124 100.5406 -50.3690 0.213 -0.562 0.799 156 145 139 0
36.2593 90.2348 -41.6094 0.537 -0.818 -0.205 145 133 121 0
36.7076 89.9208 -41.3739 0.767 -0.579 -0.279 146 132 121 0
-11.9334 -7.2178 -68.6311 0.218 -0.969 -0.119 255 255 255 0
-8.5887 -6.6323 -66.8355 0.626 -0.762 -0.164 227 218 215 0
-8.6992 -6.2067 -66.8903 0.746 -0.664 -0.044 229 219 217 0
-20.3508 -1.0562 -73.0730 0.999 -0.038 -0.008 233 224 217 0
-15.2871 0.1835 -70.3510 0.985 0.022 -0.169 234 223 222 0
-15.5504 0.4475 -70.4892 0.992 -0.027 0.120 233 222 220 0
-12.0498 0.6602 -68.6140 0.169 -0.977 -0.131 230 220 215 0
-7.0255 19.6009 -65.7346 0.674 -0.601 0.431 223 221 216 0
-6.3889 20.1476 -65.3885 -0.079 -0.887 0.456 220 218 214 0
14.0467 30.3859 -54.3506 0.546 -0.063 0.836 207 206 146 0
19.6050 29.0343 -51.3901 0.409 -0.804 0.431 224 221 102 0
19.9987 29.2818 -51.1770 0.775 -0.183 0.605 226 224 96 0
14.7091 33.3471 -53.9664 0.418 0.252 0.873 235 233 88 0
14.1912 34.0921 -54.2360 0.368 -0.030 0.929 235 233 85 0
14.3246 34.2620 -54.1629 0.417 -0.169 0.893 237 236 87 0
18.4916 34.1620 -51.9342 0.930 -0.352 -0.101 239 235 87 0
19.8271 35.5171 -51.2060 0.800 -0.552 0.235 239 237 102 0
28.3022 34.7927 -46.6784 0.991 -0.092 0.096 215 207 61 0
21.1479 46.5757 -50.3878 0.830 -0.014 0.557 31 106 53 0
17.9649 52.5161 -52.0311 0.613 0.232 0.755 21 110 58 0
17.3952 53.4797 -52.3262 0.483 0.243 0.841 22 115 63 0
18.9644 53.3804 -51.4875 0.628 -0.778 0.028 27 124 73 0
19.1695 55.6622 -51.3548 0.790 -0.452 0.415 37 115 75 0
17.2669 57.4341 -52.3550 0.353 -0.926 0.136 38 115 76 0
19.3956 56.0310 -51.2301 0.748 -0.589 0.306 39 114 76 0
12.6711 62.2312 -54.7657 0.552 -0.787 0.275 43 114 79 0
12.9183 62.3287 -54.6325 0.570 -0.770 0.288 43 114 80 0
13.2249 62.3773 -54.4679 0.643 -0.645 0.413 42 114 80 0
13.1489 62.7343 -54.5050 0.467 -0.711 0.526 42 116 81 0
17.9761 59.3944 -51.9557 0.931 -0.334 -0.150 46 119 82 0
16.3208 82.7289 -52.6063 0.871 0.099 0.482 173 172 164 0
12.8518 86.7095 -54.4223 0.919 -0.368 -0.141 172 173 164 0
13.7710 86.7766 -53.9298 0.964 0.263 0.028 178 174 165 0
14.8382 85.9855 -53.3667 0.803 0.099 0.587 179 175 164 0
17.2939 86.4026 -52.0485 0.799 0.595 -0.090 180 172 161 0
25.0918 79.7253 -47.9434 0.809 0.585 0.056 177 166 160 0
32.7450 77.9496 -43.8662 0.798 0.309 -0.518 164 153 146 0
40.6947 69.1726 -39.7009 0.303 -0.793 -0.528 162 151 145 0
19.2464 102.6466 -50.8401 0.336 0.435 0.835 154 146 136 0
27.6839 99.7352 -46.3547 0.051 -0.467 0.883 143 133 121 0
36.7333 90.0178 -41.6105 0.760 -0.585 -0.284 148 131 121 0
-8.9978 -6.5781 -67.3094 0.923 -0.362 -0.131 226 217 215 0
-20.2431 -1.0413 -73.2991 1.000 0.007 0.022 232 223 216 0
-15.3761 -0.0067 -70.6753 0.976 0.099 0.194 233 220 219 0
-15.3678 0.2217 -70.6688 0.999 -0.001 -0.032 234 221 220 0
-16.0468 0.5408 -71.0306 0.986 -0.162 0.031 233 222 219 0
-17.7180 0.9952 -71.9242 0.755 -0.655 -0.034 231 220 217 0
9.0123 31.6440 -57.2860 0.528 -0.444 -0.724 207 203 193 0
9.3233 31.7404 -57.1180 0.528 -0.444 -0.724 206 202 188 0
15.0886 32.9706 -54.0100 0.538 0.038 0.842 234 233 88 0
14.6899 33.4128 -54.2201 0.456 0.214 0.864 235 235 87 0
14.6191 33.6873 -54.2557 0.461 -0.060 0.885 235 235 86 0
14.4014 34.0391 -54.3694 0.382 -0.002 0.924 234 234 84 0
14.4585 34.2486 -54.3368 0.368 -0.030 0.929 237 237 87 0
14.0226 34.7176 -54.5667 0.568 0.229 0.791 237 237 87 0
13.8087 35.0719 -54.6783 0.502 0.194 0.843 239 236 89 0
18.3229 34.3107 -52.2605 0.931 -0.339 -0.135 239 235 84 0
17.5962 35.4161 -52.6408 0.943 -0.288 -0.166 237 237 90 0
17.6713 38.4878 -52.5723 0.879 -0.412 -0.239 231 226 80 0
17.5954 38.7752 -52.6104 0.799 -0.480 -0.362 230 225 79 0
28.3081 34.8461 -46.8922 0.894 -0.282 0.347 215 207 62 0
15.6383 44.2165 -53.6120 0.887 0.282 0.367 202 194 51 0
15.7336 44.4122 -53.5590 0.694 0.486 0.532 200 191 50 0
20.9470 46.0292 -50.7439 0.662 -0.246 0.708 42 109 55 0
17.7524 53.0208 -52.3959 0.696 0.199 0.690 25 119 65 0
17.6677 53.3546 -52.4383 0.697 0.209 0.686 28 122 69 0
17.6404 53.6462 -52.4503 0.864 0.147 0.481 26 121 70 0
17.4054 54.0951 -52.5724 0.228 -0.779 0.584 28 122 73 0
17.6057 54.2167 -52.4637 0.246 -0.771 0.587 29 123 74 0
18.3209 54.4906 -52.0771 0.378 -0.872 0.310 32 119 75 0
18.6804 54.4872 -51.8840 0.988 -0.120 0.101 33 116 74 0
18.5999 54.8212 -51.9242 0.988 -0.119 0.101 34 114 73 0
19.0915 54.7138 -51.6611 0.938 0.136 -0.318 36 113 73 0
19.5515 55.4433 -51.4074 0.713 -0.438 0.547 38 114 75 0
11.0350 63.6296 -55.9070 0.470 -0.592 0.654 43 115 80 0
18.0669 58.5611 -52.1763 0.964 -0.266 -0.015 43 116 81 0
18.2292 59.8388 -52.0774 0.924 -0.331 -0.191 51 119 85 0
18.2585 65.0042 -52.0144 0.974 0.198 0.108 168 189 184 0
18.2232 65.3293 -52.0304 0.981 0.174 0.084 168 188 186 0
12.8345 86.8485 -54.7281 0.915 -0.374 -0.150 171 171 163 0
16.3565 83.4767 -52.8672 0.673 0.287 0.682 170 170 162 0
16.0733 84.4501 -53.0104 0.691 -0.059 0.721 177 173 164 0
15.6026 85.2903 -53.2555 0.654 -0.053 0.754 178 173 164 0
14.7262 86.5691 -53.7146 0.752 -0.121 0.648 179 172 163 0
20.0682 81.8297 -50.8886 0.985 -0.040 -0.169 179 173 163 0
18.2507 86.1486 -51.8253 0.755 0.651 0.076 179 171 160 0
20.8741 98.4768 -50.3034 0.333 -0.379 0.863 156 147 138 0
36.7453 90.1345 -41.8547 0.775 -0.563 -0.288 148 131 121 0
29.8776 100.3641 -45.4501 0.722 -0.539 0.435 148 131 121 0
31.0699 98.9996 -44.8221 0.996 0.088 -0.005 146 129 119 0
-9.0269 -6.5541 -67.5808 0.923 -0.362 -0.131 225 215 214 0
-15.3001 0.2407 -70.9076 1.000 -0.015 -0.019 231 220 215 0
-17.2951 0.7335 -71.9792 0.969 -0.134 0.209 231 220 216 0
-17.5966 1.0077 -72.1395 0.981 -0.007 0.196 232 221 216 0
-17.6669 1.2520 -72.1754 0.982 -0.015 0.187 233 222 217 0
-7.3377 34.3862 -66.3340 0.926 -0.345 -0.152 210 209 205 0
9.0189 31.6951 -57.5365 0.716 -0.698 0.011 208 203 193 0
9.2552 31.8270 -57.4081 0.755 -0.637 -0.159 205 203 189 0
10.1074 31.6654 -56.9499 0.784 -0.573 0.239 206 202 181 0
14.8807 33.6076 -54.3602 0.359 -0.007 0.933 236 236 86 0
14.6703 33.9554 -54.4707 0.356 0.032 0.934 234 234 85 0
14.7713 34.1414 -54.4148 0.365 0.007 0.931 237 237 88 0
14.0877 34.7406 -54.7784 0.560 0.263 0.786 238 238 91 0
14.5469 34.7389 -54.5309 0.486 0.186 0.854 239 237 91 0
17.7053 34.7051 -52.8281 0.909 0.052 -0.415 239 237 85 0
17.3807 38.4767 -52.9722 0.864 -0.421 -0.277 234 229 84 0
17.6383 38.5685 -52.8325 0.879 -0.412 -0.239 233 228 82 0
17.6242 38.8198 -52.8381 0.798 -0.477 -0.367 231 226 80 0
17.7562 38.9849 -52.7655 0.798 -0.477 -0.367 230 224 78 0
23.1565 36.9330 -49.8705 0.322 -0.836 -0.445 220 213 70 0
22.8691 38.7429 -50.0106 0.605 -0.706 -0.368 210 202 57 0
22.8070 39.0173 -50.0419 0.599 -0.700 -0.389 208 200 55 0
16.9726 44.1968 -53.1453 0.939 -0.248 0.240 194 183 51 0
16.6236 44.9332 -53.3274 0.939 -0.332 0.091 189 178 50 0
17.9431 52.9567 -52.5501 0.691 0.213 0.691 28 122 70 0
17.8436 53.3014 -52.6009 0.697 0.209 0.686 28 122 72 0
17.7367 54.1970 -52.6512 0.214 -0.780 0.588 32 120 74 0
17.6081 54.5677 -52.7175 0.261 -0.918 0.297 32 118 74 0
18.2002 54.3901 -52.3997 0.256 -0.846 0.467 33 117 74 0
18.4202 54.4943 -52.2802 0.396 -0.844 0.362 34 116 75 0
18.5144 54.6945 -52.2278 0.906 -0.136 0.400 35 115 75 0
18.9210 54.6537 -52.0089 0.913 -0.317 -0.258 36 112 73 0
18.9388 54.9121 -51.9972 0.924 -0.298 -0.238 38 114 75 0
18.7384 55.3406 -52.1017 0.981 -0.194 0.001 38 114 76 0
10.7336 63.9615 -56.3472 0.387 -0.829 0.404 45 116 81 0
19.3486 66.7786 -51.6788 0.513 -0.436 -0.739 168 184 184 0
32.5191 60.2618 -44.6307 0.549 -0.152 0.822 167 175 172 0
17.1319 81.7782 -52.7510 0.851 0.161 0.500 174 169 166 0
16.7968 82.4613 -52.9260 0.895 0.139 0.424 173 171 164 0
16.6620 82.9366 -52.9948 0.893 0.125 0.432 170 169 161 0
16.7300 83.8695 -52.9505 0.820 0.017 0.573 176 170 163 0
15.8213 85.1763 -53.4297 0.698 -0.021 0.716 177 170 163 0
15.5509 85.8064 -53.5704 0.708 -0.075 0.702 178 171 163 0
14.9568 86.7872 -53.8827 0.856 -0.026 0.516 176 171 161 0
19.7945 82.2416 -51.3114 0.997 0.021 -0.076 178 172 162 0
21.1459 81.4277 -50.5895 0.189 -0.593 0.783 178 171 161 0
40.2682 72.1343 -40.3549 0.862 0.231 -0.452 158 149 138 0
32.4288 87.7185 -44.4541 0.592 -0.287 0.753 150 140 134 0
32.3472 88.1541 -44.4945 0.654 -0.355 0.668 150 140 135 0
28.7140 100.7379 -46.3502 0.786 -0.159 0.598 145 131 118 0
30.6133 98.7379 -45.3425 0.855 -0.436 0.281 145 131 119 0
30.0858 100.2110 -45.6149 0.732 -0.522 0.438 148 131 120 0
32.9965 99.5124 -44.0512 0.891 -0.335 -0.307 255 255 254 0
-9.0561 -6.5301 -67.8527 0.923 -0.362 -0.131 224 215 213 0
-11.6330 -1.0989 -69.2080 0.101 -0.564 0.819 233 223 217 0
-15.4524 0.2883 -71.2653 0.987 0.117 0.110 231 221 212 0
-7.7693 34.6293 -66.8570 0.989 0.060 0.136 210 208 206 0
4.3965 32.9117 -60.2846 0.433 -0.038 0.901 206 204 198 0
15.3186 33.1993 -54.3706 0.417 0.115 0.902 234 234 88 0
15.1666 33.5151 -54.4507 0.396 0.095 0.913 236 236 89 0
15.5651 34.0189 -54.2313 0.205 -0.505 0.839 238 237 94 0
15.7920 34.1365 -54.1076 0.237 -0.492 0.838 239 237 93 0
15.7361 35.3598 -54.1290 0.590 -0.436 0.680 237 237 83 0
16.6454 37.2641 -53.6230 0.957 0.053 -0.285 236 234 89 0
19.1404 36.3192 -52.2794 0.504 -0.685 0.527 235 234 91 0
17.0569 38.4839 -53.3913 0.553 -0.686 -0.473 235 230 86 0
17.4927 38.4724 -53.1555 0.629 -0.664 -0.403 233 228 83 0
17.7843 38.5439 -52.9972 0.866 -0.457 -0.205 232 227 81 0
19.3957 37.8341 -52.1302 0.846 -0.524 -0.097 231 226 80 0
17.8809 38.9727 -52.9418 0.838 -0.508 -0.199 229 224 78 0
17.6936 39.3280 -53.0406 0.876 -0.325 -0.355 228 222 76 0
24.7042 38.3500 -49.2531 0.566 -0.660 -0.494 205 194 51 0
17.9314 53.3140 -52.8102 0.696 0.302 0.651 30 122 75 0
17.5762 54.1248 -52.9966 0.299 -0.362 0.883 33 119 74 0
17.7841 54.2405 -52.8832 0.236 -0.758 0.607 35 118 74 0
17.7044 54.5743 -52.9239 0.257 -0.918 0.301 36 117 76 0
18.2889 54.4020 -52.6088 0.223 -0.863 0.454 36 117 76 0
18.8763 54.7683 -52.2882 0.954 -0.153 -0.256 38 115 76 0
12.7926 61.2199 -55.5342 0.271 0.293 0.917 41 116 79 0
14.5084 67.5736 -54.5593 0.471 -0.831 -0.295 171 193 187 0
15.0351 69.8660 -54.2576 0.666 0.013 -0.746 168 185 186 0
32.3425 60.5234 -44.9576 0.773 -0.197 0.603 168 174 170 0
16.9215 83.4479 -53.1378 0.822 0.119 0.557 174 168 162 0
16.8919 83.8149 -53.1512 0.837 0.083 0.540 176 169 163 0
16.0764 85.0230 -53.5838 0.740 -0.124 0.661 176 169 163 0
15.7009 85.7657 -53.7816 0.754 -0.016 0.657 177 170 164 0
15.1519 86.6988 -54.0720 0.807 -0.009 0.590 175 171 162 0
19.8572 82.2900 -51.5572 0.996 -0.011 -0.091 177 171 162 0
20.1699 82.6080 -51.3856 0.902 0.016 -0.432 178 171 162 0
30.7173 85.1940 -45.6579 0.753 0.588 0.296 158 147 138 0
36.9770 85.8720 -42.2647 0.803 0.567 0.184 145 135 125 0
31.1787 98.0711 -45.3145 0.969 0.244 -0.020 145 131 118 0
30.2303 100.1496 -45.8128 0.788 -0.486 0.379 147 131 118 0
-9.0854 -6.5061 -68.1252 0.923 -0.362 -0.131 223 215 214 0
-8.7787 -1.6408 -67.9277 0.599 -0.542 0.589 233 224 216 0
-15.3674 -0.1544 -71.4982 0.987 0.122 0.105 231 222 213 0
-17.7742 0.8539 -72.7995 0.993 0.070 -0.097 230 219 213 0
-4.1606 19.6307 -65.2839 -0.022 -0.874 0.485 220 220 212 0
-5.1751 33.3056 -65.7485 0.738 -0.458 -0.496 211 209 210 0
9.2863 31.9213 -57.8999 0.777 -0.497 0.387 203 204 190 0
14.4106 31.5917 -55.1178 -0.177 -0.169 0.970 219 220 108 0
15.2046 33.7891 -54.6724 0.356 -0.597 0.719 235 236 91 0
15.0534 35.0651 -54.7465 0.992 -0.114 0.052 239 237 93 0
15.3932 35.1230 -54.5615 0.720 -0.583 0.375 239 237 90 0
14.5035 36.3306 -55.0373 0.202 -0.703 0.682 237 236 84 0
19.0494 36.1937 -52.5682 0.460 -0.867 0.192 235 234 88 0
17.7370 38.3904 -53.2674 0.655 -0.631 -0.416 232 226 83 0
17.7980 38.5973 -53.2329 0.665 -0.616 -0.422 231 226 82 0
20.9849 40.2874 -51.4907 0.591 -0.762 -0.265 209 199 54 0
20.4391 43.8256 -51.7648 0.131 -0.983 -0.127 170 162 63 0
18.3098 53.3790 -52.8613 0.451 -0.259 0.854 32 117 74 0
18.0780 53.8250 -52.9844 0.403 -0.294 0.866 34 118 76 0
15.4497 58.6341 -54.3820 0.334 0.342 0.878 44 118 82 0
13.7461 60.2622 -55.2973 0.246 0.318 0.916 45 119 84 0
19.9188 56.7658 -51.9656 0.958 0.269 0.094 49 120 86 0
32.9654 60.5314 -44.8531 0.763 -0.142 0.630 166 173 167 0
17.8827 81.5504 -52.9150 0.909 0.407 0.086 173 170 163 0
16.7368 83.0910 -53.5279 0.918 0.132 0.373 171 167 159 0
16.9998 83.1472 -53.3846 0.779 0.126 0.614 173 167 160 0
17.1581 83.3137 -53.2975 0.798 0.151 0.583 176 168 162 0
16.9070 83.9166 -53.4301 0.845 0.110 0.523 174 166 160 0
14.8148 86.8379 -54.5484 0.753 -0.085 0.653 175 171 163 0
14.9260 87.0637 -54.4866 0.723 -0.087 0.685 175 172 164 0
19.4652 82.8318 -52.0471 0.772 -0.602 0.203 176 171 160 0
19.8643 82.7285 -51.8309 0.713 -0.672 0.198 177 170 161 0
19.6549 83.2875 -51.9411 0.760 -0.605 0.236 176 169 162 0
15.7729 89.2652 -54.0125 0.755 0.652 0.073 179 168 166 0
28.2882 81.8902 -47.2592 0.670 0.678 0.301 167 154 147 0
40.0311 71.5187 -40.9445 0.543 0.349 0.763 159 149 139 0
22.8105 100.4045 -50.1182 0.859 0.174 -0.481 149 138 135 0
30.1214 92.0612 -46.1987 0.689 0.586 0.426 148 137 131 0
37.2244 85.6570 -42.3799 0.804 0.577 0.145 145 135 125 0
28.8800 99.3551 -46.8271 0.172 -0.518 0.838 146 133 122 0
29.0157 99.5219 -46.7523 0.006 -0.781 0.624 143 131 119 0
28.4136 101.4627 -47.0671 0.465 -0.816 0.344 145 133 117 0
33.2521 99.4269 -44.4511 0.886 -0.363 -0.289 255 255 254 0
-9.3923 -6.8792 -68.5516 0.678 -0.720 -0.149 135 135 135 0
-9.1147 -6.4820 -68.3981 0.923 -0.362 -0.131 224 215 216 0
-16.3189 0.4574 -72.2899 0.934 0.357 -0.005 230 219 213 0
5.6784 32.1806 -60.1214 0.557 -0.132 0.820 208 205 202 0
14.4560 29.9867 -55.3459 0.957 0.088 -0.277 205 204 170 0
15.3424 33.7733 -54.8420 0.365 -0.598 0.714 235 236 93 0
15.8108 35.1954 -54.5789 0.851 -0.456 0.261 237 236 87 0
14.7420 36.2594 -55.1561 0.189 -0.662 0.725 237 236 85 0
14.8847 36.4246 -55.0774 0.190 -0.655 0.732 238 234 84 0
19.2479 38.5235 -52.6864 0.751 -0.659 -0.041 227 221 74 0
19.1280 38.8364 -52.7501 0.541 -0.841 0.028 226 220 73 0
18.4442 53.0861 -53.0462 0.451 -0.273 0.850 35 119 76 0
18.5255 53.2951 -53.0008 0.451 -0.259 0.854 35 117 75 0
13.2866 68.2144 -55.7777 0.502 -0.823 -0.265 171 194 187 0
13.4570 68.3744 -55.6839 0.524 -0.850 -0.049 172 194 188 0
18.2176 72.0607 -53.0675 0.814 -0.178 -0.552 165 175 174 0
17.1584 83.7662 -53.5821 0.844 0.048 0.534 173 164 161 0
14.8291 86.9443 -54.8354 0.737 -0.510 0.444 174 169 163 0
15.6094 86.4484 -54.4125 0.787 -0.041 0.616 175 171 164 0
20.5024 82.4786 -51.7652 0.747 -0.653 0.125 176 168 159 0
35.1549 66.7317 -43.8585 0.644 0.177 0.744 177 167 159 0
28.4259 81.8446 -47.4471 0.663 0.679 0.315 168 156 146 0
41.1776 69.3737 -40.5594 0.539 0.361 0.761 161 150 138 0
36.0347 78.0850 -43.3175 0.714 0.592 0.373 156 145 136 0
26.9582 89.8787 -48.2043 0.683 0.642 0.347 157 145 136 0
21.9082 101.7470 -50.8946 0.869 0.224 -0.442 149 138 136 0
22.1358 101.8157 -50.7701 0.779 0.090 -0.620 149 138 136 0
29.1298 99.1475 -46.9699 0.144 -0.521 0.841 145 132 124 0
29.2352 99.3565 -46.9113 0.026 -0.796 0.605 143 132 122 0
29.5023 99.3354 -46.7658 0.026 -0.806 0.591 143 132 120 0
30.8042 98.5445 -46.0600 0.409 -0.912 -0.025 144 131 115 0
-9.4275 -6.8550 -68.8285 0.678 -0.720 -0.149 135 135 135 0
-9.1249 -6.4594 -68.6611 0.927 -0.354 -0.127 226 217 218 0
-8.4451 -6.0965 -68.2873 0.384 -0.921 -0.068 231 221 217 0
-18.2551 -2.7569 -73.6432 0.014 -0.998 -0.060 233 224 217 0
-8.6207 -2.0412 -68.3654 0.780 -0.624 0.053 231 222 215 0
-8.8896 -1.7929 -68.5115 0.416 -0.821 0.391 230 221 214 0
