ply
format ascii 1.0
element vertex 822
property float x
property float y
property float z
property float nx
property float ny
property float nz
property uchar diffuse_red
property uchar diffuse_green
property uchar diffuse_blue
property uchar class
end_header
-5.9129 -11.2324 -20.6069 0.963 -0.235 -0.134 253 253 253 0
-4.4817 -11.1456 -20.3783 0.976 0.057 0.210 124 124 124 0
-3.7438 -10.8502 -20.2147 0.942 -0.164 -0.294 105 98 85 0
0.9757 39.8172 -10.2793 -0.352 -0.926 -0.137 114 101 87 0
32.8819 73.6161 0.6247 0.768 -0.312 0.560 44 43 41 0
-5.9322 -11.2152 -20.7967 0.963 -0.233 -0.133 254 254 254 0
-4.2669 -11.1425 -20.5332 0.999 0.014 -0.033 130 130 130 0
55.3725 -1.1194 -9.7504 0.616 0.781 -0.104 241 226 186 0
-4.2247 -11.4697 -20.7736 0.985 -0.166 0.045 255 255 255 0
-4.2932 -11.1250 -20.7217 0.999 0.019 -0.045 130 130 130 0
-4.0476 -11.2941 -20.9023 0.958 -0.067 -0.280 254 254 254 0
-4.0713 -11.1224 -20.8750 0.995 0.075 0.062 130 130 130 0
73.2308 -15.4108 -9.7807 0.600 0.800 -0.014 221 199 160 0
66.1449 -9.8363 -9.8652 0.575 0.818 0.022 231 211 168 0
-3.6447 -10.4508 -20.8762 0.890 -0.299 -0.345 216 199 161 0
-17.9618 5.7286 -20.1977 -0.041 -0.568 0.822 228 209 166 0
-17.7111 11.5702 -19.1121 0.021 -0.429 0.903 233 214 173 0
-4.5044 -11.5770 -21.3997 0.974 0.112 -0.197 255 255 255 0
-4.1508 -11.2563 -21.2870 0.962 -0.069 -0.264 254 254 254 0
-9.9572 37.8793 -13.4298 0.599 -0.381 -0.705 244 228 185 0
-9.3539 37.8499 -13.3405 0.572 -0.398 -0.717 244 227 184 0
-10.9004 38.8310 -13.4079 0.812 0.007 -0.583 244 226 184 0
11.8570 53.7574 -7.1783 0.963 0.175 -0.204 226 205 150 0
7.4358 58.3226 -7.0565 0.255 -0.677 -0.690 224 204 145 0
32.9075 74.0656 -0.2559 0.980 -0.153 -0.126 47 46 45 0
33.1387 74.3250 -0.1734 0.965 -0.215 -0.152 254 255 255 0
32.9218 74.8561 -0.1126 0.987 0.109 0.117 254 255 255 0
-4.5315 -11.5598 -21.5894 0.975 0.112 -0.194 255 255 255 0
-4.2105 -11.2368 -21.4812 0.957 -0.058 -0.285 254 254 254 0
2.2737 -10.4891 -20.3218 0.569 -0.451 -0.688 223 202 166 0
3.0051 -9.7299 -20.0711 0.175 -0.451 0.875 221 198 160 0
-20.0490 7.0503 -20.7398 -0.139 -0.143 0.980 231 211 173 0
-19.7914 7.2196 -20.6689 -0.139 -0.143 0.980 231 212 172 0
5.5664 52.3870 -8.6298 0.919 0.376 0.120 234 213 167 0
11.6251 53.9974 -7.3845 0.990 0.079 -0.119 226 205 150 0
11.7337 54.1708 -7.3365 0.955 0.251 0.155 225 204 149 0
2.1788 82.3125 -3.8495 -0.099 -0.127 0.987 211 182 125 0
33.1202 74.4443 -0.3488 0.950 -0.243 -0.196 254 254 255 0
33.1740 74.6486 -0.3040 0.969 -0.195 -0.152 254 255 255 0
-4.5718 -11.5417 -21.7814 0.975 0.112 -0.194 255 255 255 0
3.5122 -9.5910 -20.1435 0.195 -0.402 0.894 221 197 159 0
8.6387 -9.5328 -19.3133 0.183 -0.704 -0.686 220 198 161 0
15.1209 -4.2583 -17.3436 -0.113 -0.484 0.868 228 206 169 0
15.0984 -3.6397 -17.2378 -0.162 -0.393 0.905 230 204 167 0
-17.0089 5.2129 -20.8065 0.178 0.135 0.975 230 208 167 0
-13.7149 11.3899 -19.1871 0.823 -0.245 0.513 246 227 187 0
-13.9233 11.6570 -19.1731 0.877 -0.126 0.464 247 228 188 0
-14.5002 12.0142 -19.2022 0.466 -0.479 0.744 247 228 188 0
6.9085 51.5477 -8.7851 0.750 -0.291 -0.593 232 211 166 0
19.6940 47.9093 -7.3840 0.563 -0.631 -0.534 226 205 150 0
11.8011 54.1914 -7.5350 0.966 0.225 0.129 225 204 149 0
21.3735 48.9795 -6.9261 0.006 -0.920 0.391 221 200 143 0
39.3281 65.0805 -1.2065 0.774 0.585 -0.242 175 150 110 0
-4.6122 -11.5237 -21.9737 0.975 0.112 -0.194 255 255 255 0
5.8474 -9.6011 -19.9455 0.169 -0.788 -0.592 221 198 162 0
6.6531 -9.5084 -19.7991 0.187 -0.763 -0.619 221 199 162 0
-15.2569 11.3514 -19.6643 0.798 -0.233 0.555 241 224 181 0
-14.8616 11.4772 -19.5782 0.729 -0.144 0.669 244 227 184 0
-13.6128 11.3986 -19.3904 0.846 -0.199 0.495 247 228 188 0
-13.7344 11.6449 -19.3666 0.894 -0.130 0.429 247 228 188 0
-14.1377 11.9601 -19.3762 0.473 -0.502 0.724 247 228 188 0
-0.3859 37.8317 -12.5981 0.766 -0.198 -0.612 237 222 176 0
6.8260 51.9265 -8.9506 0.589 -0.372 -0.717 233 212 165 0
23.0105 45.3203 -7.4998 0.784 -0.114 0.611 225 205 150 0
21.0532 47.6663 -7.4028 0.218 -0.969 0.119 224 203 148 0
22.6275 46.9539 -7.2740 0.085 -0.996 0.038 223 202 145 0
21.5502 47.9869 -7.2660 0.535 -0.751 0.388 221 200 144 0
21.5290 48.6953 -7.1447 0.255 -0.931 -0.261 221 200 144 0
-4.6527 -11.5056 -22.1665 0.975 0.112 -0.194 255 255 255 0
-14.9156 11.5232 -19.8025 0.845 -0.330 0.420 248 230 188 0
-13.3580 11.8049 -19.4989 0.823 -0.244 0.513 247 228 188 0
6.9309 51.9230 -9.1537 0.691 -0.465 -0.553 234 213 166 0
7.0770 52.0793 -9.1024 0.691 -0.465 -0.553 234 213 166 0
23.6436 44.6975 -7.6941 0.973 -0.228 0.031 225 206 150 0
22.9662 45.4144 -7.6789 0.997 -0.053 -0.063 225 206 150 0
22.7977 46.8902 -7.4476 0.083 -0.995 0.057 223 202 147 0
21.4453 48.3608 -7.4104 0.608 -0.725 0.323 220 199 144 0
23.8455 69.4128 -3.3271 -0.052 -0.082 0.995 197 172 121 0
-4.6933 -11.4874 -22.3596 0.975 0.112 -0.194 255 255 255 0
4.9021 -9.6528 -20.4583 0.617 -0.666 -0.419 222 200 163 0
11.5628 -8.8228 -19.2160 0.410 -0.893 -0.186 223 201 162 0
3.6893 -6.7646 -20.1539 0.121 -0.820 -0.559 224 202 165 0
-2.8592 40.6839 -12.9486 0.270 -0.539 0.798 241 217 179 0
-2.1868 45.6275 -11.9747 0.173 -0.982 0.070 236 217 176 0
6.8578 52.0407 -9.3648 0.681 -0.465 -0.567 233 212 165 0
23.5684 44.8135 -7.8734 0.952 -0.305 -0.032 224 205 149 0
22.9585 45.4818 -7.8572 0.997 -0.053 -0.063 224 205 149 0
22.9936 48.4025 -7.3415 0.488 -0.816 -0.308 218 197 142 0
19.3913 78.3475 -2.7068 0.867 -0.072 -0.493 195 167 119 0
25.9228 75.5056 -2.1268 -0.088 -0.215 0.973 188 164 116 0
25.6109 76.9785 -1.9210 -0.036 -0.303 0.952 184 160 114 0
33.1047 74.8527 -1.0575 0.942 -0.253 -0.222 253 254 255 0
33.4754 74.9434 -0.9806 0.875 0.427 0.228 255 255 255 0
-4.7339 -11.4693 -22.5530 0.975 0.112 -0.194 255 255 255 0
23.7054 -4.3112 -16.5772 -0.141 -0.959 0.247 233 210 169 0
-17.7447 10.4768 -20.9029 0.789 -0.150 -0.596 237 219 179 0
-15.7312 10.4642 -20.5701 0.872 -0.390 -0.295 237 222 180 0
-18.7392 42.6054 -15.4837 0.505 0.268 0.820 242 225 182 0
-4.8501 41.0201 -13.4484 0.379 -0.866 0.325 239 220 180 0
-2.5795 45.6551 -12.2650 0.125 -0.989 0.072 235 216 176 0
-2.1238 45.6534 -12.1894 0.123 -0.990 0.072 235 217 174 0
-1.5156 45.5629 -12.1040 0.150 -0.987 -0.052 235 218 175 0
23.5843 44.8631 -8.0496 0.953 -0.301 -0.014 224 205 149 0
20.5002 49.2021 -7.8085 0.348 -0.849 -0.398 221 200 147 0
21.7517 55.3787 -6.5267 0.333 -0.855 -0.398 213 191 134 0
6.5345 81.2068 -4.5689 0.784 -0.273 -0.558 203 176 125 0
6.5555 81.8109 -4.4603 0.744 -0.087 -0.662 204 179 125 0
25.6012 72.6369 -2.8863 0.648 -0.565 -0.511 190 165 115 0
8.4189 93.4658 -2.1244 0.373 -0.680 -0.631 188 164 116 0
25.0212 77.7433 -2.0952 -0.306 -0.904 0.298 185 161 115 0
32.6155 74.1876 -1.4497 0.878 -0.374 -0.300 165 140 101 0
-4.7746 -11.4511 -22.7469 0.975 0.112 -0.194 255 255 255 0
11.5690 -8.7913 -19.5410 0.316 -0.920 -0.231 224 202 162 0
-0.1291 3.5467 -19.3710 -0.157 -0.579 0.800 237 215 175 0
0.8009 3.5496 -19.2143 -0.155 -0.553 0.819 238 216 176 0
-15.6254 10.9111 -20.6998 0.701 -0.100 0.706 238 223 180 0
4.9340 29.9323 -13.9543 0.840 -0.237 -0.489 243 226 183 0
-21.0893 42.9394 -16.0751 0.087 0.022 0.996 241 225 182 0
-21.3945 43.3600 -16.0535 0.121 0.074 0.990 244 227 184 0
0.7059 36.5402 -13.5211 0.950 0.061 0.306 239 221 179 0
-2.9360 45.4031 -12.5991 0.545 -0.813 0.204 238 217 178 0
-3.3128 45.8737 -12.5810 0.400 -0.905 0.146 238 217 178 0
-2.4498 45.6433 -12.4759 0.129 -0.988 0.082 238 217 179 0
-1.8593 45.5645 -12.3903 0.236 -0.959 -0.158 237 217 178 0
-1.4460 45.5848 -12.3174 0.150 -0.987 -0.052 235 217 176 0
7.4856 53.2878 -9.4839 0.720 -0.687 -0.099 224 208 159 0
7.3605 53.6335 -9.4451 0.776 -0.573 -0.265 224 208 158 0
20.5601 48.0574 -8.1926 0.870 -0.376 -0.318 222 201 151 0
18.5631 49.7738 -8.2311 0.999 -0.007 -0.035 221 201 151 0
4.6299 86.9973 -4.1300 0.885 -0.387 -0.257 198 174 120 0
27.5420 64.8790 -4.1087 0.919 -0.388 -0.065 198 172 120 0
27.7014 64.9740 -4.0654 0.881 -0.460 0.114 201 174 121 0
20.9752 72.6091 -3.8741 0.709 0.248 0.660 199 169 119 0
23.7734 74.9809 -2.9936 0.767 -0.143 -0.626 189 162 115 0
22.3969 76.7546 -2.9178 0.867 0.025 -0.497 189 162 115 0
6.7091 95.8041 -2.2567 0.433 -0.704 -0.563 187 163 117 0
-4.8154 -11.4328 -22.9411 0.975 0.112 -0.194 255 255 255 0
4.2218 -9.5499 -21.0839 0.183 -0.968 -0.169 226 204 165 0
-0.4802 -1.8604 -20.5566 0.260 -0.906 -0.332 229 207 169 0
-15.4314 10.8993 -20.8942 0.701 -0.100 0.706 240 224 183 0
-18.7115 41.8907 -16.1112 0.154 0.092 0.984 240 224 181 0
-19.8440 42.6941 -16.1649 0.181 0.153 0.971 242 225 182 0
-9.8189 44.4928 -14.1546 0.910 -0.278 -0.309 233 217 181 0
0.2635 40.6881 -13.1000 0.286 -0.560 0.777 235 217 178 0
-0.5688 45.6535 -12.3857 0.076 -0.978 0.197 234 215 176 0
8.1008 52.9280 -9.6620 0.310 -0.902 -0.301 224 207 160 0
-5.8110 66.1738 -9.7395 0.888 0.334 -0.317 223 204 149 0
16.7163 50.9715 -8.5378 0.456 -0.598 -0.659 221 201 151 0
2.1861 69.7913 -7.7599 0.903 -0.209 -0.376 212 191 138 0
1.2566 91.1500 -4.2378 0.879 -0.046 -0.474 197 168 118 0
21.3241 72.3448 -4.0740 0.724 0.248 0.643 199 169 119 0
22.0233 77.2579 -3.1089 0.695 -0.181 -0.696 188 161 114 0
8.3760 93.4085 -2.6412 0.304 -0.794 -0.527 187 161 114 0
22.1883 79.3907 -2.7135 0.943 0.280 -0.181 184 160 113 0
28.1458 74.9555 -2.4672 -0.038 -0.298 0.954 179 155 111 0
27.5834 76.1533 -2.3562 -0.220 -0.965 0.141 179 154 113 0
-4.8526 -11.4148 -23.1351 0.975 0.106 -0.194 255 255 255 0
-13.2806 8.0813 -21.2344 -0.017 -0.122 0.992 238 219 179 0
-17.7524 41.5019 -16.2680 0.158 0.094 0.983 240 223 180 0
-3.6517 38.5831 -14.3542 0.955 0.028 0.296 242 223 181 0
-9.7866 44.8025 -14.3380 0.910 -0.278 -0.309 232 216 182 0
7.3994 52.7132 -10.0384 0.458 -0.889 0.011 228 210 164 0
7.6989 52.7630 -9.9786 0.457 -0.889 -0.010 227 210 164 0
7.8156 52.9390 -9.9284 0.431 -0.900 -0.069 225 208 162 0
10.0113 51.6628 -9.7713 0.786 -0.597 0.161 224 207 161 0
8.5269 52.9555 -9.8038 0.952 -0.092 -0.292 223 207 160 0
8.0494 58.5344 -8.9287 0.820 0.036 -0.571 219 198 148 0
8.7202 59.0946 -8.7177 0.130 -0.863 -0.488 220 197 147 0
1.8755 79.9036 -6.3207 0.722 0.691 -0.044 205 180 126 0
17.5551 73.7038 -4.6993 0.185 -0.860 0.476 198 173 120 0
21.5414 72.2146 -4.2721 0.953 0.081 -0.292 197 168 119 0
20.4179 73.6449 -4.2192 0.835 -0.516 -0.189 197 168 120 0
22.2459 79.4273 -2.9144 0.946 0.242 -0.214 183 159 113 0
38.3505 62.2138 -3.1091 -0.222 -0.398 0.890 181 157 112 0
-4.7727 -11.4034 -23.3104 0.972 0.093 -0.215 255 255 255 0
-8.8085 -9.5569 -23.6927 0.626 -0.427 0.653 223 205 172 0
-26.5009 -5.1526 -25.9988 0.500 -0.227 0.835 224 204 164 0
-11.0660 -5.0971 -23.3214 0.690 -0.133 0.712 223 204 164 0
-26.5802 7.9049 -23.7831 0.889 0.071 0.452 236 219 176 0
-26.5915 8.1380 -23.7453 0.891 0.067 0.448 235 218 175 0
-19.3433 10.5171 -22.0862 0.534 -0.629 0.565 241 224 181 0
-18.3074 10.7344 -21.8700 0.536 -0.842 -0.056 240 224 180 0
-15.6587 11.6795 -21.2508 0.825 -0.544 0.150 248 228 191 0
-14.3451 39.9687 -16.1936 0.011 0.018 1.000 242 225 182 0
-18.3019 43.4599 -16.2815 0.737 0.559 0.380 239 224 181 0
-13.7218 43.1300 -15.5461 -0.053 -0.996 -0.077 242 222 180 0
-2.9127 38.2694 -14.5077 0.706 0.227 0.671 240 221 180 0
1.8280 36.8466 -13.9311 0.817 -0.548 0.179 238 219 183 0
-8.7095 42.9843 -14.7046 0.975 -0.103 -0.196 235 217 181 0
-0.9935 45.5108 -12.9395 0.603 -0.747 -0.281 233 214 181 0
7.4360 52.7567 -10.2453 0.448 -0.894 -0.002 230 211 166 0
7.7541 52.7936 -10.1840 0.457 -0.889 -0.010 229 212 167 0
16.6275 51.4157 -8.8855 0.518 -0.407 -0.752 223 202 155 0
10.7012 60.5717 -8.3465 0.229 -0.828 -0.512 214 193 139 0
10.9573 60.6359 -8.2913 0.227 -0.826 -0.515 214 193 141 0
6.1509 67.8657 -7.8877 0.154 -0.298 0.942 210 187 135 0
21.4322 72.4183 -4.4690 0.956 0.090 -0.281 195 167 120 0
20.3567 73.8012 -4.4188 0.823 -0.536 -0.188 195 167 121 0
28.6205 73.7844 -2.9932 0.925 -0.111 0.363 180 154 114 0
28.1394 74.6041 -2.9364 -0.185 -0.979 -0.088 181 155 114 0
-3.8712 -10.2374 -23.1459 0.615 -0.751 -0.241 221 201 168 0
2.7696 -8.5595 -21.7021 0.088 -0.789 -0.609 222 200 163 0
-26.1603 7.8567 -23.9595 0.756 -0.447 0.479 237 220 176 0
-27.1113 8.5021 -24.0157 0.851 0.042 0.523 235 217 178 0
3.2288 3.5351 -19.5663 0.997 0.029 0.076 238 220 180 0
-15.8605 10.4372 -21.7238 0.894 -0.051 0.445 242 225 183 0
-15.7697 10.6363 -21.6741 0.887 -0.069 0.457 243 225 184 0
-15.8996 10.8861 -21.6543 0.912 -0.057 0.406 246 228 190 0
-15.8510 11.3161 -21.5728 0.956 -0.043 0.290 246 228 191 0
-15.9158 11.5524 -21.5439 0.704 -0.642 -0.303 248 228 191 0
5.7710 22.4622 -15.9058 0.695 0.123 -0.709 250 232 189 0
-12.3522 37.0274 -16.5922 0.600 -0.251 0.759 244 226 184 0
-19.7153 44.4780 -16.6105 0.790 0.508 0.344 237 222 179 0
-20.1768 44.9809 -16.6056 0.795 0.505 0.337 237 223 178 0
-21.1164 45.7190 -16.6441 0.899 -0.017 0.437 238 222 178 0
1.9743 36.8258 -14.1268 0.808 -0.572 0.143 237 218 183 0
-8.0318 42.6946 -14.8752 0.962 -0.212 -0.172 234 216 181 0
8.4560 61.6119 -8.7831 0.755 -0.628 -0.189 217 194 143 0
19.4149 72.3167 -5.0516 0.822 0.542 -0.178 194 172 117 0
20.0195 75.3806 -4.4253 0.446 0.307 0.841 190 163 116 0
8.7126 93.7184 -3.2813 0.366 -0.879 -0.306 184 160 114 0
8.1015 94.7319 -3.2156 0.449 -0.741 -0.499 183 159 113 0
36.1612 70.1556 -2.4970 -0.020 -0.914 -0.406 162 139 97 0
-6.4169 -11.2763 -23.9608 0.940 0.274 -0.204 255 255 255 0
-3.8448 -10.2225 -23.3295 0.616 -0.759 -0.211 224 204 172 0
2.8289 -9.3722 -22.0104 0.068 -0.993 -0.092 224 204 173 0
-15.4812 -4.9760 -24.4910 -0.137 -0.428 0.893 221 202 162 0
-31.2484 1.6120 -26.1530 0.078 0.028 0.997 229 206 166 0
-32.5548 2.4870 -26.2350 0.049 0.121 0.991 227 207 170 0
-35.5731 8.6986 -25.7156 -0.037 -0.994 0.105 235 217 175 0
-26.4580 7.7142 -24.2770 0.740 -0.670 -0.065 233 218 175 0
-26.4368 7.9410 -24.2349 0.842 -0.393 0.369 236 220 176 0
-26.9775 8.5084 -24.2341 0.851 0.042 0.523 236 218 178 0
-27.6558 8.8738 -24.2917 0.711 0.072 0.700 237 219 180 0
-19.4991 10.1681 -22.6363 0.580 -0.765 0.279 241 223 182 0
-19.2546 10.3390 -22.5643 0.492 -0.857 0.157 240 222 181 0
-19.0102 10.5095 -22.4925 0.528 -0.662 0.532 240 222 181 0
-17.3029 42.5541 -16.7701 0.549 0.268 0.792 240 223 180 0
-19.8954 44.6263 -16.8760 0.713 0.498 0.493 238 223 179 0
-2.2559 38.7871 -14.7576 0.926 -0.049 0.374 236 217 182 0
1.9480 36.8928 -14.3378 0.817 -0.548 0.179 235 214 183 0
-3.6949 64.9562 -10.5834 0.613 -0.430 -0.663 229 208 163 0
-3.3059 65.2587 -10.4637 0.681 -0.396 -0.616 226 205 159 0
1.5867 62.5018 -10.0685 0.432 -0.811 -0.394 228 207 162 0
16.2432 54.8108 -8.7887 0.960 0.153 -0.237 219 198 147 0
-0.0820 73.5167 -8.4987 0.702 0.706 -0.092 210 188 139 0
-0.7217 82.5619 -7.0810 0.745 0.647 -0.164 206 180 128 0
19.1932 76.6261 -4.5783 0.385 0.277 0.880 190 163 116 0
32.0999 77.0450 -2.2345 0.928 -0.339 -0.156 254 255 255 0
33.1030 76.0913 -2.2192 0.925 -0.221 -0.308 255 255 255 0
-4.0661 -10.1907 -23.5544 0.673 -0.721 -0.168 225 204 176 0
-3.8590 -10.0320 -23.4908 0.986 0.030 -0.163 224 205 174 0
-33.2185 2.8441 -26.5403 0.362 0.439 0.823 229 210 170 0
-34.9239 8.6123 -25.8719 -0.073 -0.977 0.200 232 217 174 0
-29.0953 8.0093 -24.9376 0.343 -0.935 -0.091 232 217 174 0
-28.0311 8.2768 -24.7034 0.371 -0.928 -0.026 235 219 176 0
-28.0716 8.5186 -24.6699 0.718 -0.695 -0.030 236 219 176 0
-27.0085 8.5466 -24.4762 0.862 0.020 0.506 237 219 177 0
-27.3440 8.8452 -24.4855 0.693 0.074 0.717 238 220 178 0
-27.2079 9.0522 -24.4265 0.571 -0.095 0.816 239 222 179 0
-19.8724 10.0573 -22.9535 0.390 -0.908 0.154 240 220 183 0
5.7744 21.7111 -16.4326 0.817 0.540 -0.200 246 231 190 0
-1.9307 28.0317 -16.7375 0.558 0.049 0.828 246 228 188 0
10.5935 25.7353 -14.8983 0.641 -0.766 -0.054 241 226 183 0
-7.3471 42.4597 -15.2702 0.891 -0.283 -0.356 233 214 181 0
10.9279 52.8052 -10.2798 0.953 -0.048 -0.299 233 213 169 0
6.5091 56.5017 -10.4426 0.786 -0.406 -0.466 233 212 169 0
16.1616 54.6954 -9.0313 0.940 0.179 0.289 225 203 156 0
16.7758 54.4674 -8.9605 0.981 0.035 0.188 224 202 155 0
29.3383 75.4522 -3.1936 -0.112 -0.970 -0.215 173 150 106 0
32.1041 77.1407 -2.4176 0.928 -0.339 -0.156 254 255 254 0
33.1050 76.1886 -2.4001 0.828 -0.344 -0.442 255 255 255 0
-4.2335 -10.1624 -23.7712 0.950 -0.232 -0.210 225 204 175 0
-4.6757 -9.9577 -23.8162 0.961 -0.085 -0.263 225 205 173 0
-8.0486 -9.5409 -24.3512 0.251 -0.362 0.898 225 205 172 0
-31.4012 7.5207 -25.6795 0.866 -0.312 -0.392 233 215 176 0
-29.3830 8.0953 -25.2212 0.503 -0.821 0.272 233 218 175 0
-28.1907 8.5739 -24.9271 0.462 -0.887 0.025 235 219 176 0
-18.7930 10.3032 -22.9516 0.442 -0.896 0.041 241 222 183 0
-14.4403 10.8670 -22.0764 0.990 0.139 -0.035 247 229 191 0
-31.3324 24.7727 -22.7749 0.701 -0.668 0.249 249 231 194 0
-31.2399 25.0084 -22.7188 0.626 -0.763 0.163 248 230 195 0
-31.0394 25.2109 -22.6489 0.613 -0.783 0.105 250 231 197 0
-30.8909 25.4292 -22.5857 0.599 -0.796 0.089 249 231 196 0
-30.5956 25.6017 -22.5038 0.622 -0.769 0.146 248 229 193 0
-14.4847 27.0393 -19.3732 0.849 -0.527 -0.037 249 231 195 0
-14.2888 27.2118 -19.3091 0.555 -0.825 0.106 250 232 195 0
-3.9608 24.3441 -17.9375 0.902 -0.411 -0.130 248 231 193 0
5.7543 21.7589 -16.6284 0.835 0.505 -0.218 246 231 191 0
-4.1878 29.0089 -17.1962 0.962 0.065 0.266 246 228 191 0
-21.0640 37.5827 -18.7857 0.998 -0.061 -0.029 244 228 187 0
-21.0467 37.8454 -18.7386 0.998 -0.061 -0.029 243 228 185 0
-2.8219 35.2748 -15.9008 0.786 -0.587 -0.195 240 223 180 0
8.9310 35.0026 -13.8384 0.670 -0.742 0.024 231 214 180 0
9.9948 52.0150 -10.7956 0.527 -0.845 0.091 232 215 172 0
10.1841 52.1353 -10.7415 0.533 -0.840 0.102 232 215 172 0
8.1759 53.8085 -10.8211 0.671 -0.227 0.706 233 214 172 0
8.0919 54.1273 -10.7828 0.671 -0.406 0.620 232 213 171 0
8.0727 54.4009 -10.7404 0.669 -0.384 0.636 232 213 171 0
8.2997 54.4990 -10.6832 0.834 -0.462 0.302 232 213 170 0
8.8238 54.3834 -10.6086 0.896 -0.357 0.264 232 213 170 0
8.5461 54.8427 -10.5814 0.966 -0.057 0.254 232 212 169 0
8.5941 59.5706 -9.7802 0.147 -0.973 -0.177 228 207 162 0
6.5909 61.3812 -9.8359 0.060 -0.958 -0.281 228 207 161 0
16.2166 54.7242 -9.2255 0.992 -0.105 -0.064 226 205 159 0
16.4799 54.7696 -9.1706 0.967 -0.077 0.243 225 204 158 0
10.5978 60.4270 -9.2772 0.244 -0.964 -0.100 223 202 156 0
-5.6165 79.2860 -9.0238 0.746 0.642 -0.175 213 191 141 0
32.5051 66.9087 -4.2614 -0.030 -0.977 -0.212 182 158 110 0
25.7215 78.0313 -3.6134 0.049 -0.995 0.090 178 155 111 0
30.0332 74.7417 -3.3915 -0.092 -0.996 0.012 173 149 105 0
32.0776 77.2741 -2.6003 0.933 -0.329 -0.148 254 255 254 0
32.8949 76.5472 -2.5756 0.996 0.002 -0.087 255 255 255 0
0.2121 -8.9412 -22.9548 0.147 -0.753 -0.642 224 205 165 0
-41.5231 -3.6113 -29.6190 0.237 -0.007 0.971 222 202 165 0
-27.7174 2.3219 -26.1303 0.413 -0.322 0.852 230 211 171 0
-5.7782 -0.5432 -22.6376 -0.119 -0.622 0.774 230 210 174 0
-31.3682 7.5466 -25.9192 0.865 -0.316 -0.390 234 217 178 0
-29.4833 8.1463 -25.4780 0.479 -0.769 0.423 234 219 176 0
-28.0724 8.5835 -25.1497 0.403 -0.915 0.038 235 219 176 0
-30.5493 25.6331 -22.7530 0.566 -0.821 -0.069 247 229 193 0
-14.1051 26.9474 -19.5574 0.670 -0.737 0.082 246 230 194 0
-14.1885 27.2213 -19.5268 0.719 -0.694 0.031 246 230 194 0
-3.9702 24.3905 -18.1498 0.902 -0.411 -0.130 247 231 195 0
-3.8765 24.5807 -18.1011 0.902 -0.411 -0.130 247 232 193 0
-3.7794 24.7696 -18.0520 0.981 -0.183 -0.064 245 230 191 0
-4.7642 28.3604 -17.6310 0.370 0.080 0.926 246 228 190 0
-4.0917 29.2490 -17.3610 0.953 0.054 0.297 245 227 189 0
-5.1980 30.4161 -17.3665 0.881 -0.147 0.449 246 228 190 0
-21.3660 37.4960 -19.1114 0.845 -0.034 -0.534 245 227 189 0
-22.7683 38.3629 -19.2205 0.828 -0.222 -0.514 244 227 187 0
-20.2628 37.5659 -18.9000 0.995 0.065 -0.082 243 227 185 0
-2.9103 35.1277 -16.1663 0.763 -0.596 -0.251 239 222 179 0
9.1707 32.0407 -14.4948 0.781 -0.588 -0.208 234 215 177 0
-8.0847 42.9595 -15.7959 0.968 -0.153 -0.199 229 213 179 0
-7.7718 66.6700 -11.7828 0.468 -0.592 -0.657 232 213 170 0
11.8915 55.3042 -10.1205 0.773 -0.206 0.600 229 208 165 0
10.8311 56.3586 -10.1365 0.772 -0.380 0.510 228 207 164 0
16.1654 54.8356 -9.4252 0.933 -0.359 -0.028 227 206 164 0
16.5312 54.8012 -9.3647 0.967 -0.077 0.243 226 205 163 0
16.7048 54.9158 -9.3142 0.382 -0.758 -0.529 226 206 163 0
7.8157 62.4314 -9.6689 0.155 -0.980 -0.128 225 204 161 0
8.1387 62.4513 -9.6071 0.124 -0.992 -0.034 222 203 160 0
5.1329 67.9787 -9.2288 0.781 -0.587 -0.211 221 198 157 0
32.3753 66.8832 -4.4810 -0.100 -0.986 -0.136 184 160 112 0
27.5933 77.6803 -3.5448 -0.061 -0.950 -0.306 173 149 105 0
32.1137 77.3311 -2.7850 0.937 -0.311 -0.162 254 255 254 0
32.8493 76.7039 -2.7565 0.980 -0.058 -0.190 255 255 255 0
-5.4407 -7.5634 -23.9441 0.908 -0.381 0.173 222 203 161 0
-41.0631 -3.6302 -29.7963 0.122 -0.454 0.883 221 202 165 0
-40.4068 -3.2233 -29.6089 0.081 -0.351 0.933 223 203 166 0
-40.7712 -2.7154 -29.5911 0.002 -0.084 0.996 221 202 163 0
-32.9387 1.4960 -27.4612 0.227 -0.784 -0.578 227 208 166 0
-18.8191 10.1506 -23.4452 0.475 -0.880 0.021 242 223 183 0
-17.1633 10.6750 -23.0557 0.916 -0.029 0.400 245 227 191 0
-17.4141 11.1780 -23.0180 0.815 -0.231 0.532 246 228 192 0
-14.7401 26.4917 -19.9862 0.645 -0.719 -0.258 245 230 195 0
-14.3393 27.3224 -19.7751 0.855 -0.510 0.095 245 231 194 0
-4.4130 24.8251 -18.3771 0.965 -0.162 0.206 245 230 193 0
-4.1179 27.9137 -17.8102 0.378 0.078 0.922 245 227 188 0
-7.6194 31.2437 -17.8966 0.267 -0.613 0.744 244 226 188 0
-5.2348 30.4799 -17.5880 0.872 -0.227 0.433 244 226 188 0
-3.0023 34.9820 -16.4325 0.431 -0.475 0.767 239 222 179 0
-3.2449 35.3379 -16.4177 0.314 -0.792 0.523 238 221 178 0
-0.8447 34.6797 -16.0887 0.727 -0.255 0.637 237 220 177 0
-2.1841 40.9610 -15.2900 0.934 -0.233 -0.272 229 213 180 0
-4.7416 43.0777 -15.4055 0.866 -0.011 0.500 231 212 180 0
-4.7618 43.3459 -15.3647 0.866 -0.011 0.500 231 212 180 0
-5.6326 44.0723 -15.4031 0.445 -0.846 0.294 231 213 181 0
-5.5821 44.8270 -15.2685 0.757 -0.356 0.547 230 214 180 0
13.7728 50.2303 -10.8364 0.859 0.039 -0.511 229 212 170 0
-7.4289 66.5056 -12.0052 0.468 -0.580 -0.667 231 212 171 0
11.0446 55.7518 -10.4176 0.678 -0.428 -0.597 230 208 168 0
10.9708 59.7519 -9.7667 0.224 -0.797 0.561 224 205 163 0
7.8182 62.5088 -9.8846 0.142 -0.982 -0.128 222 204 161 0
11.8360 59.8662 -9.5897 -0.052 -0.995 0.082 223 204 162 0
8.1487 72.4863 -8.1670 0.730 0.683 -0.034 215 192 147 0
18.2365 80.9888 -4.9126 -0.094 -0.212 0.973 188 161 116 0
26.4113 78.5841 -3.8191 -0.093 -0.942 -0.323 174 150 106 0
27.7412 77.3254 -3.7853 -0.069 -0.996 0.052 176 152 108 0
39.2129 64.4794 -3.8239 0.124 -0.679 -0.724 174 150 106 0
38.1651 67.7040 -3.4797 0.095 -0.849 -0.520 161 138 98 0
32.1149 77.4309 -2.9690 0.937 -0.311 -0.162 254 255 254 0
-38.6052 -3.3757 -29.5590 0.449 -0.372 0.813 221 201 165 0
-18.9827 10.2193 -23.6961 0.461 -0.887 -0.006 242 223 183 0
-17.0709 10.6871 -23.2665 0.916 -0.029 0.400 247 227 192 0
-29.3929 23.5386 -23.4124 0.405 -0.889 -0.214 243 229 192 0
-14.2678 26.6112 -20.1176 0.868 -0.493 -0.066 243 229 193 0
-15.4085 27.5131 -20.1786 0.828 -0.412 -0.380 244 230 193 0
-15.1554 27.6670 -20.1066 0.838 -0.400 -0.370 244 230 193 0
-14.8457 27.7994 -20.0276 0.940 -0.334 -0.076 244 230 193 0
-16.3821 36.2762 -18.9094 0.931 -0.137 -0.338 240 222 185 0
-16.5377 36.6054 -18.8836 0.921 -0.128 -0.368 240 222 185 0
-26.3535 41.7003 -19.8500 0.533 -0.615 -0.581 240 222 184 0
-3.8096 35.6573 -16.6951 0.418 -0.898 0.140 235 218 175 0
-11.4554 45.3656 -16.4990 0.834 -0.135 0.536 227 211 178 0
-11.4423 45.6292 -16.4531 0.834 -0.135 0.536 227 212 179 0
-11.6229 45.9953 -16.4258 0.925 -0.074 0.374 227 211 178 0
-8.5649 46.2467 -15.8208 0.842 -0.521 -0.139 229 213 180 0
-8.9165 46.7065 -15.8096 0.772 -0.635 -0.033 229 213 180 0
9.7549 52.9001 -11.3454 0.067 -0.885 0.461 227 209 171 0
12.1123 51.4786 -11.1460 0.670 -0.630 0.393 227 209 171 0
-7.2884 66.4871 -12.2396 0.480 -0.556 -0.678 230 211 172 0
-3.6392 64.4393 -11.9058 0.709 -0.567 -0.420 230 212 172 0
-3.5647 65.5633 -11.7062 0.974 0.206 -0.093 228 209 170 0
11.6172 59.0544 -9.9849 0.218 -0.524 0.823 223 205 164 0
11.3788 59.5072 -9.9539 0.207 -0.792 0.574 222 203 163 0
8.8574 64.2464 -9.6351 0.975 0.034 0.220 219 202 158 0
-4.9163 77.3795 -10.0019 0.708 0.542 -0.452 219 197 156 0
5.4706 72.2659 -8.9334 0.724 0.516 0.458 216 193 148 0
7.9678 72.7380 -8.3952 0.726 0.687 -0.026 214 191 149 0
31.4030 68.3882 -4.7962 0.554 -0.829 0.083 184 161 117 0
39.7563 61.0552 -4.4693 0.867 0.358 0.346 186 159 115 0
28.0900 75.3392 -4.2576 0.789 0.615 -0.011 177 153 110 0
32.9115 76.2765 -3.2143 0.994 -0.084 -0.068 253 255 254 0
32.0676 77.5907 -3.1525 0.929 -0.322 -0.182 254 255 254 0
-6.7026 -11.1619 -25.1638 0.934 0.298 -0.196 255 255 255 0
-3.0041 -10.1805 -24.3148 0.927 -0.286 -0.244 225 204 172 0
-35.5441 2.1445 -28.3359 0.800 -0.313 -0.512 227 208 172 0
-3.4722 -1.0082 -22.8927 0.397 -0.907 -0.139 232 213 174 0
-2.8775 -0.9124 -22.7664 0.837 -0.536 -0.112 231 212 173 0
-16.8207 9.1167 -23.7082 0.911 0.336 0.239 242 222 185 0
-16.3932 9.2444 -23.6077 0.894 0.367 0.258 242 222 184 0
-16.8579 10.6720 -23.4592 0.914 -0.098 0.394 246 228 192 0
-16.6397 36.4412 -19.1788 0.955 -0.040 -0.294 239 221 184 0
-21.2825 40.6324 -19.3523 0.998 0.055 0.019 236 218 180 0
-20.5718 40.8637 -19.1821 0.981 0.121 0.154 236 218 178 0
-15.8880 39.0136 -18.6158 0.692 0.379 0.614 233 218 177 0
-18.3743 40.9568 -18.7583 0.450 0.519 0.727 233 218 174 0
-21.3174 46.2567 -18.4334 0.311 0.511 0.801 232 212 172 0
-9.2929 45.0949 -16.3893 0.981 -0.107 0.165 226 208 175 0
-10.0791 45.7806 -16.4226 0.795 -0.405 0.451 229 210 178 0
-8.3109 46.1714 -16.0296 0.646 -0.520 -0.559 230 212 180 0
-6.9147 66.3000 -12.4583 0.525 -0.596 -0.607 228 208 171 0
-3.5273 65.3223 -11.9895 0.861 -0.436 -0.263 228 208 170 0
7.2552 65.9180 -9.8870 0.954 -0.195 0.230 218 201 157 0
7.7216 69.8245 -9.1576 0.694 0.564 0.448 217 196 153 0
-0.8069 94.7131 -6.6480 0.973 0.193 0.127 201 177 133 0
5.1670 89.9483 -6.3215 -0.298 -0.340 0.892 200 174 134 0
39.8297 61.0548 -4.6318 0.804 0.339 0.489 190 165 121 0
30.8801 73.0547 -4.3211 0.694 0.370 0.617 173 150 108 0
29.5396 75.1543 -4.2249 0.165 -0.746 0.645 174 150 107 0
30.5153 74.2948 -4.1849 0.838 0.517 -0.172 173 149 106 0
32.9184 76.3684 -3.3970 0.994 -0.083 -0.068 254 255 254 0
32.0355 77.7321 -3.3368 0.925 -0.334 -0.178 254 255 253 0
-6.7704 -11.1415 -25.3693 0.934 0.297 -0.199 255 255 255 0
-22.0617 -3.7166 -27.0210 0.133 -0.986 -0.105 222 206 163 0
-15.1000 27.7398 -20.5644 0.855 -0.519 -0.022 245 229 194 0
-14.9214 27.9206 -20.5013 0.868 -0.496 -0.041 245 229 195 0
-14.7751 28.1131 -20.4424 0.846 -0.532 -0.034 244 230 195 0
-15.2762 28.5463 -20.4654 0.868 -0.493 0.061 243 228 195 0
-6.2853 26.8189 -19.0622 0.893 0.148 -0.425 242 228 191 0
-23.4684 38.3357 -20.3986 0.983 -0.054 -0.178 237 222 184 0
-23.4135 38.8634 -20.3020 0.982 -0.062 -0.180 237 221 183 0
-21.4285 39.6544 -19.8002 0.994 0.039 -0.099 237 219 181 0
-20.9624 39.7233 -19.7015 0.998 0.070 -0.006 237 219 181 0
-20.1788 39.6498 -19.5666 0.966 0.225 -0.129 236 219 180 0
-14.8704 38.0812 -18.8279 0.823 -0.537 0.185 234 215 178 0
-15.3241 38.5494 -18.8363 0.958 -0.008 0.286 234 216 178 0
-15.5923 38.9358 -18.8234 0.885 -0.058 0.462 232 217 177 0
-15.8695 39.3278 -18.8112 0.879 0.036 0.475 232 217 177 0
-16.6365 40.2146 -18.8098 0.634 0.390 0.668 230 215 175 0
-17.0634 40.6812 -18.8134 0.602 0.409 0.686 230 215 175 0
-9.1997 46.9878 -16.3060 0.598 -0.648 -0.472 233 213 180 0
0.8099 60.2334 -12.2599 0.761 -0.526 -0.380 228 210 172 0
-4.1965 65.0071 -12.4171 0.307 -0.951 -0.029 227 209 171 0
11.6004 57.8993 -10.6186 0.572 -0.681 0.457 225 206 166 0
9.0388 64.2614 -10.0572 0.977 0.023 0.213 219 202 158 0
23.4027 53.7268 -9.0886 0.227 -0.855 -0.466 218 200 158 0
7.7945 69.8493 -9.3755 0.697 0.552 0.458 215 194 151 0
6.9800 70.8438 -9.3654 0.690 0.571 0.445 215 194 151 0
29.8249 70.0454 -5.2120 0.537 -0.837 0.105 193 169 125 0
32.9039 76.4866 -3.5798 0.993 -0.087 -0.083 254 255 255 0
32.0735 77.7872 -3.5226 0.890 -0.411 -0.196 254 255 254 0
-6.8198 -11.1222 -25.5719 0.934 0.297 -0.199 255 255 255 0
-10.9695 -6.4181 -25.5903 0.663 0.216 0.716 223 205 167 0
-20.6462 -3.6406 -26.9681 0.064 -0.994 0.085 224 207 164 0
-23.8212 1.4434 -26.7402 0.271 -0.836 -0.476 231 212 172 0
-3.1238 -1.0143 -23.2254 0.768 -0.640 0.008 232 213 173 0
-2.8466 -0.8708 -23.1496 0.861 -0.484 -0.156 231 213 174 0
-2.5308 -0.7338 -23.0675 0.528 -0.808 -0.260 232 214 177 0
-15.6696 28.2433 -20.8306 0.833 -0.533 0.149 242 226 193 0
-18.9199 36.4666 -20.1053 0.899 0.391 0.198 234 220 182 0
-19.4628 38.3066 -19.9081 0.943 0.253 0.215 234 216 178 0
-24.2690 41.8054 -20.2471 0.525 0.465 0.713 234 216 178 0
-15.6622 38.4934 -19.1587 0.932 0.005 0.363 234 215 178 0
-15.6429 38.7497 -19.1132 0.928 -0.006 0.372 234 215 180 0
-15.5986 38.9950 -19.0649 0.928 0.002 0.372 234 215 180 0
-15.6290 39.2747 -19.0251 0.897 -0.007 0.441 234 215 179 0
-16.3328 40.1322 -19.0185 0.624 0.397 0.673 229 209 174 0
-16.7732 40.6048 -19.0247 0.504 0.249 0.827 229 209 172 0
-17.0573 41.0071 -19.0129 0.602 0.409 0.686 231 210 172 0
-17.6139 41.5384 -19.0316 0.525 0.484 0.700 232 208 170 0
-12.3150 39.5846 -18.3477 0.897 0.417 0.147 228 201 165 0
-17.1146 44.0424 -18.5291 0.252 0.452 0.856 207 177 144 0
-10.1610 45.1416 -17.0345 0.957 0.111 -0.269 231 204 171 0
1.7947 60.4400 -12.2797 0.960 0.280 -0.022 225 208 172 0
7.0595 65.1124 -10.5223 0.728 -0.470 -0.500 220 202 163 0
9.1061 64.2880 -10.2695 0.985 0.068 0.160 219 202 159 0
7.0649 66.5253 -10.2910 0.973 -0.197 0.123 217 202 160 0
14.6723 81.5570 -6.4022 -0.302 -0.358 0.883 198 173 132 0
20.4504 79.8804 -5.5824 0.772 -0.027 -0.636 197 169 129 0
30.1165 70.0809 -5.3509 0.955 -0.281 -0.093 192 168 124 0
30.2871 70.1575 -5.3061 0.439 -0.898 -0.026 191 167 122 0
33.2875 67.0851 -5.2392 -0.129 -0.992 -0.004 192 168 122 0
27.1424 77.0023 -4.7855 0.574 0.462 0.676 189 161 122 0
32.9108 76.5789 -3.7633 0.993 -0.096 -0.064 254 255 255 0
32.0750 77.8876 -3.7081 0.894 -0.408 -0.187 254 255 255 0
-10.7275 -6.4213 -25.7518 0.696 0.284 0.659 223 205 168 0
-10.9017 -6.2155 -25.7517 0.681 0.290 0.673 220 202 164 0
-38.6053 1.9330 -29.7162 0.188 -0.641 -0.744 232 210 173 0
-3.8117 -1.0742 -23.5650 0.287 -0.950 0.121 231 212 172 0
-2.7962 -1.0406 -23.3657 0.819 -0.466 -0.334 231 212 173 0
-2.6477 -0.8779 -23.3110 0.794 -0.512 -0.328 232 213 175 0
-2.3926 -0.7318 -23.2387 0.724 -0.609 -0.324 233 215 178 0
-25.7936 11.1417 -25.7781 0.112 -0.670 0.734 243 224 187 0
-18.5124 37.4131 -20.1278 0.431 0.244 0.869 233 215 179 0
-18.2753 37.5775 -20.0559 0.515 0.207 0.831 233 215 179 0
-23.0830 40.7764 -20.4544 0.465 0.499 0.731 232 214 176 0
-15.6695 38.2879 -19.4434 0.938 -0.028 0.345 231 211 174 0
-15.6509 38.5444 -19.3983 0.876 -0.156 0.456 229 210 173 0
-14.2652 39.5000 -18.9789 0.691 0.380 0.615 201 173 139 0
-14.6240 39.9320 -18.9773 0.701 0.366 0.612 199 170 136 0
-14.3939 42.5015 -18.5166 0.295 0.477 0.828 164 125 95 0
-10.8072 45.2741 -17.3826 0.984 -0.091 0.151 194 154 125 0
-11.0512 45.6727 -17.3645 0.928 -0.342 0.146 204 168 137 0
-10.8568 45.8408 -17.3001 0.899 -0.434 0.058 213 180 149 0
-5.4950 46.9345 -16.0996 0.981 -0.173 -0.092 226 211 177 0
9.0486 52.6509 -12.3974 0.096 -0.490 0.867 227 209 176 0
13.5297 58.1128 -10.6565 0.329 -0.286 0.900 222 203 167 0
6.4892 65.0899 -10.8683 0.837 -0.280 -0.471 220 202 163 0
6.5104 65.3559 -10.8211 0.838 -0.264 -0.478 221 203 163 0
6.2676 66.1212 -10.7433 0.564 -0.613 0.554 219 201 161 0
6.1104 66.8213 -10.6598 0.614 -0.627 0.479 217 201 159 0
15.0377 82.5010 -6.4132 0.859 0.238 0.452 199 174 133 0
20.4495 79.0964 -5.9328 0.616 -0.227 -0.754 198 170 129 0
26.2359 73.0812 -5.8043 0.089 -0.806 0.586 198 170 129 0
30.1049 70.1853 -5.5357 0.960 -0.269 -0.082 193 168 125 0
27.6474 77.6529 -4.7935 0.737 0.552 0.391 176 150 112 0
27.6922 78.4557 -4.6547 0.767 0.578 0.279 170 144 106 0
32.9067 76.6848 -3.9469 0.994 -0.077 -0.073 254 255 255 0
32.0737 77.9916 -3.8939 0.894 -0.394 -0.212 254 255 254 0
-28.7354 -4.8841 -29.1765 0.076 -0.844 -0.530 219 202 167 0
-22.0038 -2.3948 -27.4791 0.944 0.318 -0.086 227 207 169 0
-42.2283 1.9568 -30.6690 0.133 -0.671 -0.729 228 210 170 0
-31.4554 1.2289 -28.7133 0.729 0.164 0.664 231 212 173 0
-2.5827 -0.8646 -23.4945 0.706 -0.283 0.649 232 212 177 0
-2.3300 -0.7182 -23.4222 0.767 -0.288 0.574 234 215 179 0
-31.7235 6.1680 -27.9676 0.820 0.548 -0.163 234 214 179 0
-32.4184 6.7639 -28.0052 0.819 0.558 -0.134 233 216 180 0
-25.0480 11.0154 -25.9005 -0.009 -0.730 0.684 243 225 189 0
-6.2411 27.4051 -19.6356 0.879 0.153 0.452 237 224 188 0
-13.1350 35.1428 -19.7134 0.763 -0.584 -0.278 234 214 178 0
-15.6162 38.3199 -19.6782 0.934 -0.027 0.356 215 188 153 0
-15.6243 38.5885 -19.6364 0.934 -0.027 0.356 204 177 143 0
-14.0845 39.2087 -19.2399 0.554 0.144 0.820 165 130 98 0
-13.9558 39.4133 -19.1821 0.656 0.381 0.651 160 123 91 0
-14.1975 39.7905 -19.1678 0.657 0.384 0.649 158 119 88 0
-11.7830 46.1212 -17.6812 0.435 -0.473 0.766 176 133 103 0
-11.3161 46.1468 -17.5873 0.451 -0.443 0.775 178 135 107 0
-11.0856 46.2965 -17.5187 0.366 -0.503 0.783 185 143 116 0
-7.3285 46.1535 -16.8187 0.959 -0.273 0.071 231 208 174 0
13.6868 49.7084 -12.2005 0.116 -0.660 0.743 229 213 179 0
10.2747 52.8783 -12.3455 0.445 -0.867 0.226 226 209 178 0
-2.5763 64.9483 -12.8705 0.888 0.331 0.319 226 206 174 0
8.6023 61.5409 -11.2692 0.235 0.245 0.941 223 204 171 0
6.0471 65.2441 -11.1632 0.723 -0.344 -0.600 221 203 166 0
6.5310 65.7059 -10.9955 0.838 -0.339 -0.428 219 201 164 0
6.3415 66.1446 -10.9612 0.543 -0.502 0.673 218 200 162 0
27.5723 65.8658 -6.9202 0.698 -0.625 -0.351 199 178 135 0
24.2556 71.4321 -6.6601 0.373 -0.788 -0.490 198 175 134 0
18.6128 77.9219 -6.6986 -0.061 -0.997 0.040 199 176 135 0
15.5885 82.0198 -6.6192 0.838 0.331 0.433 199 174 134 0
14.7219 83.2493 -6.5875 0.764 0.327 0.556 200 172 132 0
25.9350 74.3392 -5.8676 0.148 -0.929 0.338 193 169 128 0
25.8879 74.6707 -5.8232 0.041 -0.961 0.272 192 169 128 0
24.0913 76.9421 -5.8024 0.227 -0.916 0.332 193 168 127 0
23.8253 77.5246 -5.7595 0.362 -0.877 0.315 191 166 125 0
33.0848 74.6431 -4.4426 -0.095 -0.938 -0.333 157 133 94 0
32.9015 76.7924 -4.1309 0.994 -0.077 -0.073 254 255 255 0
32.1182 78.0391 -4.0805 0.877 -0.433 -0.208 254 255 255 0
-4.4719 -9.8191 -25.4977 0.938 -0.187 -0.290 224 207 174 0
-24.7932 11.2293 -26.0612 -0.077 -0.775 0.628 241 225 190 0
-23.4998 11.1812 -25.8179 0.293 -0.788 0.542 245 226 194 0
-22.1691 35.0294 -21.7290 -0.119 -0.972 0.202 236 222 187 0
-21.0100 34.8298 -21.5360 -0.139 -0.975 0.173 235 221 185 0
-24.0171 38.5171 -21.5274 -0.228 -0.405 0.885 230 216 179 0
-22.4254 38.1183 -21.2825 -0.221 -0.392 0.893 230 215 177 0
-19.9549 37.6079 -20.8850 -0.214 -0.368 0.905 234 213 175 0
-13.1716 35.2117 -19.9533 0.767 -0.577 -0.280 232 207 172 0
-12.6790 36.0233 -19.7273 0.510 -0.682 -0.524 203 173 139 0
-12.2339 36.0833 -19.6313 0.531 -0.651 -0.542 191 158 125 0
-12.5015 37.4928 -19.4568 0.671 0.511 0.538 167 129 101 0
-13.1280 38.2993 -19.4489 0.509 0.554 0.658 166 122 96 0
-13.2708 38.6266 -19.4240 0.648 0.405 0.646 164 120 94 0
-8.8882 37.8789 -18.6934 0.710 0.146 0.689 163 112 85 0
-8.9789 38.1770 -18.6632 0.710 0.146 0.689 165 114 87 0
-9.0700 38.4761 -18.6328 0.710 0.146 0.689 166 115 91 0
-11.5753 46.0745 -17.8986 0.418 -0.475 0.775 173 120 94 0
-11.1049 46.0977 -17.8036 0.439 -0.429 0.789 174 122 97 0
-10.9349 46.2793 -17.7414 0.330 -0.552 0.766 177 125 100 0
-7.2878 46.1940 -17.0472 0.963 -0.264 0.060 227 199 169 0
-5.5562 48.4329 -16.3515 0.505 -0.854 0.124 227 209 177 0
13.9114 49.1268 -12.4614 0.061 -0.651 0.756 227 212 180 0
14.1724 49.4323 -12.3616 0.075 -0.612 0.787 227 211 179 0
9.9514 53.1785 -12.5792 0.506 -0.771 0.386 225 208 180 0
7.7895 61.9833 -11.5846 0.351 0.346 0.870 221 205 172 0
10.3618 61.0450 -11.2360 0.681 0.507 0.529 220 201 168 0
6.0287 65.6260 -11.3412 0.722 -0.340 -0.602 220 202 166 0
25.1591 51.3699 -9.9179 0.137 -0.975 0.177 218 200 163 0
25.5669 51.5031 -9.8173 0.272 -0.960 0.070 216 198 164 0
23.4683 54.1997 -9.7915 0.483 -0.789 -0.380 215 198 161 0
49.5668 36.5076 -7.5676 0.705 0.676 -0.213 210 191 152 0
13.0291 78.3762 -7.9345 0.833 0.545 -0.093 203 180 139 0
18.5954 78.3342 -6.8608 -0.104 -0.994 0.045 199 175 134 0
17.8949 79.3724 -6.8300 0.915 0.162 0.368 200 175 135 0
22.9973 75.0952 -6.5266 -0.135 -0.887 0.443 199 171 132 0
25.5114 76.5988 -5.7971 0.201 -0.280 0.939 189 169 127 0
32.5635 73.4624 -4.9321 -0.024 -0.220 0.975 166 141 104 0
-22.8871 -2.0293 -28.0518 0.929 0.311 -0.199 229 209 173 0
-37.6785 2.1338 -30.2817 0.048 -0.962 0.268 230 211 171 0
-36.0388 2.1473 -29.9586 -0.024 -0.991 -0.131 231 212 172 0
-33.8603 2.0804 -29.5429 -0.044 -0.993 -0.111 231 212 172 0
-41.8398 10.0102 -29.8373 0.677 0.359 0.643 234 219 180 0
-24.2344 10.9081 -26.2476 0.099 -0.608 0.788 241 226 185 0
-16.8711 31.1556 -21.5699 0.726 -0.621 -0.294 238 225 191 0
-18.3098 33.2692 -21.5137 0.062 -0.720 0.692 235 221 187 0
-18.7340 33.9625 -21.4859 -0.101 -0.842 0.530 235 220 185 0
-13.4325 35.3778 -20.2220 0.778 -0.618 0.115 192 158 127 0
-13.4152 35.6277 -20.1786 0.634 -0.531 -0.563 179 143 113 0
-13.3755 35.8681 -20.1324 0.628 -0.551 -0.550 172 134 106 0
-13.2521 36.3302 -20.0344 0.571 -0.583 -0.578 167 127 98 0
-12.2088 36.6403 -19.7806 0.600 -0.572 -0.559 167 120 95 0
-12.3404 36.9573 -19.7557 0.779 0.348 0.521 168 122 96 0
-12.4019 37.2436 -19.7220 0.674 0.422 0.606 166 122 94 0
-12.4334 37.5170 -19.6845 0.677 0.500 0.540 166 120 94 0
-12.6766 38.1481 -19.6312 0.518 0.552 0.653 167 119 96 0
-12.9883 38.5526 -19.6275 0.649 0.405 0.644 167 119 94 0
-8.9929 37.7283 -18.9772 0.478 -0.811 0.338 163 109 87 0
-8.7774 37.8819 -18.9105 0.697 0.160 0.699 161 106 84 0
-8.7659 38.3872 -18.8274 0.605 -0.042 0.795 160 104 83 0
-6.8575 38.4894 -18.4376 0.981 -0.123 -0.152 156 101 81 0
-9.9507 42.3465 -18.4265 0.281 -0.943 0.179 154 98 78 0
-7.1060 46.1572 -17.2606 0.969 -0.220 -0.112 189 152 123 0
-7.2541 46.5058 -17.2339 0.998 0.051 0.034 199 165 135 0
-7.0740 49.1012 -16.7837 0.434 -0.887 0.157 226 207 175 0
-6.2797 49.4570 -16.5714 0.734 -0.646 0.210 226 206 179 0
15.7212 48.1642 -12.4714 0.422 -0.896 0.140 226 212 182 0
10.3657 60.8494 -11.4922 0.793 0.275 0.544 218 202 169 0
10.3307 61.1482 -11.4512 0.694 0.479 0.537 219 200 167 0
9.9530 61.7214 -11.4336 0.633 0.370 0.680 219 201 168 0
5.6435 65.4486 -11.6814 0.946 -0.065 0.317 218 202 168 0
8.1226 64.2989 -11.3799 0.592 -0.758 -0.272 219 202 167 0
25.2482 51.3657 -10.0948 0.141 -0.974 0.178 217 201 165 0
23.4994 54.7308 -9.8993 0.123 -0.890 -0.440 217 199 163 0
23.6932 54.8102 -9.8487 0.104 -0.877 -0.470 216 197 160 0
47.8951 38.2600 -7.7566 0.698 0.679 -0.229 210 190 153 0
27.9513 63.0819 -7.6930 0.726 -0.125 -0.676 203 181 140 0
23.2492 74.9211 -6.7210 0.266 -0.701 0.662 198 170 133 0
32.9277 75.3048 -4.7652 0.679 -0.469 -0.565 158 131 95 0
32.9034 76.9929 -4.5001 0.962 -0.185 -0.200 254 254 255 0
33.7647 76.4797 -4.4135 0.939 0.258 0.227 255 255 255 0
-22.5161 -7.8760 -29.1397 -0.147 -0.637 0.757 223 206 174 0
-21.3730 -7.7612 -28.8958 -0.148 -0.399 0.905 222 206 173 0
-25.4189 -1.9163 -28.7648 1.000 -0.007 0.010 230 210 173 0
-25.6329 -1.6737 -28.7685 0.988 -0.069 0.135 231 210 173 0
-17.9350 -1.5738 -27.2330 0.136 -0.658 0.741 229 210 174 0
-37.2541 2.1046 -30.4615 0.050 -0.964 0.263 228 210 170 0
-38.6414 8.9498 -29.6466 0.885 0.464 -0.035 236 218 181 0
-23.3982 10.5292 -26.3864 0.268 -0.105 0.958 242 225 183 0
-23.3875 10.7592 -26.3477 0.257 -0.110 0.960 245 227 188 0
-18.3171 33.8460 -21.6748 0.009 -0.616 0.787 236 219 185 0
-12.7509 35.6483 -20.2894 0.066 -0.568 0.820 169 126 101 0
-12.7793 35.9178 -20.2521 0.086 -0.578 0.811 170 126 101 0
-12.5960 36.0943 -20.1879 0.041 -0.638 0.769 169 123 99 0
-12.3411 36.4961 -20.0736 0.093 -0.269 0.959 166 118 96 0
-12.4138 36.7865 -20.0418 0.272 -0.019 0.962 165 117 94 0
-12.3641 37.0226 -19.9944 0.294 -0.006 0.956 164 116 92 0
-12.1795 37.1978 -19.9301 0.677 0.422 0.603 161 114 89 0
-11.9890 37.8881 -19.7827 0.543 0.456 0.705 162 113 90 0
-7.4392 37.8112 -18.8968 0.665 -0.113 0.738 155 98 78 0
-7.2812 37.9890 -18.8374 0.870 -0.334 0.362 157 99 80 0
-6.8846 38.5583 -18.6685 0.981 -0.123 -0.152 154 96 79 0
-6.9278 38.8332 -18.6333 0.986 -0.146 -0.076 152 94 76 0
-8.2334 40.2422 -18.6670 0.478 -0.560 0.677 148 91 73 0
-7.6219 42.5321 -18.1820 0.632 -0.768 -0.101 164 105 89 0
-7.3584 42.6573 -18.1101 0.672 -0.738 0.055 164 105 89 0
-7.2426 42.8585 -18.0552 0.662 -0.747 0.057 164 104 88 0
-6.9984 42.9926 -17.9857 0.858 -0.480 -0.185 166 105 88 0
-7.0155 43.2631 -17.9461 0.881 -0.447 -0.154 168 105 88 0
-7.6205 43.8439 -17.9731 0.782 -0.018 0.623 167 104 86 0
13.3978 48.8828 -13.0227 0.596 -0.762 -0.254 224 213 181 0
15.7728 47.7127 -12.7400 0.412 -0.910 0.056 224 214 179 0
16.0724 47.7424 -12.6762 0.390 -0.909 0.147 223 211 180 0
16.3981 47.7525 -12.6103 0.484 -0.811 0.328 224 210 180 0
16.3832 48.0022 -12.5735 0.477 -0.814 0.332 223 209 179 0
10.8043 61.1198 -11.5883 0.613 0.390 0.687 218 201 168 0
24.0170 54.8512 -9.9772 0.076 -0.908 -0.412 214 196 159 0
-0.9047 79.1909 -11.0253 0.769 -0.360 -0.528 215 193 154 0
28.2543 62.1055 -7.9870 0.807 0.308 -0.504 203 180 139 0
28.2016 62.4099 -7.9490 0.803 0.292 -0.519 202 179 138 0
23.1775 75.0946 -6.9232 0.276 -0.682 0.677 197 169 133 0
23.3380 75.2058 -6.8738 0.270 -0.777 0.568 197 168 134 0
27.9285 73.8003 -6.1912 0.900 -0.028 -0.434 189 167 126 0
37.2177 69.4126 -5.0554 0.505 0.300 0.809 159 132 98 0
32.6805 75.4293 -4.9941 0.709 -0.506 -0.492 158 131 94 0
-3.4953 -9.8381 -25.8905 0.961 -0.247 -0.128 227 207 175 0
-16.7412 -8.1034 -28.2525 -0.147 -0.428 0.892 224 207 177 0
-16.9228 -7.8933 -28.2554 -0.155 -0.292 0.944 225 208 178 0
-15.7311 -7.5995 -27.9717 -0.155 -0.301 0.941 225 206 174 0
-8.3827 -4.4894 -26.0168 -0.008 -1.000 -0.017 228 207 170 0
-3.5365 -4.4998 -25.0538 0.012 -0.997 -0.079 230 208 171 0
-17.6606 -2.4071 -27.5340 0.359 -0.430 0.829 233 211 174 0
-18.8271 -1.8500 -27.6780 -0.003 -0.719 0.695 231 210 173 0
-36.8916 2.0836 -30.6511 0.051 -0.965 0.257 227 209 170 0
-11.6758 5.3208 -25.1196 0.556 -0.308 -0.772 238 220 183 0
-23.4264 10.3367 -26.6647 0.284 -0.151 0.947 243 223 186 0
-18.8781 31.7767 -22.3661 0.029 -0.738 0.675 240 221 189 0
-15.1805 31.1026 -21.7368 0.898 -0.373 -0.232 238 222 189 0
-19.0988 33.4269 -22.1488 -0.136 -0.529 0.837 236 220 187 0
-18.4830 33.4421 -22.0238 -0.141 -0.585 0.799 235 219 185 0
-18.0308 33.7823 -21.8800 -0.151 -0.559 0.816 237 219 183 0
-17.4545 33.8089 -21.7611 -0.104 -0.477 0.873 238 219 182 0
-15.3467 33.4635 -21.3962 0.006 -0.837 0.547 236 215 178 0
-17.0681 34.4324 -21.5855 -0.256 -0.691 0.676 230 209 171 0
-13.4442 34.2066 -20.8999 -0.131 -0.512 0.849 176 135 105 0
-12.8222 34.1975 -20.7775 -0.119 -0.559 0.821 174 133 103 0
-12.3231 35.5142 -20.4698 0.094 -0.500 0.861 172 124 101 0
-11.9408 36.6287 -20.2173 0.225 0.010 0.974 161 111 90 0
-11.8637 36.8516 -20.1667 0.297 -0.004 0.955 156 108 86 0
-11.1352 36.7795 -20.0331 0.505 -0.573 0.645 158 110 87 0
-10.9265 36.9413 -19.9659 0.463 -0.681 0.568 159 109 87 0
-11.0280 37.2445 -19.9381 0.311 -0.759 0.572 158 108 86 0
-11.6357 37.7812 -19.9741 0.541 0.449 0.711 160 109 88 0
-7.1048 37.7070 -19.0841 0.827 -0.174 0.535 152 94 75 0
-7.0243 37.9213 -19.0341 0.891 -0.227 0.394 156 95 77 0
-6.8953 38.1124 -18.9782 0.991 -0.122 0.054 159 97 80 0
-6.9874 38.4102 -18.9494 0.993 -0.098 0.062 161 99 84 0
-6.9027 38.6230 -18.8988 0.994 -0.082 0.075 154 93 77 0
-6.8905 38.8712 -18.8571 0.993 -0.091 0.070 150 89 73 0
-8.1085 40.2379 -18.8833 0.287 -0.821 0.494 149 91 74 0
-8.1377 40.5109 -18.8459 0.288 -0.783 0.551 149 91 76 0
-8.0623 40.7324 -18.7958 0.289 -0.771 0.568 147 89 75 0
-8.6832 41.3026 -18.8292 0.340 -0.484 0.806 144 85 73 0
-7.1049 42.8467 -18.2706 0.825 -0.559 -0.089 154 92 77 0
-7.5281 43.8559 -18.1951 0.844 -0.354 0.402 160 94 78 0
-7.4321 49.1659 -17.3356 0.393 -0.912 0.118 227 206 168 0
12.8988 48.8034 -13.3462 0.871 -0.284 -0.401 224 213 181 0
13.2466 49.0535 -13.2374 0.819 -0.416 -0.395 223 212 180 0
16.1566 47.7479 -12.8648 0.390 -0.909 0.147 222 210 179 0
16.6085 47.6689 -12.7874 0.632 -0.675 0.380 223 209 180 0
16.6744 47.8611 -12.7438 0.431 -0.834 0.345 222 208 180 0
17.1063 48.0321 -12.6308 0.557 -0.629 0.542 220 207 180 0
6.3949 66.1501 -11.8953 0.981 -0.154 -0.120 218 200 167 0
30.1110 59.8682 -8.1690 0.657 0.528 0.538 204 182 143 0
18.2385 75.1941 -8.1065 0.676 0.610 0.413 200 176 139 0
29.4014 67.1787 -7.1532 0.427 -0.573 0.700 199 173 137 0
30.0641 66.9957 -7.0503 0.565 -0.821 -0.085 196 170 135 0
30.5054 68.0872 -6.7897 0.141 -0.729 0.670 197 168 138 0
28.5658 71.8147 -6.5858 -0.008 -0.210 0.978 191 166 130 0
27.7595 72.9814 -6.5616 0.799 -0.188 -0.571 189 165 128 0
34.7566 67.7601 -5.9952 0.847 -0.475 -0.237 187 164 123 0
34.8725 67.8844 -5.9525 0.936 -0.212 -0.281 186 163 122 0
34.6513 68.3962 -5.9155 0.645 -0.735 0.208 186 163 122 0
32.1014 72.1334 -5.8316 0.054 -0.155 0.986 185 160 120 0
-3.5822 -9.8148 -26.0978 0.962 -0.259 -0.092 228 207 175 0
-33.4623 2.1097 -30.2168 -0.072 -0.997 -0.018 234 213 174 0
-22.5243 9.0294 -26.9318 0.824 -0.515 -0.234 239 221 185 0
-22.1841 9.1883 -26.8385 0.779 -0.610 -0.146 241 222 186 0
-22.0474 9.3887 -26.7795 0.780 -0.431 -0.453 244 224 188 0
-21.6541 9.5352 -26.6775 0.833 -0.536 -0.141 243 223 186 0
-23.5991 10.1747 -26.9672 0.484 -0.866 -0.127 243 223 186 0
-23.2604 10.3349 -26.8740 0.361 -0.933 0.001 244 224 188 0
-22.6546 10.4368 -26.7363 0.415 -0.855 0.309 246 226 191 0
-18.9373 31.3321 -22.6996 0.365 -0.662 0.655 238 223 190 0
-19.2523 31.7123 -22.7030 0.420 -0.564 0.711 238 222 189 0
-18.6595 31.7425 -22.5792 0.010 -0.810 0.586 237 221 188 0
-15.0996 31.1204 -21.9627 0.917 -0.379 -0.123 237 221 188 0
-15.3276 31.4637 -21.9545 0.893 -0.424 -0.148 238 220 188 0
-15.4463 33.5563 -21.6487 0.548 -0.094 0.831 215 186 150 0
-15.3746 33.7842 -21.5984 0.513 -0.114 0.850 197 168 132 0
-15.3527 34.0329 -21.5549 0.482 -0.521 0.704 185 154 118 0
-12.9702 34.0578 -21.0728 -0.208 -0.873 0.442 180 135 105 0
-7.0510 37.7365 -19.3055 0.802 -0.169 0.573 150 89 72 0
-6.9477 38.1931 -19.2129 0.861 -0.242 0.448 155 93 78 0
-6.9629 38.4541 -19.1748 0.921 -0.215 0.324 158 96 82 0
-6.9372 38.6957 -19.1316 0.800 -0.093 0.592 148 86 73 0
-8.0983 41.0679 -18.9911 0.726 -0.586 0.359 141 78 69 0
-7.1324 43.1828 -18.4642 0.852 -0.492 -0.180 151 88 74 0
-7.1619 43.4606 -18.4263 0.895 -0.447 0.013 155 91 76 0
-7.3759 43.8364 -18.4101 0.861 -0.325 0.392 156 90 76 0
-6.8526 44.3493 -18.2243 0.933 -0.302 0.196 159 93 79 0
-6.5362 44.7071 -18.1044 0.815 -0.575 -0.063 159 96 81 0
-6.4898 44.9461 -18.0575 0.844 -0.528 -0.094 157 96 81 0
-8.9462 48.7240 -17.9555 0.569 0.285 0.771 175 128 100 0
-8.8951 48.9695 -17.9066 0.924 -0.078 -0.375 178 133 105 0
-7.5374 49.2922 -17.5833 0.398 -0.901 0.174 209 183 145 0
-6.8556 49.4452 -17.4224 0.766 -0.634 -0.108 225 202 162 0
-6.7516 49.6576 -17.3680 0.851 -0.521 0.063 226 207 168 0
-6.7325 49.9195 -17.3230 0.825 -0.553 0.114 228 206 175 0
-6.5040 50.0592 -17.2551 0.807 -0.507 -0.303 226 207 175 0
-6.3046 50.2154 -17.1905 0.857 -0.415 -0.304 224 208 175 0
-4.7989 50.6845 -16.8144 0.826 -0.521 -0.214 224 209 179 0
-4.3166 50.6665 -16.7205 0.911 -0.354 -0.213 225 209 180 0
13.6042 48.3821 -13.4836 0.929 -0.035 0.368 223 212 181 0
12.8137 49.1740 -13.5175 0.985 0.172 -0.003 222 211 180 0
15.4208 47.8479 -13.2031 0.342 -0.860 0.379 222 211 179 0
17.6504 46.7622 -12.9266 0.869 -0.324 -0.374 222 210 179 0
17.7352 46.9384 -12.8818 0.869 -0.324 -0.374 224 210 182 0
16.7484 47.8736 -12.9326 0.525 -0.746 0.409 223 209 182 0
17.2098 53.1338 -12.0116 0.693 0.370 0.619 221 204 174 0
12.3549 59.2358 -12.0250 0.588 -0.544 -0.598 220 201 169 0
6.1649 66.1348 -12.1809 0.727 -0.410 0.551 216 201 169 0
22.5284 56.2644 -10.4512 -0.248 -0.464 0.851 212 193 159 0
32.5288 57.3432 -8.2742 0.557 0.466 0.688 204 182 145 0
28.7468 62.0357 -8.2943 0.472 0.300 0.829 202 178 140 0
26.3210 66.2597 -8.1159 0.620 0.623 0.477 201 180 141 0
22.4829 72.3538 -7.9265 0.660 -0.120 0.742 198 176 135 0
30.1416 68.3092 -7.0264 0.719 -0.194 0.667 193 166 136 0
30.7765 67.8820 -6.9662 0.213 -0.582 0.785 194 166 137 0
28.1313 72.6636 -6.7441 0.984 0.020 -0.175 188 164 131 0
27.9814 73.1050 -6.7047 0.905 0.100 -0.414 188 164 129 0
