ply
format ascii 1.0
element vertex 830
property float x
property float y
property float z
property float nx
property float ny
property float nz
property uchar diffuse_red
property uchar diffuse_green
property uchar diffuse_blue
property uchar class
end_header
-13.4065 34.4122 -20.7787 -0.210 -0.870 0.446 182 140 114 0
-11.4362 37.6315 -19.9493 0.535 0.186 0.824 159 107 87 0
-11.5589 37.9539 -19.9272 0.549 0.199 0.812 162 110 90 0
-11.5535 38.2136 -19.8895 0.679 0.151 0.719 165 112 92 0
-8.0787 39.5778 -19.0352 0.694 -0.347 0.630 143 83 72 0
-8.1870 39.8957 -19.0110 0.695 -0.299 0.654 142 82 70 0
-8.6214 41.7071 -18.8382 0.724 0.053 0.688 140 80 68 0
-8.3977 42.3827 -18.7003 0.293 -0.530 0.796 149 87 72 0
-9.2340 48.0260 -18.0636 0.806 -0.563 0.183 159 113 85 0
-9.2306 48.3021 -18.0240 0.858 -0.503 0.102 166 121 92 0
-6.6320 54.0131 -16.7234 0.477 -0.815 -0.328 225 209 183 0
20.7692 48.3900 -12.2975 0.647 0.646 0.404 216 201 170 0
20.4308 49.1478 -12.2551 0.785 0.602 0.148 217 200 172 0
-3.1701 85.1924 -11.6659 0.692 -0.541 -0.478 204 184 151 0
23.9431 61.2905 -9.8733 0.953 -0.235 -0.189 203 181 148 0
22.7782 62.7072 -9.8953 0.853 0.171 -0.494 204 182 146 0
23.5498 62.2131 -9.8180 0.947 0.247 -0.207 203 181 145 0
26.3224 61.8239 -9.3448 0.527 -0.768 -0.364 200 177 145 0
26.4657 61.9422 -9.3008 0.532 -0.768 -0.357 200 177 145 0
26.5653 62.1050 -9.2589 0.196 -0.964 -0.180 200 178 143 0
32.2591 60.5297 -8.3966 0.019 -0.996 -0.085 195 171 133 0
30.7704 62.4033 -8.4159 -0.043 -0.999 -0.017 195 170 135 0
24.0394 73.7630 -8.0955 0.939 -0.330 0.097 187 163 127 0
22.5675 76.6345 -7.9708 0.229 -0.490 0.841 187 161 128 0
19.4713 83.0350 -7.6577 0.441 -0.842 -0.312 178 156 117 0
20.0717 83.2802 -7.5088 0.208 -0.930 -0.303 177 155 116 0
20.2204 83.4221 -7.4605 0.224 -0.934 -0.279 176 155 116 0
20.3866 83.5425 -7.4118 0.300 -0.903 -0.307 175 155 116 0
29.6297 74.1822 -6.9716 0.117 -0.940 -0.321 171 151 114 0
38.2365 66.0133 -6.4846 0.966 0.129 -0.223 163 139 98 0
31.0058 75.6737 -6.4991 0.664 -0.745 -0.054 163 140 99 0
31.2755 75.6246 -6.4547 0.783 -0.621 0.026 163 138 98 0
32.7363 76.0866 -6.1113 0.935 -0.223 -0.277 154 128 93 0
32.7916 76.3069 -6.0697 0.931 -0.253 -0.263 153 127 92 0
-8.0304 -10.4309 -26.2763 0.982 -0.021 -0.189 255 255 255 0
-7.9516 -10.2613 -26.2374 0.979 -0.112 -0.168 254 254 254 0
-7.9081 -10.0883 -26.2048 0.963 -0.189 -0.190 133 133 133 0
2.9270 -8.1897 -23.8572 -0.010 -0.997 0.078 225 206 176 0
6.0008 -8.2476 -23.2749 -0.012 -0.995 0.095 224 205 174 0
-18.0766 -1.5754 -26.9643 0.845 -0.334 0.418 228 210 174 0
-18.0433 -1.3760 -26.9300 0.860 -0.318 0.400 228 211 177 0
-18.2439 -1.1394 -26.9353 0.865 -0.464 0.191 229 211 178 0
-18.0156 -0.1467 -26.7523 -0.113 -0.943 0.312 227 211 177 0
-31.5227 12.0418 -27.6377 0.914 -0.339 0.221 238 224 185 0
-31.4286 12.2641 -27.5885 0.827 -0.534 0.179 238 224 186 0
-23.1254 10.7335 -26.2082 0.218 -0.963 -0.161 240 225 189 0
-22.9305 10.9169 -26.1450 0.788 -0.202 0.582 242 226 192 0
-23.2340 11.2231 -26.1604 0.651 -0.681 -0.336 243 227 194 0
5.8615 19.6816 -19.3854 0.632 -0.473 0.613 241 226 196 0
-16.3619 30.3609 -22.1568 0.017 -0.836 0.549 237 224 191 0
-21.8542 33.7094 -22.7423 0.008 -0.407 0.913 234 222 187 0
-20.9950 33.8796 -22.5534 0.022 -0.308 0.951 233 218 186 0
-14.7946 34.0565 -21.3376 0.839 -0.270 0.471 183 148 118 0
-8.2897 37.9243 -19.5457 0.769 -0.085 0.633 150 92 75 0
-7.8479 39.5101 -19.2385 0.668 -0.371 0.645 143 78 68 0
-7.9206 40.0702 -19.1739 0.697 -0.212 0.684 148 82 73 0
-7.7856 41.0472 -19.0110 0.835 -0.058 0.547 142 78 68 0
-7.7894 42.3709 -18.8261 0.292 -0.521 0.802 145 82 67 0
-8.4083 48.7071 -18.0565 0.730 -0.597 -0.333 163 116 93 0
-8.0572 48.7736 -17.9798 0.934 -0.324 -0.148 170 124 100 0
-7.9779 49.0037 -17.9323 0.792 -0.432 -0.432 174 131 104 0
-4.0017 52.6296 -16.6600 0.599 -0.207 -0.774 223 209 182 0
8.9197 46.5981 -15.0238 0.269 -0.876 -0.401 224 211 183 0
11.0399 69.8484 -11.3563 0.779 -0.565 -0.272 204 186 153 0
9.8479 71.2727 -11.3856 0.687 -0.706 -0.170 205 188 153 0
8.9567 72.7263 -11.3529 0.424 -0.904 -0.052 203 186 152 0
23.9014 61.4102 -10.0690 0.700 0.209 0.683 201 183 149 0
22.6931 62.8714 -10.0962 0.866 0.239 -0.439 201 182 148 0
26.3128 62.1788 -9.4980 0.591 -0.758 -0.276 201 178 146 0
26.1595 62.6022 -9.4681 0.475 -0.768 -0.429 198 178 144 0
32.2463 60.6233 -8.5764 0.021 -0.992 -0.121 192 169 131 0
23.9156 73.9976 -8.3012 0.922 -0.381 0.069 187 163 127 0
23.5302 74.7315 -8.2724 0.140 -0.234 0.962 186 162 126 0
19.5917 82.9968 -7.8699 0.287 -0.942 -0.175 178 156 116 0
20.2294 83.5162 -7.6746 0.516 -0.838 -0.177 177 154 117 0
38.0050 65.3395 -6.8089 0.902 0.347 0.256 171 146 109 0
38.1338 65.9673 -6.6961 0.823 0.537 0.187 164 138 102 0
38.2619 66.0701 -6.6571 0.915 0.188 -0.357 163 137 100 0
31.2089 75.8079 -6.6464 0.805 -0.592 0.029 161 136 98 0
33.2775 76.0653 -6.2130 0.994 0.104 0.037 151 125 91 0
-9.5715 -10.4533 -26.7742 0.967 0.176 -0.185 255 255 255 0
-8.0323 -10.4162 -26.4708 0.974 -0.153 -0.165 255 255 255 0
-7.9839 -10.2436 -26.4374 0.979 -0.112 -0.168 254 254 254 0
-7.9474 -10.0697 -26.4061 0.961 -0.202 -0.189 133 134 133 0
5.7289 -8.1980 -23.4960 -0.062 -0.984 0.165 224 205 172 0
7.3599 -8.2457 -23.1867 -0.061 -0.984 0.166 224 205 172 0
-23.6335 -0.2626 -28.0777 0.218 -0.789 0.575 230 211 177 0
-11.6033 0.1860 -25.6848 0.970 0.242 -0.010 233 215 179 0
-31.4370 12.0530 -27.8728 0.937 -0.211 0.279 238 223 186 0
-30.9223 12.1743 -27.7561 0.991 -0.133 -0.003 239 225 188 0
-23.5999 10.8794 -26.5182 0.662 -0.687 -0.300 241 226 191 0
-23.0671 10.9808 -26.4009 0.809 -0.298 0.507 243 227 194 0
-11.7105 27.4950 -21.8993 0.206 -0.568 0.797 236 226 198 0
-21.7470 33.4444 -23.0142 -0.101 -0.740 0.665 233 220 186 0
-14.3615 34.1688 -21.4826 0.735 -0.521 0.434 184 142 114 0
-12.4007 34.0480 -21.1196 -0.226 -0.889 0.398 189 141 110 0
-9.0087 34.7510 -20.3646 0.610 -0.561 0.560 164 108 84 0
-9.0096 35.0050 -20.3293 0.602 -0.546 0.583 165 107 86 0
-8.1272 37.8935 -19.7558 0.746 -0.047 0.664 149 87 72 0
-7.6628 39.4663 -19.4466 0.675 -0.366 0.641 141 72 64 0
-8.0742 42.3175 -19.1289 0.930 0.012 0.367 140 75 65 0
-8.0289 42.5588 -19.0865 0.264 -0.309 0.914 138 74 61 0
-7.3103 48.6607 -18.0968 0.457 -0.055 0.888 158 111 90 0
-7.0550 48.7823 -18.0304 0.422 -0.096 0.902 164 119 95 0
-6.1650 52.1373 -17.3904 0.628 -0.764 -0.146 221 206 177 0
-5.8031 54.1718 -17.0368 0.587 -0.542 -0.602 222 209 182 0
-3.2606 73.7787 -13.8114 0.059 -0.247 0.967 213 198 167 0
22.0589 54.3736 -11.6115 0.763 -0.326 -0.558 207 194 159 0
21.3298 55.2724 -11.6275 0.735 -0.469 -0.490 206 194 161 0
24.8525 60.2875 -10.2461 0.611 -0.047 0.790 198 181 147 0
26.0196 62.8267 -9.6661 0.303 -0.924 -0.234 198 177 145 0
5.4544 85.9985 -10.4201 0.276 -0.577 0.769 197 177 140 0
6.6290 91.9802 -9.3588 0.916 0.194 -0.350 188 165 132 0
23.7271 74.3061 -8.5102 0.943 -0.325 0.064 187 163 129 0
39.2355 63.8981 -6.9568 0.769 0.432 0.471 172 146 110 0
39.0193 64.4257 -6.9251 0.742 0.465 0.484 172 144 110 0
37.7965 66.4790 -6.8758 0.818 0.526 0.232 165 138 104 0
35.0616 72.9799 -6.4995 0.856 0.450 -0.253 155 129 97 0
-7.8948 -10.4143 -26.6402 0.977 -0.031 -0.211 255 255 255 0
-8.0309 -10.2245 -26.6405 0.974 -0.153 -0.165 255 255 255 0
-7.9830 -10.0515 -26.6072 0.961 -0.202 -0.189 133 133 133 0
-7.8241 -9.3553 -26.4797 0.959 -0.215 -0.185 228 206 175 0
6.2788 -8.2526 -23.5722 -0.056 -0.989 0.135 225 206 174 0
9.5710 -8.3587 -22.9438 -0.059 -0.990 0.131 224 205 173 0
14.9726 -8.6176 -21.9246 -0.122 -0.931 0.343 226 207 174 0
-24.2254 -0.7908 -28.4968 0.328 -0.824 0.462 224 209 174 0
-23.8608 -0.6330 -28.4037 0.329 -0.816 0.476 226 210 176 0
-23.1841 -0.0977 -28.1974 0.734 -0.562 0.382 230 212 176 0
-23.0656 11.0109 -26.6353 0.804 -0.310 0.507 242 228 193 0
-0.0910 21.4872 -20.6963 0.687 0.362 0.630 239 228 196 0
-18.7482 31.7047 -22.9251 0.022 -0.977 0.210 232 221 187 0
-20.0992 33.5932 -22.9273 -0.234 -0.555 0.798 231 214 181 0
-14.4161 33.9830 -21.7632 0.724 -0.301 0.620 196 150 125 0
-7.8509 41.4561 -19.4455 0.498 -0.142 0.856 139 70 63 0
-8.0617 42.3666 -19.3606 0.681 -0.259 0.685 141 73 64 0
-7.5828 42.3693 -19.2667 0.274 -0.314 0.909 140 72 60 0
-5.5565 43.3558 -18.7342 0.875 -0.303 0.378 140 75 64 0
-5.4957 43.5861 -18.6904 0.875 -0.303 0.378 144 77 65 0
-5.3669 44.0432 -18.6019 0.868 -0.288 0.405 139 75 64 0
-5.1288 46.3141 -18.2408 0.580 0.063 0.812 140 90 75 0
-6.6796 48.6155 -18.2249 0.411 -0.092 0.907 150 104 82 0
-14.0844 56.4003 -18.5927 0.148 0.181 0.972 223 204 174 0
-15.8852 58.1577 -18.7010 0.156 0.196 0.968 221 203 173 0
-2.0367 73.7785 -13.8319 0.366 -0.739 0.565 208 195 163 0
-1.7823 73.8789 -13.7683 0.344 -0.767 0.542 209 195 163 0
6.8055 71.8487 -12.3721 0.900 -0.149 0.411 205 188 158 0
4.5097 75.2273 -12.3525 0.300 -0.946 -0.124 203 186 156 0
14.4930 72.3502 -10.8011 0.630 -0.759 0.161 197 178 146 0
3.7610 87.8792 -10.7460 0.463 -0.879 0.116 198 176 140 0
23.3462 76.9318 -8.4371 0.749 0.612 -0.256 183 158 127 0
11.1804 92.1233 -8.7088 0.765 0.609 -0.209 179 154 123 0
38.1043 66.4465 -7.0070 0.762 0.354 0.542 163 136 102 0
-7.9391 -10.3956 -26.8428 0.977 -0.041 -0.211 255 255 255 0
-8.0621 -10.2068 -26.8410 0.974 -0.153 -0.165 255 255 255 0
-8.0187 -10.0333 -26.8086 0.961 -0.202 -0.189 133 133 133 0
-7.8878 -9.3335 -26.6865 0.963 -0.207 -0.174 228 206 175 0
-18.6945 -3.0522 -27.9499 0.083 -0.465 0.882 229 207 173 0
-28.3893 -0.3480 -29.4870 0.028 -0.995 -0.096 227 211 176 0
-11.4241 26.9775 -22.3830 0.343 -0.865 0.367 236 223 196 0
-14.1580 28.8290 -22.6665 0.563 -0.323 0.760 234 222 191 0
-12.4046 33.8903 -21.6242 0.304 -0.951 -0.059 193 140 109 0
-8.1760 35.9700 -20.5050 0.660 -0.675 0.329 146 88 72 0
-7.6871 35.9830 -20.4070 0.419 -0.614 0.669 143 84 68 0
-7.5905 36.6988 -20.2894 0.734 -0.339 0.588 147 88 72 0
-7.7608 41.9920 -19.5940 0.656 0.043 0.753 138 70 62 0
-7.5151 42.3880 -19.4911 0.633 -0.346 0.692 140 73 64 0
-5.2666 43.2476 -18.9299 0.795 -0.468 0.386 139 72 62 0
-12.3098 55.3386 -18.6522 0.124 0.105 0.987 227 203 172 0
-13.7445 56.5530 -18.7675 0.099 0.141 0.985 223 201 170 0
-6.8987 54.4581 -17.7077 0.465 -0.639 -0.613 222 208 182 0
-3.1731 73.2362 -14.3882 0.948 -0.298 -0.114 213 197 166 0
-3.0994 73.4948 -14.3381 0.914 -0.396 -0.084 212 197 166 0
-3.0402 73.7661 -14.2891 0.892 -0.452 0.023 213 198 167 0
-2.3298 73.4776 -14.1889 0.151 -0.958 0.245 212 197 166 0
1.5137 71.4154 -13.7159 0.304 -0.934 0.186 210 193 163 0
14.5399 72.3929 -11.0158 0.618 -0.775 0.135 196 178 146 0
5.5089 86.1493 -10.9002 0.558 -0.248 0.792 196 175 141 0
8.1033 90.8975 -9.7354 0.702 -0.075 0.709 187 163 134 0
13.3818 89.3094 -8.9145 0.764 0.607 -0.219 180 156 123 0
10.7620 95.1990 -8.6195 0.143 -0.058 0.988 176 153 119 0
10.2635 96.1556 -8.5859 0.242 0.065 0.968 176 153 119 0
28.5716 75.5713 -7.8145 -0.023 -0.411 0.911 173 149 116 0
27.2176 77.5269 -7.8119 0.107 -0.606 0.788 173 150 116 0
38.4832 65.5319 -7.2448 0.658 0.387 0.646 171 144 111 0
36.6063 70.6132 -6.9148 0.200 -0.637 0.744 155 131 95 0
-9.5444 -10.4117 -27.3605 0.925 -0.308 -0.224 255 255 255 0
-8.1296 -10.3633 -27.0730 0.983 -0.035 -0.181 255 255 255 0
-8.0989 -10.1886 -27.0430 0.976 -0.111 -0.188 255 255 255 0
-8.0487 -10.0156 -27.0093 0.962 -0.191 -0.196 133 133 133 0
-7.8842 -9.3186 -26.8813 0.963 -0.206 -0.176 227 205 174 0
13.8465 -8.7363 -22.4864 -0.107 -0.928 0.356 230 206 178 0
0.3418 21.6092 -21.0152 0.567 0.167 0.807 238 224 198 0
-19.0249 31.3911 -23.5222 -0.029 -0.812 0.583 235 221 190 0
-11.6410 33.5888 -21.7552 0.071 -0.612 0.788 178 119 91 0
-9.4861 33.1026 -21.3938 0.090 -0.987 0.135 172 107 84 0
-7.9640 34.9016 -20.8453 0.353 -0.521 0.777 148 86 72 0
-6.7911 39.4268 -19.9931 0.723 -0.480 0.497 141 67 63 0
-5.1957 43.2642 -19.1512 0.782 -0.447 0.434 139 69 61 0
-5.2231 43.5446 -19.1182 0.869 -0.308 0.386 146 75 66 0
-10.8476 54.4741 -18.7394 0.119 -0.050 0.992 213 184 152 0
-11.6374 55.2731 -18.7869 0.134 0.136 0.982 224 197 166 0
-3.1635 73.6375 -14.5909 0.934 -0.342 -0.104 211 196 167 0
-2.9021 73.7358 -14.5255 0.879 -0.474 0.060 212 196 167 0
14.8141 72.2071 -11.2167 0.570 -0.753 0.330 194 177 147 0
15.0098 72.3100 -11.1638 0.639 -0.732 0.237 192 175 145 0
20.9917 75.5828 -9.5280 0.037 -0.377 0.926 187 161 134 0
31.5898 65.8918 -8.7498 0.426 0.026 0.904 185 160 130 0
31.3798 66.6737 -8.6844 0.323 -0.083 0.943 185 161 133 0
5.5416 98.9830 -9.3936 0.765 0.610 -0.206 181 155 124 0
12.1669 92.9271 -8.9068 0.130 -0.012 0.991 177 154 121 0
11.6197 93.9326 -8.8778 0.213 0.049 0.976 177 154 120 0
11.3691 94.5865 -8.8381 0.203 0.029 0.979 177 154 120 0
11.9750 94.5637 -8.7209 0.167 0.020 0.986 172 152 117 0
11.2708 95.7718 -8.6954 0.189 -0.064 0.980 171 151 116 0
27.0571 77.8240 -8.0169 0.271 -0.211 0.939 172 149 117 0
39.0519 64.6466 -7.4384 0.724 0.431 0.539 171 145 113 0
34.8786 73.2248 -7.0931 0.861 0.501 -0.083 154 130 93 0
33.0244 76.2129 -7.0524 0.855 0.511 -0.087 152 128 90 0
33.7254 75.5888 -6.9986 0.897 0.399 0.193 151 127 89 0
-9.5879 -10.3930 -27.5663 0.925 -0.308 -0.224 255 255 255 0
-8.1662 -10.3453 -27.2751 0.983 -0.035 -0.181 255 255 255 0
-8.1206 -10.1718 -27.2424 0.983 -0.004 -0.185 255 255 255 0
-8.0863 -9.9971 -27.2118 0.962 -0.191 -0.196 133 133 133 0
7.0709 -8.3079 -23.9475 -0.043 -0.988 0.149 228 205 179 0
-33.5843 0.0328 -30.9524 0.016 -0.948 -0.317 227 209 176 0
-29.7566 -0.0936 -30.2032 0.060 -0.964 -0.259 229 210 177 0
-20.3544 -0.6954 -28.4027 -0.065 -0.674 0.735 231 209 175 0
-18.5783 9.5493 -26.6538 0.709 -0.688 -0.155 245 229 192 0
-18.5153 9.7575 -26.6129 0.672 -0.704 -0.229 245 229 192 0
-16.2577 27.7575 -23.7127 0.870 -0.429 0.243 237 224 196 0
-16.5119 28.1095 -23.7157 0.854 -0.521 -0.012 239 225 198 0
-21.2924 30.7914 -24.3080 0.877 -0.479 -0.040 237 223 196 0
-19.3972 30.2881 -23.9970 0.617 -0.638 0.461 237 223 194 0
-6.8251 38.7214 -20.3330 0.753 -0.466 0.464 144 71 65 0
-6.7414 39.4540 -20.2166 0.707 -0.477 0.523 145 70 65 0
-7.4661 41.9423 -20.0233 0.399 -0.002 0.917 142 73 62 0
-5.2043 43.3262 -19.3822 0.750 -0.347 0.563 142 71 63 0
-5.4401 43.7263 -19.3750 0.663 -0.498 0.559 148 75 68 0
-4.0105 45.5559 -18.8400 0.892 -0.443 0.092 131 68 61 0
-10.2625 54.4601 -18.8806 0.158 0.131 0.979 193 160 132 0
-15.3729 60.1942 -19.1238 0.277 0.308 0.910 220 206 180 0
-4.4200 54.6583 -17.6839 0.850 -0.212 -0.482 222 208 181 0
-4.3642 54.9062 -17.6390 0.843 -0.285 -0.456 221 208 181 0
26.9282 54.2509 -11.4634 0.579 -0.696 -0.425 204 184 157 0
14.9559 72.4543 -11.3844 0.371 -0.840 0.397 192 176 146 0
23.7940 71.0959 -9.7997 0.839 0.422 0.342 185 164 131 0
21.9389 74.3221 -9.7323 -0.228 -0.519 0.824 186 163 131 0
12.0209 94.9793 -8.9083 0.337 -0.102 0.936 171 149 116 0
27.4307 77.4652 -8.2053 0.271 -0.211 0.939 170 146 116 0
38.2898 67.8154 -7.3438 0.749 0.004 0.662 157 132 94 0
35.7039 71.4103 -7.3726 0.837 0.276 -0.471 158 133 93 0
32.7120 76.7215 -7.2492 0.851 0.512 -0.117 150 126 88 0
33.3300 78.2728 -6.9145 1.000 -0.005 0.010 254 255 255 0
-9.6401 -10.3735 -27.7740 0.942 -0.249 -0.225 255 255 255 0
-8.1870 -10.3287 -27.4747 0.981 -0.033 -0.190 255 255 255 0
-8.1436 -10.1549 -27.4424 0.987 -0.007 -0.161 255 255 255 0
-8.1240 -9.9786 -27.4146 0.962 -0.191 -0.196 133 133 133 0
5.9989 -8.4787 -24.3615 -0.066 -0.370 0.927 227 208 178 0
5.9641 -8.3133 -24.3461 -0.083 -0.424 0.902 228 209 179 0
5.5537 -8.0998 -24.4001 0.135 -0.963 0.234 229 207 181 0
-43.7256 0.3516 -33.2038 0.716 -0.037 0.697 227 208 178 0
-21.8495 10.1443 -27.4649 -0.170 -0.971 -0.168 246 228 194 0
-18.5869 9.5806 -26.8826 0.713 -0.685 -0.152 246 228 194 0
-16.4156 27.8632 -23.9732 0.795 -0.602 -0.079 236 225 197 0
-16.2248 28.0393 -23.9109 0.832 -0.549 -0.086 236 224 196 0
-19.4005 29.5574 -24.3466 0.863 -0.294 -0.411 237 224 197 0
-18.5659 29.4817 -24.1884 0.928 -0.235 -0.289 236 222 195 0
-19.6103 30.1599 -24.3075 0.502 -0.749 0.433 236 222 195 0
-18.9496 30.1524 -24.1752 0.358 -0.875 0.327 236 222 193 0
-17.3344 29.7544 -23.9030 0.750 -0.639 0.172 234 221 191 0
-18.3434 30.4233 -24.0162 0.428 -0.733 0.529 234 221 189 0
-18.0761 30.8311 -23.9072 -0.061 -0.843 0.535 234 218 187 0
-17.5827 30.8854 -23.8002 -0.062 -0.839 0.540 233 217 186 0
-16.9905 30.8970 -23.6791 -0.063 -0.864 0.499 234 216 186 0
-7.0611 38.8977 -20.5937 0.743 -0.219 0.632 145 72 65 0
-6.6064 39.4360 -20.4291 0.709 -0.482 0.515 144 69 63 0
-6.3712 39.5705 -20.3635 0.709 -0.601 0.369 141 66 61 0
-6.1259 39.6990 -20.2966 0.683 -0.639 0.353 139 65 58 0
-4.9678 43.2481 -19.5831 0.757 -0.310 0.576 143 70 63 0
-5.2853 43.6950 -19.5868 0.663 -0.498 0.559 143 70 65 0
-4.2248 45.2078 -19.1683 0.726 -0.542 0.424 128 61 59 0
-4.1139 45.4092 -19.1187 0.773 -0.578 0.260 127 61 57 0
-3.9645 45.8554 -19.0282 0.908 -0.395 0.139 124 61 54 0
-3.8182 46.0356 -18.9743 0.902 -0.417 0.111 125 65 56 0
-9.1060 53.2075 -19.0722 0.089 -0.062 0.994 153 110 87 0
-14.3342 59.2729 -19.3075 0.222 0.296 0.929 220 205 176 0
22.3505 73.6611 -9.9587 -0.257 -0.520 0.814 185 165 130 0
9.7680 96.3876 -9.4263 0.122 -0.942 0.312 178 154 120 0
14.1874 92.8111 -9.0178 -0.031 -0.844 0.535 170 147 115 0
14.6727 92.5660 -8.9530 0.113 -0.765 0.634 170 147 116 0
38.4010 67.4961 -7.5525 0.748 0.056 0.661 157 131 96 0
38.4751 67.6691 -7.5142 0.746 0.026 0.666 157 131 95 0
35.8055 72.7791 -7.3622 0.761 -0.076 -0.644 152 126 89 0
33.3323 78.3733 -7.1053 1.000 -0.005 0.010 254 255 254 0
-10.5908 -10.2717 -28.1539 0.966 -0.162 -0.200 255 255 255 0
-8.2439 -10.3087 -27.6814 0.962 -0.191 -0.196 255 255 255 0
-8.2029 -10.1344 -27.6496 0.962 -0.191 -0.196 255 255 255 0
-8.1618 -9.9600 -27.6179 0.962 -0.191 -0.196 133 133 133 0
-8.1253 -9.2479 -27.5148 0.981 -0.105 -0.166 225 206 176 0
18.6168 -9.0395 -22.0458 -0.082 -0.886 0.456 227 208 178 0
-25.4094 -0.7137 -29.8851 -0.013 -1.000 0.009 228 211 177 0
-25.9549 10.9293 -28.4322 -0.198 -0.973 -0.116 246 227 195 0
-16.1958 28.0714 -24.1440 0.833 -0.546 -0.093 234 223 193 0
-19.3997 29.6022 -24.5903 0.913 -0.175 -0.369 235 222 194 0
-19.3047 29.8230 -24.5413 0.731 -0.680 -0.067 236 222 194 0
-17.6690 29.4227 -24.2623 0.453 -0.890 0.055 235 221 193 0
-7.4120 34.7820 -21.4555 0.941 -0.248 0.231 134 69 60 0
-6.7700 37.5113 -20.9583 0.557 -0.694 0.456 139 75 63 0
-6.4432 39.4030 -20.6377 0.708 -0.472 0.525 142 67 61 0
-6.2329 39.5505 -20.5751 0.718 -0.593 0.364 146 71 65 0
-6.0181 39.6951 -20.5120 0.683 -0.639 0.353 141 67 60 0
12.6840 72.4858 -12.3023 0.339 -0.941 -0.011 201 181 154 0
12.7049 73.0727 -12.2192 0.252 -0.963 0.095 198 179 152 0
22.2194 75.3936 -9.9717 0.040 -0.579 0.814 182 162 134 0
30.0953 70.0938 -9.0811 0.038 -0.399 0.916 179 152 123 0
10.1906 96.3577 -9.6031 0.063 -0.935 0.348 173 148 118 0
15.3424 91.8615 -9.1589 0.215 -0.831 0.514 172 146 116 0
38.8894 66.4302 -7.7840 0.644 0.323 0.693 167 138 108 0
38.5890 67.0793 -7.7579 0.526 0.025 0.850 160 133 103 0
-10.6306 -10.2532 -28.3616 0.966 -0.162 -0.200 255 255 255 0
-8.2016 -10.2979 -27.8694 0.979 -0.051 -0.200 255 255 255 0
-8.1857 -10.1213 -27.8426 0.981 -0.085 -0.176 255 255 255 0
-8.1905 -9.9423 -27.8197 0.978 -0.103 -0.183 133 133 133 0
-8.1171 -9.2334 -27.7100 0.979 -0.096 -0.182 225 206 176 0
-25.6087 -0.6608 -30.1532 -0.022 -0.999 0.025 229 210 177 0
-25.9040 10.9477 -28.6643 -0.200 -0.974 -0.109 245 226 194 0
-19.2019 29.3099 -24.8389 0.980 0.013 0.197 232 221 192 0
-19.5253 29.6974 -24.8535 0.952 -0.221 -0.211 233 220 191 0
-16.9299 29.4244 -24.3576 0.554 -0.829 0.083 233 219 190 0
-7.0812 34.6706 -21.6375 0.825 -0.554 -0.112 129 62 55 0
-7.6029 35.1771 -21.6769 0.863 -0.479 0.160 128 63 54 0
-6.4289 35.1059 -21.4456 0.848 -0.133 0.514 134 70 60 0
-6.1738 35.9877 -21.2756 0.720 -0.635 0.278 126 59 51 0
-5.9393 41.0095 -20.5572 0.522 -0.403 0.752 140 65 63 0
-4.0350 44.9461 -19.6412 0.552 -0.756 0.352 131 60 56 0
-4.0599 45.7635 -19.5372 0.635 -0.764 0.116 127 60 54 0
-3.7791 45.8633 -19.4663 0.710 -0.701 -0.072 125 59 54 0
0.1236 44.5566 -18.8403 0.786 -0.528 0.322 124 62 54 0
-4.9904 50.1592 -19.1413 0.332 0.289 0.898 141 92 78 0
-5.6672 51.1477 -19.1482 0.267 0.118 0.956 145 100 83 0
-10.9022 57.1516 -19.4205 0.221 0.282 0.934 221 204 175 0
-11.7558 58.0163 -19.4801 0.225 0.286 0.932 219 205 178 0
-12.6193 58.8926 -19.5403 0.219 0.281 0.935 219 205 179 0
-13.1248 59.5347 -19.5582 0.269 0.337 0.902 219 206 179 0
-6.2497 55.5225 -18.6837 0.408 -0.879 -0.249 218 208 179 0
-1.7296 53.8799 -17.9759 0.596 0.509 0.621 221 210 185 0
-2.9326 55.5599 -17.9984 0.778 -0.607 -0.159 221 209 182 0
21.3599 52.1892 -13.4662 0.776 0.329 -0.539 213 197 174 0
14.2518 74.0469 -12.0065 0.182 -0.951 0.250 194 177 147 0
5.0645 85.0938 -12.4163 0.803 0.590 0.089 195 177 147 0
13.9948 86.1156 -10.4484 0.578 0.031 0.816 178 158 126 0
38.0503 67.0539 -8.0590 0.704 0.205 0.680 168 138 110 0
38.8001 66.9001 -7.9258 0.517 0.029 0.855 163 136 107 0
33.2317 78.7161 -7.4907 0.995 0.098 -0.004 254 255 255 0
-10.6787 -10.2339 -28.5713 0.965 -0.159 -0.208 255 255 255 0
-8.2423 -10.2794 -28.0737 0.979 -0.051 -0.200 255 255 255 0
-8.2648 -10.0989 -28.0544 0.978 -0.120 -0.173 255 255 255 0
-8.2223 -9.9243 -28.0225 0.981 -0.082 -0.178 133 133 133 0
-8.2572 -9.2036 -27.9341 0.990 -0.058 -0.125 226 205 178 0
-9.2547 23.9772 -23.7396 0.194 -0.567 0.801 235 224 195 0
-0.5294 21.0492 -22.3242 0.955 -0.263 -0.138 237 225 197 0
-21.3145 29.9327 -25.4428 0.849 -0.261 0.459 234 222 196 0
-19.1974 29.3530 -25.0820 0.981 0.007 0.193 232 222 195 0
-16.2231 30.2020 -24.3546 -0.040 -0.860 0.508 232 210 183 0
-15.7089 30.2439 -24.2427 -0.040 -0.860 0.508 218 193 166 0
-7.2524 33.7982 -22.0232 0.879 -0.323 0.352 129 61 52 0
-7.0936 33.9725 -21.9672 0.866 -0.349 0.359 125 57 49 0
-7.0598 34.4579 -21.8958 0.730 -0.658 -0.184 125 57 51 0
-7.0434 34.7015 -21.8601 0.854 -0.504 -0.130 125 60 52 0
-6.2461 35.0655 -21.6470 0.845 -0.139 0.516 127 63 53 0
-6.3610 35.3740 -21.6299 0.761 -0.129 0.636 132 68 58 0
-6.6407 38.8366 -21.2285 0.758 -0.646 0.094 145 71 62 0
-4.0608 43.9561 -20.0161 0.908 -0.374 0.186 138 67 59 0
-0.1219 44.7652 -19.0946 0.835 -0.531 0.145 124 59 55 0
-2.5494 48.4053 -19.1136 0.397 -0.255 0.882 135 81 69 0
-4.1886 50.2687 -19.2053 0.499 0.394 0.772 140 93 77 0
-12.0133 58.8643 -19.6829 0.312 0.392 0.865 219 205 177 0
-11.7610 58.9991 -19.6129 0.418 0.463 0.782 218 205 176 0
15.5459 64.0714 -13.2951 0.944 -0.077 -0.321 202 188 160 0
23.8350 57.9552 -12.3927 0.345 0.180 0.921 201 185 159 0
23.9518 58.1050 -12.3487 0.291 0.067 0.954 201 185 158 0
5.6174 84.2866 -12.6665 0.810 0.586 0.037 197 176 148 0
4.5647 85.7148 -12.6947 0.816 0.577 0.041 196 177 147 0
39.4983 64.0055 -8.3523 0.739 0.578 0.347 168 142 111 0
36.7631 68.7770 -8.2849 0.839 -0.374 -0.397 166 136 108 0
39.0874 66.6229 -8.0901 0.517 0.029 0.855 165 138 108 0
33.2598 78.7828 -7.6821 0.999 0.008 -0.035 254 255 255 0
-8.2888 -10.2603 -28.2795 0.980 -0.058 -0.191 255 255 255 0
-8.2777 -10.0828 -28.2538 0.981 -0.082 -0.178 255 255 255 0
-8.2578 -9.9059 -28.2263 0.981 -0.082 -0.178 133 133 134 0
-8.2283 -9.7298 -28.1969 0.980 -0.107 -0.168 71 63 56 0
-1.0781 21.3008 -22.6179 0.957 -0.046 -0.286 235 223 198 0
-17.2068 28.8600 -24.9823 0.825 -0.523 -0.213 231 221 197 0
-18.3736 29.8424 -25.0960 0.346 -0.936 0.064 231 219 194 0
-6.6897 38.6566 -21.5000 0.783 -0.620 -0.050 139 65 56 0
-6.5340 38.8337 -21.4442 0.759 -0.645 0.088 143 68 59 0
-6.3875 39.0155 -21.3898 0.760 -0.645 0.078 150 73 65 0
-5.1751 41.2229 -20.8463 0.438 -0.552 0.710 151 78 72 0
-4.5171 42.1651 -20.5850 0.385 -0.743 0.547 148 74 70 0
-0.5149 44.8019 -19.4036 0.634 -0.733 0.248 123 56 51 0
-0.3909 44.9886 -19.3532 0.354 -0.758 0.547 123 57 52 0
-2.3050 48.0422 -19.3496 0.426 -0.257 0.867 127 68 57 0
-2.1713 48.2288 -19.2972 0.321 -0.327 0.889 128 70 59 0
-9.8063 57.1618 -19.7108 0.310 0.378 0.872 224 202 174 0
-10.7643 58.1008 -19.7866 0.312 0.392 0.865 222 204 175 0
-13.9997 61.5060 -20.0121 0.349 0.324 0.879 220 207 181 0
21.0822 52.3105 -13.9142 0.808 0.470 -0.355 211 199 173 0
34.4816 59.2336 -10.2100 -0.042 -0.994 0.104 189 170 140 0
36.7710 68.8593 -8.4645 0.849 -0.348 -0.399 167 137 109 0
27.8096 81.4725 -8.6695 0.327 0.019 0.945 161 135 101 0
-8.3239 -10.2423 -28.4834 0.979 -0.051 -0.200 255 255 255 0
-8.3133 -10.0645 -28.4579 0.981 -0.082 -0.178 255 255 255 0
-8.2934 -9.8875 -28.4305 0.981 -0.082 -0.178 133 133 133 0
-0.8842 21.0433 -22.8248 0.936 0.114 0.332 233 222 201 0
-16.7469 28.7203 -25.1508 0.991 0.061 -0.120 228 220 199 0
-7.3757 30.4836 -22.9520 0.575 -0.446 0.685 145 79 69 0
-7.2652 30.6788 -22.9032 0.601 -0.466 0.649 148 83 71 0
-6.5230 38.8811 -21.6734 0.783 -0.620 -0.050 144 69 61 0
-6.3319 39.0394 -21.6126 0.796 -0.596 0.105 150 73 64 0
-5.5331 38.8753 -21.4663 0.928 -0.347 0.136 150 71 63 0
-4.8719 40.8499 -21.0689 0.486 -0.272 0.831 152 79 70 0
-2.0548 45.5339 -19.8641 0.550 -0.809 -0.206 123 55 49 0
-0.3076 44.7343 -19.6019 0.333 -0.629 0.702 122 54 51 0
-1.9953 47.9091 -19.5406 0.440 -0.242 0.865 126 64 54 0
-2.0109 48.1895 -19.5072 0.150 -0.580 0.801 124 65 54 0
-11.1327 59.0240 -20.0041 0.279 0.332 0.901 221 203 177 0
-12.8776 61.1269 -20.0952 0.275 0.310 0.910 219 208 182 0
20.3204 53.2798 -14.1512 0.821 0.457 -0.342 210 198 172 0
23.0767 69.8225 -11.4064 0.469 -0.849 0.243 191 172 140 0
35.2286 58.9930 -10.2725 -0.109 -0.993 0.045 188 170 135 0
29.1239 80.8083 -8.6982 0.740 -0.448 0.502 153 127 92 0
-8.3683 -10.2233 -28.6895 0.981 -0.149 -0.126 255 255 255 0
-8.3489 -10.0462 -28.6624 0.981 -0.082 -0.178 255 255 255 0
-5.0883 39.2074 -21.5654 0.787 -0.533 0.312 150 72 62 0
-0.7657 45.8653 -19.7845 0.833 -0.450 0.321 129 59 54 0
-1.6730 47.7678 -19.7290 0.448 -0.222 0.866 124 59 50 0
-1.6332 48.0127 -19.6887 0.152 -0.572 0.806 126 64 54 0
-0.4953 47.8286 -19.4718 0.331 -0.360 0.872 130 73 62 0
-7.4338 55.7190 -19.9139 0.271 0.347 0.898 186 154 128 0
-9.7444 58.1588 -20.0855 0.244 0.316 0.917 222 202 177 0
-10.1851 58.7578 -20.1009 0.277 0.334 0.901 220 203 178 0
0.3070 67.9319 -16.6870 0.376 0.131 0.917 215 200 177 0
24.5148 55.7391 -13.1498 0.718 0.170 -0.675 203 189 163 0
26.1610 55.9803 -12.7701 0.408 -0.447 0.796 201 188 155 0
25.1075 65.7750 -11.7189 0.972 -0.106 -0.211 194 176 146 0
25.6799 66.2756 -11.5327 0.712 -0.512 -0.480 189 173 141 0
28.5790 77.6479 -9.4398 0.347 -0.051 0.937 171 146 115 0
37.1009 68.6248 -8.8100 0.778 -0.184 -0.600 168 139 111 0
39.6865 65.5981 -8.6565 0.962 0.173 -0.209 168 138 110 0
29.4640 79.8592 -8.9649 0.832 -0.358 -0.425 162 137 105 0
29.5366 80.0711 -8.9219 0.831 -0.122 -0.542 159 133 100 0
34.0779 75.6374 -8.5376 0.305 -0.896 -0.322 152 122 89 0
33.6793 76.4555 -8.5155 0.879 0.431 0.205 152 122 89 0
-8.3917 -10.2063 -28.8918 0.981 -0.149 -0.126 255 255 255 0
-8.3496 -10.0312 -28.8602 0.970 0.005 -0.244 255 255 255 0
-8.3666 -9.8503 -28.8404 0.978 -0.113 -0.177 133 133 133 0
-15.3505 -4.5221 -29.6413 0.075 -0.082 0.994 226 209 174 0
-19.4014 29.3551 -26.1273 0.363 -0.536 0.763 228 218 201 0
-6.0511 31.6875 -22.9786 0.703 -0.365 0.610 130 65 56 0
-5.8465 31.8378 -22.9156 0.706 -0.396 0.587 128 63 54 0
-5.6821 32.2522 -22.8270 0.705 -0.229 0.671 123 57 48 0
-5.4853 32.4054 -22.7652 0.460 -0.777 0.430 126 60 51 0
-5.1788 34.4868 -22.4308 0.914 -0.146 0.378 123 57 48 0
-5.3411 34.8168 -22.4228 0.956 -0.112 0.270 122 55 46 0
-5.3516 35.0724 -22.3920 0.955 -0.101 0.278 126 58 48 0
-3.9138 34.6054 -22.1457 0.828 -0.545 0.130 128 59 51 0
-3.7742 34.7836 -22.0929 0.832 -0.538 0.136 130 63 54 0
-4.0026 39.7057 -21.5055 0.492 -0.345 0.799 150 74 63 0
0.4338 44.9215 -19.8853 0.825 -0.521 0.217 123 50 51 0
0.0417 45.4259 -19.9038 0.882 -0.226 0.413 128 52 52 0
-1.6162 47.5242 -19.9862 0.876 -0.289 -0.386 123 54 46 0
-9.9202 58.9517 -20.2805 0.304 0.372 0.877 215 205 180 0
0.8234 66.9739 -16.9524 -0.048 -0.880 0.473 213 202 179 0
1.1053 67.0463 -16.8829 0.922 0.149 0.358 214 201 179 0
1.0337 67.4112 -16.8511 0.922 0.149 0.358 214 202 177 0
1.0148 67.7332 -16.8135 0.813 0.064 0.579 215 202 176 0
26.4188 56.3172 -12.8707 0.562 -0.113 0.819 199 187 154 0
31.0659 54.8031 -12.0753 0.883 0.430 -0.186 196 179 153 0
30.2580 56.1027 -12.0797 0.822 0.457 -0.339 196 179 152 0
24.2425 67.3321 -11.9114 0.300 -0.412 0.860 193 176 146 0
25.2692 66.5211 -11.7973 0.459 -0.688 0.562 191 174 144 0
25.4079 66.6515 -11.7508 0.459 -0.688 0.562 191 173 143 0
29.8282 75.5952 -9.6523 0.247 0.007 0.969 168 142 114 0
35.2164 72.2428 -8.9364 0.767 0.196 -0.612 163 136 107 0
-8.4127 -10.1895 -29.0939 0.978 0.012 -0.207 255 255 255 0
-8.4053 -10.0110 -29.0693 0.979 -0.126 -0.158 255 255 255 0
-8.4015 -9.8319 -29.0455 0.978 -0.113 -0.177 133 133 133 0
-14.5824 -4.6066 -29.7031 0.077 -0.078 0.994 227 211 178 0
-18.0835 29.1331 -26.1241 0.351 -0.708 0.612 227 218 201 0
-11.0442 29.2639 -24.5945 0.221 -0.701 0.679 154 101 89 0
-9.4948 29.0966 -24.2829 0.026 -0.949 0.315 155 97 86 0
-5.8934 31.6611 -23.1797 0.710 -0.366 0.601 131 66 61 0
-5.6366 31.7867 -23.1084 0.702 -0.416 0.578 131 66 61 0
-5.6438 32.0356 -23.0780 0.985 -0.117 0.124 124 60 53 0
-5.4776 32.2032 -23.0208 0.901 -0.410 0.144 121 54 49 0
-5.2417 32.3375 -22.9528 0.631 -0.776 0.008 119 52 46 0
-4.3335 34.3672 -22.4971 0.841 -0.540 -0.042 129 59 51 0
-4.2108 34.5546 -22.4466 0.841 -0.540 -0.042 130 60 50 0
-3.7956 34.5957 -22.3521 0.864 -0.486 0.131 131 63 54 0
-3.6499 34.7707 -22.2984 0.837 -0.523 0.162 135 66 57 0
-3.7812 39.6391 -21.7016 0.473 -0.348 0.809 150 73 63 0
-3.1835 42.9428 -21.1490 0.452 -0.585 0.673 159 86 76 0
-1.4144 46.9217 -20.2580 0.800 -0.400 -0.446 125 50 47 0
-0.0668 47.9468 -19.8368 0.256 -0.455 0.853 121 63 54 0
-10.1322 59.4716 -20.5204 0.267 0.357 0.895 214 206 184 0
1.0138 66.8985 -17.1715 -0.050 -0.886 0.461 216 203 185 0
1.5081 66.7945 -17.0786 0.817 0.080 0.571 214 202 181 0
0.8365 67.9646 -17.0728 0.863 0.254 0.436 215 203 177 0
5.2006 73.4602 -15.4294 0.497 -0.696 -0.518 204 190 165 0
26.4968 56.0626 -13.0859 0.955 0.121 -0.269 202 188 157 0
25.5039 57.5220 -13.1120 0.780 0.278 -0.560 201 185 156 0
30.9797 54.7152 -12.2954 0.900 0.097 -0.425 200 183 157 0
30.8419 55.0985 -12.2759 0.889 0.412 -0.198 197 180 154 0
24.9764 66.3611 -12.0906 0.538 -0.226 0.812 193 176 146 0
25.0610 66.5498 -12.0482 0.303 -0.580 0.757 193 175 146 0
25.5303 66.3290 -11.9757 0.531 -0.618 0.580 193 173 144 0
25.5050 66.6339 -11.9419 0.532 -0.635 0.560 191 172 143 0
25.8980 66.4914 -11.8758 0.557 -0.768 0.316 190 171 142 0
29.8662 69.0349 -10.6964 0.511 0.254 0.821 178 158 129 0
39.0100 59.6777 -9.9325 0.558 0.454 0.695 176 153 128 0
29.5424 76.6444 -9.7891 0.260 -0.054 0.964 169 141 115 0
41.0043 65.1314 -8.8038 0.985 0.104 0.136 161 134 108 0
34.4691 74.1651 -9.0486 0.591 -0.186 -0.785 162 131 104 0
33.2535 79.0145 -8.6873 0.997 -0.012 0.077 255 255 255 0
-8.4094 -10.1749 -29.2913 0.980 0.003 -0.197 255 255 255 0
-8.4530 -9.9914 -29.2773 0.983 0.010 -0.185 255 255 255 0
-8.4365 -9.8134 -29.2510 0.978 -0.113 -0.177 133 133 133 0
-8.4166 -9.6354 -29.2241 0.984 -0.090 -0.153 70 63 55 0
-33.0743 21.3796 -30.6087 0.898 -0.101 0.427 240 228 202 0
-33.3465 21.7268 -30.6234 0.840 0.157 0.520 240 228 202 0
-17.6418 29.0012 -26.2947 0.359 -0.605 0.711 226 217 199 0
-10.7180 29.1702 -24.7738 0.218 -0.704 0.676 151 94 85 0
-9.7364 28.9988 -24.5830 0.039 -0.930 0.365 150 93 83 0
-5.5046 31.2825 -23.3753 0.915 -0.369 0.161 131 66 62 0
-5.5112 31.5301 -23.3452 0.999 0.044 -0.017 128 63 59 0
-5.6106 31.8215 -23.3296 0.986 -0.112 0.120 126 61 57 0
-5.5882 32.0566 -23.2947 0.986 -0.112 0.120 121 56 53 0
-5.4071 32.2172 -23.2350 0.866 -0.464 0.186 121 55 53 0
-4.5148 38.5470 -22.2346 0.875 -0.338 0.346 145 67 59 0
1.1773 66.8451 -17.3932 -0.062 -0.873 0.483 215 203 187 0
1.3426 67.0134 -17.3359 0.804 -0.195 0.562 212 200 182 0
1.9033 67.1569 -17.1962 0.600 -0.221 0.768 213 202 180 0
7.8986 71.6709 -15.3222 0.495 -0.863 -0.107 205 189 165 0
23.6410 57.5464 -13.7142 0.956 0.221 -0.193 203 186 161 0
30.0163 55.7420 -12.5637 0.761 -0.129 -0.636 198 182 156 0
30.2887 55.7214 -12.5074 0.910 0.386 -0.153 196 180 154 0
9.6528 83.3399 -13.4542 0.389 -0.094 0.916 194 174 147 0
9.5160 83.8182 -13.4228 0.437 -0.188 0.879 193 173 146 0
9.3384 84.3421 -13.3945 0.575 -0.148 0.804 190 170 143 0
9.2519 84.7698 -13.3587 0.691 -0.066 0.720 191 170 143 0
33.7712 60.9293 -11.0891 0.627 0.592 0.506 189 169 140 0
30.3132 68.3284 -10.8943 0.773 0.299 0.560 180 160 131 0
30.3784 68.5310 -10.8544 0.625 0.051 0.779 181 161 132 0
39.9822 66.2799 -9.0617 -0.098 -0.814 0.573 163 136 110 0
40.3351 66.3524 -8.9760 0.907 0.345 0.240 162 135 107 0
33.3012 79.0554 -8.8793 0.996 -0.072 -0.057 255 255 255 0
-8.4502 -10.1562 -29.4981 0.982 0.006 -0.191 255 255 255 0
-8.5045 -9.9715 -29.4865 0.988 -0.018 -0.152 255 255 255 0
-8.4694 -9.7950 -29.4565 0.979 -0.109 -0.171 133 133 133 0
-8.4533 -9.6165 -29.4304 0.984 -0.081 -0.160 70 63 56 0
-16.3554 -7.6751 -30.9087 0.536 0.100 0.838 225 208 178 0
-33.7817 21.3669 -31.0324 0.741 0.006 0.671 241 229 203 0
-33.9267 21.6763 -31.0249 0.690 -0.026 0.724 241 229 203 0
-34.2729 22.0478 -31.0534 0.702 -0.021 0.712 240 228 202 0
-22.9457 29.8374 -27.5950 0.975 -0.043 -0.217 231 221 201 0
-17.1803 27.8422 -26.5897 0.755 -0.530 0.385 230 222 203 0
-17.4336 28.1961 -26.6001 0.530 -0.617 0.582 230 222 201 0
-17.6104 28.5212 -26.5975 0.477 -0.604 0.638 229 221 200 0
-17.5945 28.7707 -26.5624 0.365 -0.524 0.770 229 218 197 0
-10.4187 29.0876 -24.9565 0.218 -0.704 0.676 149 94 86 0
-10.3101 29.2885 -24.9074 0.285 -0.564 0.775 146 92 82 0
-5.4955 31.3248 -23.5988 0.971 -0.235 0.030 129 63 58 0
-5.6572 31.8903 -23.5625 0.918 -0.303 0.256 125 60 55 0
-5.6351 32.1259 -23.5278 0.847 -0.017 0.531 121 56 51 0
-4.7958 32.4663 -23.3016 0.292 -0.943 0.158 128 61 55 0
-4.3387 38.5062 -22.4367 0.878 -0.249 0.410 147 67 60 0
-4.5489 40.4262 -22.2394 0.854 -0.521 -0.010 159 83 67 0
-4.1478 40.4655 -22.1469 0.850 -0.525 0.042 165 90 73 0
-2.1938 41.7038 -21.5637 0.913 -0.208 0.351 168 96 84 0
-2.4184 47.6712 -20.8568 0.970 -0.243 -0.010 126 48 46 0
-2.7523 48.1519 -20.8687 0.810 -0.528 0.256 123 46 44 0
-2.7235 48.4064 -20.8302 0.643 -0.719 -0.261 122 48 46 0
-1.5588 48.7569 -20.5317 0.599 -0.801 -0.009 118 53 48 0
-7.2293 57.6278 -20.6453 0.253 0.332 0.909 217 204 181 0
-0.0337 67.3120 -17.8485 0.261 -0.910 0.322 210 203 188 0
1.3159 66.8123 -17.6173 -0.069 -0.876 0.478 209 202 186 0
1.1929 67.2196 -17.5925 0.929 0.173 0.329 209 201 184 0
9.4481 70.0134 -15.4373 0.211 -0.957 0.199 205 188 164 0
7.7198 75.9951 -15.0567 0.848 -0.227 -0.479 197 185 159 0
26.0542 63.4779 -12.6416 0.589 -0.342 0.732 194 177 148 0
30.7335 62.5233 -11.7415 0.782 0.617 -0.093 191 171 144 0
30.5254 64.3503 -11.5555 0.876 0.144 -0.461 189 168 141 0
39.5587 67.7218 -9.1573 0.632 0.021 0.775 164 130 100 0
38.0788 69.9280 -9.2008 0.491 0.231 0.840 162 125 94 0
36.7253 72.2624 -9.2004 0.570 0.324 0.755 160 116 87 0
39.2029 70.0943 -8.9344 0.673 -0.564 -0.478 149 108 77 0
-8.4605 -10.1404 -29.6989 0.980 0.018 -0.196 255 255 255 0
-8.5957 -9.9477 -29.7043 0.980 0.003 -0.197 255 255 255 0
-8.5032 -9.7766 -29.6625 0.979 -0.109 -0.171 133 133 133 0
-8.4786 -9.5988 -29.6347 0.979 -0.109 -0.171 70 63 57 0
-34.1800 22.0592 -31.3021 0.690 0.058 0.722 238 226 200 0
-17.9072 27.9158 -26.9876 0.751 -0.192 0.632 232 221 201 0
-17.1377 27.8692 -26.8243 0.749 -0.525 0.405 231 221 201 0
-10.1311 29.0100 -25.1403 0.173 -0.278 0.945 151 96 88 0
-10.0909 29.2396 -25.1026 0.214 -0.237 0.948 142 87 77 0
-7.2283 30.6925 -24.2905 0.982 -0.155 0.104 131 64 59 0
-5.3554 31.3064 -23.8014 0.510 -0.687 0.517 125 58 53 0
-5.1004 31.4322 -23.7296 0.567 -0.638 0.521 125 59 54 0
-5.6434 31.9309 -23.7862 0.921 -0.328 0.210 124 59 53 0
-5.5938 32.1537 -23.7473 0.906 -0.217 0.364 126 61 55 0
-5.4190 32.3176 -23.6882 0.785 -0.568 0.246 133 69 62 0
-2.9244 34.3076 -22.8894 0.834 0.093 0.543 138 66 54 0
-5.4795 38.3923 -22.9372 0.830 -0.417 0.369 147 74 60 0
-4.4261 40.1539 -22.4840 0.622 -0.667 0.410 159 82 63 0
-4.4008 40.3997 -22.4475 0.859 -0.511 0.004 162 87 66 0
-1.6576 46.9879 -21.0155 0.725 0.149 0.672 127 48 48 0
-1.8532 48.7354 -20.8386 0.321 -0.857 -0.403 116 48 46 0
0.3225 49.2303 -20.2980 0.870 0.388 0.303 121 68 61 0
0.4810 49.3971 -20.2422 0.813 0.371 0.448 117 67 58 0
-0.6192 50.6694 -20.3240 0.360 -0.469 0.806 123 77 64 0
-6.6241 57.5794 -20.7748 0.303 0.376 0.876 217 202 181 0
-4.6429 58.5588 -20.2160 -0.139 -0.680 0.719 217 208 193 0
-4.6843 58.8839 -20.1842 -0.103 -0.580 0.808 217 208 192 0
12.9025 69.8465 -14.9384 0.735 -0.469 -0.490 203 186 161 0
26.9271 61.8519 -12.8609 0.488 -0.499 0.716 197 180 153 0
26.5983 62.9957 -12.7893 0.487 -0.428 0.761 192 175 148 0
26.2430 63.6354 -12.7869 0.501 -0.536 0.680 193 176 149 0
25.6860 64.4888 -12.8020 0.543 -0.476 0.692 194 177 151 0
24.8947 65.8694 -12.8023 0.341 -0.836 0.431 194 177 151 0
30.0998 63.2957 -11.9817 0.779 0.622 -0.079 192 172 145 0
30.0697 67.4010 -11.4718 0.436 0.408 0.802 186 161 136 0
29.6996 70.9159 -11.1110 0.207 -0.025 0.978 176 153 129 0
32.5543 70.8843 -10.4873 0.705 0.071 0.705 170 146 119 0
22.4519 86.1759 -10.7844 0.342 -0.613 -0.712 167 142 117 0
25.3698 83.4522 -10.4856 0.656 0.475 0.586 165 140 112 0
37.0217 69.7404 -9.6491 0.952 -0.125 -0.279 164 137 110 0
38.6120 69.3242 -9.3518 0.488 0.230 0.842 157 115 85 0
37.9095 70.5214 -9.3556 0.546 0.303 0.782 159 114 85 0
39.8722 68.7530 -9.1466 0.892 0.307 0.331 145 101 74 0
39.2548 69.8458 -9.1449 0.944 -0.306 -0.127 144 99 72 0
-8.5263 -10.1192 -29.9116 0.987 0.038 -0.156 255 255 255 0
-8.6366 -9.9288 -29.9122 0.978 0.004 -0.208 255 255 255 0
-8.5371 -9.7582 -29.8688 0.979 -0.109 -0.171 133 133 133 0
-8.5126 -9.5801 -29.8412 0.979 -0.110 -0.174 70 63 56 0
-8.4793 -9.2219 -29.7890 0.984 -0.081 -0.160 224 207 178 0
-26.9368 19.8926 -30.2391 0.967 -0.143 0.210 235 223 198 0
-18.6012 28.2309 -27.3508 0.763 -0.274 0.586 231 220 200 0
-21.2563 29.5308 -27.7765 0.026 -0.561 0.828 230 219 199 0
-16.2818 29.6109 -26.6646 0.944 0.293 0.151 152 109 97 0
-9.5606 28.8116 -25.2758 0.172 -0.344 0.923 142 86 78 0
-7.2625 30.7540 -24.5240 0.985 -0.148 0.090 130 62 59 0
-4.7905 30.8476 -23.9648 0.503 -0.731 0.461 126 58 56 0
-5.7995 37.8404 -23.3144 0.834 -0.507 -0.217 149 78 57 0
-5.4095 37.8942 -23.2213 0.900 -0.249 0.357 149 78 58 0
-5.3020 38.0947 -23.1724 0.915 -0.224 0.336 148 76 60 0
-5.3963 38.4015 -23.1550 0.557 -0.438 0.705 145 75 60 0
-4.1740 39.8116 -22.7080 0.681 -0.544 0.490 159 83 62 0
-3.9596 39.9532 -22.6429 0.782 -0.574 0.242 158 83 61 0
-1.9535 48.8623 -21.0852 0.299 -0.610 0.733 115 47 46 0
0.3613 49.2683 -20.5217 0.874 0.385 0.296 119 64 59 0
-0.4409 50.6158 -20.5310 0.861 -0.361 0.357 121 74 64 0
-8.4095 59.7861 -21.1502 0.317 0.412 0.855 217 205 184 0
-3.6786 57.9465 -20.3321 0.953 -0.053 -0.297 218 207 191 0
31.3636 55.8645 -12.8304 0.598 -0.557 0.577 196 181 155 0
31.6242 55.8499 -12.7745 0.364 -0.783 0.504 196 180 154 0
27.1466 61.7068 -13.0344 0.521 -0.443 0.730 196 179 153 0
26.4227 62.9900 -13.0344 0.290 -0.776 0.560 196 179 152 0
26.6150 63.3305 -12.9493 0.749 -0.653 -0.111 194 177 151 0
24.6204 65.6865 -13.0967 0.429 -0.605 0.671 194 177 151 0
24.8742 65.6984 -13.0390 0.622 -0.627 0.469 193 176 150 0
25.4344 65.3866 -12.9538 0.481 -0.858 0.180 193 176 150 0
30.9456 68.4189 -11.3542 0.081 -0.283 0.956 182 163 134 0
30.2982 74.3290 -10.7590 0.839 0.380 0.389 170 145 119 0
36.2252 71.1401 -9.8447 0.992 -0.102 -0.068 164 136 111 0
36.0982 71.5851 -9.8172 0.906 0.077 0.416 164 136 109 0
-8.5369 -10.1033 -30.1130 0.987 0.032 -0.159 255 255 255 0
-8.6824 -9.9093 -30.1214 0.976 -0.001 -0.219 255 255 255 0
-8.5767 -9.7391 -30.0767 0.984 -0.089 -0.156 133 133 133 0
-8.5472 -9.5614 -30.0481 0.979 -0.110 -0.174 70 62 55 0
-8.5114 -9.2031 -29.9956 0.984 -0.081 -0.160 222 206 176 0
-26.8015 19.3826 -30.5295 0.935 0.324 0.141 236 224 202 0
-20.2206 28.1297 -27.9753 0.568 -0.801 0.186 232 222 198 0
-17.8093 27.4556 -27.5209 0.603 -0.336 0.724 232 221 198 0
-21.4783 29.4004 -28.0983 0.023 -0.667 0.744 231 220 198 0
-20.7597 29.3809 -27.9404 0.020 -0.645 0.764 230 218 196 0
-7.6192 29.2429 -25.0252 0.688 -0.366 0.626 139 77 68 0
-7.3409 31.0822 -24.7348 0.265 -0.915 0.304 132 60 58 0
-3.4957 32.2318 -23.7341 0.483 -0.681 0.550 118 51 45 0
-5.3155 37.8976 -23.4370 0.895 -0.256 0.366 147 79 56 0
-5.2198 38.1042 -23.3900 0.915 -0.224 0.336 145 77 57 0
-3.5620 38.7621 -22.9384 0.800 -0.476 0.366 148 75 58 0
-3.7537 39.1219 -22.9365 0.756 -0.442 0.482 151 80 62 0
-0.0842 46.3940 -21.2152 0.678 -0.646 0.351 129 51 49 0
-1.5304 48.6549 -21.2573 0.321 -0.555 0.768 120 52 48 0
-1.2997 48.7795 -21.1904 0.224 -0.841 0.492 116 52 46 0
2.2321 49.1736 -20.3533 0.745 -0.543 0.388 116 69 59 0
-4.0776 55.6759 -20.9544 0.335 0.294 0.895 139 113 91 0
3.9611 65.4624 -17.9459 0.239 -0.171 0.956 213 202 186 0
7.2911 71.6618 -16.4335 0.452 -0.081 0.888 202 190 176 0
7.6052 71.9889 -16.3228 0.477 -0.286 0.831 201 188 175 0
14.0848 70.0717 -15.1148 0.630 -0.699 -0.340 197 182 162 0
26.4532 63.3108 -13.1938 0.659 -0.540 -0.524 196 179 151 0
26.2629 63.7803 -13.1780 0.693 -0.714 -0.105 195 179 151 0
25.5683 65.3303 -13.1406 0.544 -0.764 0.347 191 177 150 0
17.2570 75.9209 -13.6810 0.470 0.009 0.882 188 173 142 0
16.7664 76.7578 -13.6866 0.341 0.085 0.936 189 174 144 0
20.9216 74.9775 -12.9803 0.772 0.614 0.163 190 170 144 0
26.0608 77.8208 -11.4806 0.127 -0.239 0.963 169 149 121 0
27.9095 77.9829 -11.0479 0.527 0.349 0.775 170 146 120 0
23.9002 84.8920 -11.0852 0.361 -0.860 -0.360 168 142 117 0
24.6425 84.9172 -10.9164 0.743 0.549 0.382 166 142 114 0
36.0968 71.6833 -10.0028 0.973 0.031 0.227 166 134 110 0
39.1408 70.4645 -9.4747 0.955 -0.292 0.049 132 87 68 0
39.0812 70.8211 -9.4438 0.932 -0.362 -0.033 86 59 48 0
-8.5823 -10.0840 -30.3222 0.989 -0.059 -0.138 255 255 255 0
-8.7157 -9.8910 -30.3284 0.980 0.012 -0.197 255 255 255 0
-8.6077 -9.7209 -30.2832 0.984 -0.089 -0.156 133 133 133 0
-8.5829 -9.5425 -30.2556 0.970 -0.148 -0.194 70 62 55 0
-7.0214 -7.7180 -29.6797 0.757 -0.648 0.089 226 210 177 0
-8.1125 -6.8555 -29.8187 0.463 -0.567 0.681 227 211 178 0
-25.9620 18.9157 -30.6551 0.821 0.406 0.402 235 223 201 0
-26.1100 19.2115 -30.6519 0.821 0.406 0.402 235 223 201 0
-8.0507 21.3904 -26.3235 0.684 -0.554 -0.474 237 225 203 0
-6.9896 21.2296 -26.1048 0.628 -0.555 -0.546 237 225 203 0
-6.3852 21.2344 -25.9684 0.339 -0.761 0.553 237 225 203 0
-6.0607 21.3418 -25.8822 0.963 0.205 0.177 235 223 199 0
-15.4409 25.8339 -27.4372 0.904 0.202 -0.377 234 223 202 0
-17.3649 27.8353 -27.6231 0.907 0.206 0.368 230 219 197 0
-19.7116 29.0137 -28.0054 0.021 -0.668 0.744 229 218 195 0
-12.4771 28.6399 -26.4251 0.451 -0.607 0.654 138 91 81 0
-12.2364 28.7895 -26.3526 0.298 -0.928 0.225 137 89 77 0
-7.5509 29.2579 -25.2415 0.845 0.061 0.531 140 77 68 0
-7.6279 29.5360 -25.2246 0.426 -0.336 0.840 140 77 68 0
-7.2711 29.6233 -25.1336 0.069 -0.760 0.646 140 74 66 0
-6.7518 29.6374 -25.0151 0.546 -0.435 0.716 136 69 61 0
-6.5685 29.7996 -24.9539 0.488 -0.368 0.792 139 70 65 0
-6.8915 30.1881 -24.9786 0.251 -0.339 0.907 135 64 61 0
-5.5002 37.7895 -23.7290 0.988 -0.151 0.026 150 84 57 0
-5.3280 37.9566 -23.6697 0.885 -0.205 0.419 147 80 56 0
-1.5880 48.7546 -21.4981 0.651 -0.429 0.626 119 52 49 0
-1.0999 48.7141 -21.3933 0.224 -0.841 0.492 116 51 45 0
-1.3496 49.1474 -21.3961 0.695 -0.446 0.563 114 51 46 0
2.4140 49.1157 -20.5539 0.877 -0.466 0.119 112 65 56 0
2.6328 49.2379 -20.4897 0.519 -0.081 0.851 112 68 58 0
-4.3495 56.5142 -21.1625 0.356 0.366 0.860 172 147 130 0
-5.8400 58.1389 -21.2974 0.327 0.412 0.850 219 204 183 0
-8.4363 60.8641 -21.5451 0.333 0.406 0.851 216 206 188 0
-8.8623 61.4714 -21.5661 0.362 0.437 0.824 216 207 189 0
19.4480 54.9173 -16.0096 0.961 -0.276 0.022 209 201 182 0
7.5650 71.8055 -16.5995 0.436 -0.495 0.751 203 190 176 0
28.8575 61.1540 -13.1256 0.353 -0.627 0.694 195 179 154 0
21.0383 71.0690 -13.6614 0.677 -0.670 0.306 192 177 150 0
17.4171 76.1528 -13.8489 0.337 0.084 0.938 190 175 146 0
36.5482 60.5067 -11.4765 0.476 0.453 0.754 186 162 138 0
29.9741 75.2203 -11.1409 0.853 0.439 0.282 171 148 118 0
29.7485 75.7966 -11.1206 0.846 0.463 0.265 171 147 119 0
28.1200 78.4302 -11.1621 0.765 0.448 0.462 170 144 119 0
27.8070 79.1280 -11.1465 0.775 0.479 0.412 170 144 119 0
27.1346 80.2817 -11.1555 0.768 0.464 0.441 170 144 119 0
25.3342 83.5028 -11.1632 0.123 -0.973 -0.195 167 142 116 0
36.0231 71.8754 -10.1933 0.861 -0.172 -0.478 166 132 108 0
36.6629 71.3248 -10.1174 0.527 -0.489 -0.695 157 120 97 0
34.5413 74.9578 -10.1466 -0.182 -0.197 0.963 140 94 72 0
39.1829 70.5043 -9.6520 0.955 -0.290 0.060 131 85 68 0
-8.7581 -9.8718 -30.5377 0.980 0.012 -0.197 255 255 255 0
-8.6478 -9.7017 -30.4919 0.977 -0.118 -0.179 133 133 133 0
-8.8128 21.4765 -26.7134 0.637 -0.634 -0.438 237 225 203 0
-8.2419 21.4990 -26.5813 0.690 -0.567 -0.450 237 225 203 0
-8.0659 21.6655 -26.5211 0.690 -0.567 -0.450 237 225 203 0
-20.5924 28.3615 -28.5383 0.806 -0.484 0.339 232 222 197 0
-18.4875 28.5765 -28.0353 0.260 -0.714 0.651 226 217 191 0
-8.0663 28.3072 -25.7083 0.166 -0.583 0.795 139 79 71 0
-7.1693 29.1358 -25.4038 0.683 -0.193 0.704 140 76 67 0
-6.6992 29.6593 -25.2332 0.086 -0.693 0.716 139 69 61 0
-2.9062 32.7744 -23.9930 0.699 -0.589 0.406 115 46 45 0
-2.8613 33.4873 -23.8956 0.534 -0.818 0.214 113 46 38 0
-5.1446 36.6354 -24.0274 0.753 0.301 0.585 141 76 48 0
-5.1605 37.1534 -23.9676 0.463 -0.846 -0.264 143 81 48 0
-5.3998 37.7897 -23.9439 0.627 -0.012 0.779 148 85 55 0
-1.3968 43.0880 -22.3889 0.562 -0.807 0.182 142 66 61 0
1.4840 45.7941 -21.4053 0.918 -0.053 0.394 131 56 53 0
1.2403 46.7414 -21.3446 0.879 -0.362 0.312 119 49 49 0
0.9943 47.1645 -21.3485 0.766 -0.457 0.453 116 48 46 0
-1.1238 48.7924 -21.6289 -0.106 -0.870 0.481 113 48 44 0
2.5727 49.0733 -20.7574 0.839 -0.488 0.240 108 60 54 0
2.9828 49.3348 -20.6326 0.609 -0.483 0.629 110 66 58 0
-3.6004 56.0650 -21.2997 0.375 0.389 0.841 149 122 106 0
-4.1974 56.7707 -21.3485 0.394 0.407 0.824 170 147 129 0
21.3863 48.0872 -16.6176 0.672 -0.239 0.701 215 206 190 0
17.8179 57.9958 -16.2130 0.138 -0.131 0.982 209 200 183 0
32.0742 69.0298 -11.6341 0.879 0.478 -0.000 177 156 130 0
35.9557 72.0598 -10.3842 0.858 -0.182 -0.481 166 131 107 0
35.9873 72.5857 -10.3127 0.796 -0.284 -0.535 146 104 82 0
35.8931 73.2796 -10.2491 0.537 -0.653 -0.535 137 90 72 0
39.8031 69.4956 -9.8268 0.863 0.438 0.253 129 82 66 0
39.2181 70.5535 -9.8298 0.956 -0.288 0.045 131 85 69 0
-10.2432 -10.0790 -31.1040 0.972 -0.130 -0.195 255 255 255 0
-8.6385 -10.0487 -30.7343 0.987 -0.021 -0.161 255 255 255 0
-8.8006 -9.8525 -30.7474 0.980 0.012 -0.197 255 255 255 0
-8.6871 -9.6826 -30.7009 0.969 -0.147 -0.200 133 133 133 0
-8.6577 -9.5044 -30.6725 0.946 -0.225 -0.234 71 62 55 0
-4.3370 -8.8831 -29.6114 0.960 0.236 -0.153 225 209 180 0
-37.7614 -0.3557 -36.1996 0.541 -0.812 -0.217 227 213 184 0
-31.7904 18.9126 -32.4959 -0.074 -0.972 0.224 238 226 204 0
-9.1415 21.6352 -26.9984 0.625 -0.630 -0.460 239 229 204 0
-16.8075 28.9799 -27.8545 0.916 0.400 0.033 147 109 93 0
-11.3984 28.2814 -26.7056 0.153 -0.197 0.968 133 83 78 0
-7.5179 28.1169 -25.8403 0.198 -0.516 0.834 136 76 68 0
-7.0583 28.6461 -25.6712 0.679 -0.169 0.715 135 71 62 0
-7.1816 28.9426 -25.6633 0.340 -0.526 0.780 137 71 63 0
-6.2740 29.5156 -25.3866 0.224 -0.537 0.814 133 61 54 0
-2.7164 32.7298 -24.1844 0.661 -0.431 0.614 121 50 52 0
-2.7573 33.9765 -24.0423 0.995 -0.057 0.081 119 52 43 0
-4.5823 35.6408 -24.2563 0.903 0.126 0.410 126 57 45 0
-5.0096 36.1100 -24.2967 0.734 0.357 0.577 128 59 44 0
-4.7821 36.5011 -24.1973 0.827 0.360 0.432 138 74 46 0
-5.3663 37.0558 -24.2632 0.605 -0.722 -0.336 139 77 47 0
-5.4711 37.3658 -24.2494 0.520 -0.804 -0.289 140 79 47 0
-5.1331 37.4469 -24.1624 0.719 -0.055 0.692 142 81 50 0
-5.2965 37.7883 -24.1582 0.689 -0.031 0.724 145 84 53 0
-5.1386 37.9627 -24.1010 0.555 -0.108 0.825 146 85 55 0
-4.1318 38.2016 -23.8423 0.675 -0.733 -0.084 146 83 57 0
1.4896 45.8508 -21.6304 0.911 -0.086 0.403 132 57 55 0
1.4626 46.1316 -21.6024 0.912 -0.096 0.399 128 54 53 0
1.4337 46.6791 -21.5425 0.930 -0.358 -0.089 116 46 46 0
0.5828 48.5650 -21.5074 -0.118 -0.864 0.489 112 49 49 0
-3.4098 56.2926 -21.4790 0.402 0.429 0.809 154 127 113 0
2.4005 55.0195 -20.3083 0.578 -0.686 -0.442 216 207 191 0
2.9380 54.9100 -20.1990 0.752 -0.459 -0.473 216 207 190 0
-0.0841 58.2593 -20.4813 0.548 0.329 0.769 217 210 192 0
