ply
format ascii 1.0
element vertex 838
property float x
property float y
property float z
property float nx
property float ny
property float nz
property uchar diffuse_red
property uchar diffuse_green
property uchar diffuse_blue
property uchar class
end_header
-15.1564 31.8905 -22.4770 0.706 -0.651 -0.281 221 190 164 0
-15.2652 32.1979 -22.4576 0.689 -0.675 0.265 200 166 142 0
-12.9124 31.3921 -22.1090 0.986 -0.076 0.150 183 147 124 0
-10.1075 32.8826 -21.3706 0.364 -0.931 -0.021 184 129 99 0
-9.3326 32.7656 -21.2362 0.633 -0.501 0.590 181 125 95 0
-9.1469 32.9289 -21.1788 0.629 -0.507 0.589 179 122 92 0
-9.2277 33.2204 -21.1560 0.085 -0.756 0.649 173 116 87 0
-6.6844 40.1540 -19.7512 0.532 -0.431 0.729 139 64 59 0
-6.1534 42.7687 -19.3042 0.791 -0.291 0.538 132 67 58 0
-5.1675 42.9936 -19.0841 0.866 -0.500 -0.031 134 62 55 0
-5.2036 43.2817 -19.0531 0.707 -0.627 0.326 141 68 62 0
-2.8887 73.1721 -14.6687 0.667 0.690 0.282 212 195 167 0
6.7568 78.4820 -12.1051 -0.098 -0.124 0.987 197 180 151 0
13.3389 73.9818 -11.4258 0.858 -0.406 -0.315 198 175 144 0
13.2678 77.8501 -10.9300 0.668 -0.263 0.696 190 172 136 0
13.1817 78.2641 -10.8921 0.769 -0.338 0.543 191 173 136 0
13.4036 78.3458 -10.8384 0.736 -0.344 0.584 192 172 135 0
12.5699 79.5737 -10.8378 0.413 -0.803 -0.429 194 172 136 0
21.3181 70.6605 -10.3211 0.076 -0.351 0.933 193 172 137 0
16.4020 77.9306 -10.3136 0.389 -0.903 -0.182 188 163 130 0
16.7493 77.8609 -10.2557 0.368 -0.916 -0.162 188 162 129 0
25.3124 73.8741 -9.1258 0.274 0.090 0.958 178 154 120 0
24.9041 74.6612 -9.1011 0.293 0.103 0.951 179 155 121 0
22.1172 78.2919 -9.1615 0.754 0.338 0.563 179 155 121 0
26.8641 73.5174 -8.8729 0.731 0.283 0.621 177 152 119 0
22.8005 81.2704 -8.6371 0.256 0.046 0.966 172 148 116 0
18.6893 90.4645 -8.2207 0.666 0.483 0.568 168 139 107 0
19.6259 89.6040 -8.1530 0.880 0.364 0.305 165 138 104 0
31.9264 74.9292 -7.7086 0.275 -0.794 -0.543 160 135 94 0
29.2907 79.9244 -7.5601 0.657 0.144 0.740 156 128 89 0
27.5518 83.5154 -7.4231 0.930 0.301 0.213 154 126 89 0
33.5213 77.3125 -7.0864 0.871 -0.407 -0.274 50 48 47 0
-7.2609 -10.5063 -26.7295 0.975 0.188 -0.117 255 255 255 0
-6.8525 -9.4971 -26.5178 0.905 -0.363 -0.222 222 204 173 0
-10.7160 -8.3140 -27.1159 0.868 -0.478 -0.133 224 207 176 0
-19.1882 -2.8665 -28.0542 0.655 0.262 0.708 225 210 174 0
-18.6231 -2.7528 -27.9292 0.620 0.206 0.757 226 210 175 0
-21.8429 9.5253 -26.9501 -0.027 -0.753 0.658 237 221 188 0
-14.9971 29.0552 -23.0606 0.806 0.232 0.544 236 222 195 0
-16.1628 31.0915 -23.0213 0.685 -0.721 0.103 233 219 187 0
-15.9727 31.2662 -22.9614 0.714 -0.700 0.009 232 217 186 0
-15.7989 31.4477 -22.9038 0.651 -0.759 0.004 233 211 182 0
-15.3049 32.2619 -22.7010 0.733 -0.654 0.187 165 125 103 0
-12.5979 31.2951 -22.2999 0.986 -0.147 0.080 164 122 102 0
-8.8856 32.0961 -21.4717 0.363 -0.903 0.230 173 115 88 0
-10.0594 32.9064 -21.5944 0.364 -0.931 -0.021 167 109 81 0
-3.8051 45.7181 -18.6992 0.854 -0.511 0.101 128 70 61 0
13.7022 67.3249 -12.4603 0.929 0.351 -0.118 200 183 153 0
13.5711 67.7488 -12.4304 0.930 0.354 0.097 199 182 153 0
7.6064 76.4184 -12.4583 0.484 -0.845 0.228 199 179 152 0
6.9679 78.6911 -12.2854 0.536 -0.808 -0.245 197 179 150 0
14.2802 77.1732 -11.0590 0.581 0.101 0.808 189 172 136 0
16.3519 78.4023 -10.4945 0.565 -0.774 -0.285 186 162 130 0
28.7867 68.4096 -9.3787 0.289 0.147 0.946 181 158 123 0
26.7931 71.9149 -9.3086 0.281 0.117 0.953 179 154 122 0
25.9551 73.5046 -9.2639 0.294 0.136 0.946 178 154 121 0
23.6159 76.6000 -9.3147 0.732 0.514 0.447 178 154 122 0
22.2410 78.5575 -9.3265 0.725 0.493 0.481 177 152 121 0
27.1757 73.2362 -9.0611 0.722 0.256 0.642 178 153 123 0
26.4528 74.7109 -9.0090 0.751 0.292 0.592 176 153 122 0
23.1353 81.2789 -8.7961 0.217 -0.319 0.923 171 149 115 0
24.6750 82.2295 -8.3717 0.596 0.450 0.665 169 143 110 0
27.1108 81.0031 -8.0575 0.808 -0.262 -0.527 160 133 96 0
29.2257 79.4894 -7.8434 -0.145 -0.981 -0.130 158 130 91 0
27.5730 83.5953 -7.6282 0.930 0.301 0.213 155 126 89 0
-11.7906 -8.5360 -27.5577 0.146 -0.876 0.459 225 208 176 0
-10.1936 -8.1798 -27.1976 0.158 -0.986 0.043 225 210 176 0
-20.3134 -2.8744 -28.4964 0.415 0.166 0.894 224 210 173 0
-19.2590 -2.8357 -28.2842 0.279 0.035 0.960 225 210 172 0
-23.6722 5.6907 -28.0431 0.971 -0.132 0.199 233 218 181 0
-15.9233 31.5483 -23.1596 0.705 -0.707 0.052 198 170 144 0
-15.3728 32.3387 -22.9487 0.775 -0.632 0.027 164 121 99 0
-12.3258 31.2172 -22.4958 0.911 -0.224 0.346 165 122 100 0
-12.3453 31.4797 -22.4655 0.976 -0.128 0.177 161 117 97 0
-5.6548 42.5902 -19.7068 0.702 -0.547 0.457 134 66 59 0
-4.5060 43.7821 -19.3262 0.670 -0.327 0.666 143 74 67 0
-3.8736 44.7404 -19.0773 0.412 -0.496 0.764 128 64 58 0
-3.7442 45.7389 -18.9221 0.868 -0.493 0.054 121 62 55 0
-3.7124 47.8993 -18.6351 0.912 -0.379 0.157 133 85 68 0
25.4521 53.7141 -12.1488 0.997 -0.017 -0.081 207 187 160 0
19.3887 61.3425 -12.3487 0.454 0.455 0.766 201 184 158 0
6.7236 84.4116 -11.8388 0.784 0.524 -0.334 190 174 139 0
16.7513 78.6906 -10.6120 0.409 -0.904 -0.127 186 162 131 0
18.3774 77.8034 -10.4078 0.502 -0.863 0.059 182 162 129 0
29.1500 68.3575 -9.5189 0.308 0.153 0.939 180 157 125 0
27.5954 71.0568 -9.4735 0.266 0.105 0.958 178 154 123 0
26.4778 74.7767 -9.2096 0.795 0.351 0.495 174 151 123 0
23.9772 80.6524 -8.9373 0.224 -0.125 0.967 171 147 115 0
24.8688 81.1251 -8.7006 0.028 -0.280 0.960 169 144 112 0
25.3927 81.7361 -8.5183 0.577 0.411 0.706 166 140 107 0
21.2690 88.3857 -8.4642 0.807 -0.222 0.548 162 133 100 0
27.1197 81.0963 -8.2621 0.797 -0.276 -0.537 160 131 97 0
27.8643 83.3122 -7.8278 0.624 0.204 0.754 154 124 86 0
-7.3559 -10.4681 -27.1322 0.972 0.203 -0.115 255 255 255 0
-7.3668 -10.2911 -27.1115 0.973 0.203 -0.108 255 255 255 0
-6.7286 -9.3059 -26.8578 0.940 -0.316 -0.132 225 207 176 0
-25.5070 9.5688 -28.1409 0.514 -0.548 -0.660 238 222 187 0
-19.8302 9.3006 -27.0510 0.651 -0.566 0.506 239 225 190 0
-29.8440 33.2154 -25.9471 0.898 -0.033 -0.439 237 223 194 0
-28.8126 33.0709 -25.7615 0.935 -0.064 -0.348 237 223 194 0
-16.1030 30.6398 -23.5576 0.962 0.203 0.185 231 216 184 0
-16.0227 31.6379 -23.4128 0.747 -0.665 0.000 162 128 103 0
-15.8850 32.0956 -23.3264 0.452 -0.849 -0.274 158 118 96 0
-12.2670 30.9825 -22.7534 0.901 -0.194 0.388 161 117 95 0
-12.2402 31.2236 -22.7170 0.911 -0.224 0.346 160 115 93 0
-9.0352 31.0087 -22.1098 0.766 -0.597 0.238 160 106 89 0
-9.0368 31.7585 -22.0133 0.661 -0.737 0.144 161 99 83 0
-8.8825 31.9362 -21.9598 0.667 -0.731 0.147 158 96 79 0
-6.9129 32.7395 -21.4659 0.989 -0.134 0.054 158 91 76 0
-7.3706 38.0689 -20.8685 0.816 -0.367 0.446 141 77 67 0
-7.3311 38.8303 -20.7624 0.761 -0.165 0.627 139 69 61 0
-3.6056 44.9029 -19.2404 0.843 -0.006 0.538 124 60 54 0
-8.9030 55.6669 -18.9001 0.224 -0.109 0.968 222 202 172 0
-8.6457 56.0857 -18.7950 0.332 0.388 0.860 222 205 178 0
0.6008 70.0547 -15.1598 0.664 0.688 0.293 213 197 169 0
8.3002 78.1761 -12.5860 0.456 -0.839 -0.297 199 178 147 0
21.1676 71.9915 -10.8355 -0.230 -0.390 0.892 190 168 137 0
18.3976 77.8778 -10.6242 0.571 -0.812 0.123 181 162 131 0
20.3475 76.9017 -10.3640 -0.081 -0.950 0.301 181 158 127 0
30.0685 67.3671 -9.6692 0.338 0.144 0.930 178 156 125 0
25.3304 74.1372 -9.7338 0.563 0.339 0.753 175 152 121 0
21.1576 81.3433 -9.6300 0.517 0.175 0.838 173 151 122 0
24.9005 78.6573 -9.2353 0.614 0.238 0.752 172 146 120 0
24.6309 79.9380 -9.1234 0.206 -0.105 0.973 171 147 117 0
24.1694 82.1174 -8.9335 0.301 -0.136 0.944 171 144 114 0
27.0203 81.3311 -8.4702 0.893 -0.117 -0.435 160 131 99 0
27.7993 83.5081 -8.0348 0.554 0.263 0.790 153 124 85 0
-43.1159 0.2582 -33.0933 0.990 -0.140 -0.008 223 209 171 0
-26.0262 9.2571 -28.5262 0.164 -0.733 -0.660 237 223 185 0
-24.9961 9.4724 -28.2929 0.574 -0.589 -0.568 236 222 186 0
-24.1441 9.4949 -28.1199 0.308 -0.720 -0.621 238 224 186 0
-19.3299 9.4263 -27.1672 0.648 -0.676 0.351 243 227 193 0
-6.0117 21.1937 -22.9984 0.559 -0.434 0.707 237 225 201 0
-4.1611 20.6960 -22.6926 0.381 -0.499 0.779 237 226 201 0
-16.1637 31.2277 -23.7391 0.998 -0.060 0.001 175 142 117 0
-16.1869 31.7564 -23.6759 0.995 -0.055 -0.088 156 118 94 0
-12.0977 30.6984 -22.9950 0.813 -0.391 0.431 158 114 93 0
-7.6196 31.3843 -22.0127 0.948 -0.043 0.316 148 86 71 0
-7.7990 31.7178 -22.0057 0.689 -0.693 -0.213 150 86 71 0
-8.2634 35.4831 -21.6156 0.829 0.122 0.545 131 64 55 0
-7.0538 38.9940 -20.9238 0.443 -0.574 0.688 145 72 64 0
-3.4161 47.8309 -19.0641 0.854 0.294 0.428 127 74 60 0
-8.2991 55.3249 -19.0783 0.224 -0.109 0.968 224 202 172 0
-2.3710 52.9929 -18.1934 0.753 -0.550 -0.360 218 208 180 0
12.4129 43.2212 -16.4940 0.235 -0.880 0.414 220 208 182 0
30.7097 66.7010 -9.8289 0.205 0.005 0.979 175 154 123 0
26.7662 72.2254 -9.9080 0.593 0.364 0.718 175 152 121 0
17.2919 90.6155 -9.4418 0.084 -0.983 -0.164 172 143 115 0
21.2739 86.5733 -9.1649 0.058 -0.662 0.748 171 140 111 0
21.6702 87.7487 -8.9351 0.333 -0.087 0.939 165 136 105 0
-10.2462 -3.6360 -27.2339 0.683 -0.432 -0.589 229 211 175 0
-24.9783 9.4966 -28.5272 0.579 -0.577 -0.577 237 223 186 0
-22.9290 9.4530 -28.1202 0.233 -0.755 -0.613 240 226 189 0
-22.8868 9.6722 -28.0838 0.296 -0.742 -0.601 240 226 190 0
-20.9247 9.8622 -27.6645 0.860 -0.478 -0.176 242 227 193 0
-20.4347 9.9638 -27.5529 0.856 -0.478 -0.198 244 226 194 0
-4.9954 20.8342 -23.0601 0.295 -0.824 0.484 239 224 200 0
-7.2592 38.1123 -21.3152 0.504 -0.442 0.742 143 75 66 0
-7.1513 38.3151 -21.2676 0.504 -0.442 0.742 143 74 65 0
-5.3224 41.5013 -20.4936 0.396 -0.531 0.749 148 76 70 0
-5.0262 41.8601 -20.3883 0.617 -0.387 0.685 140 71 64 0
-4.9774 42.0968 -20.3483 0.645 -0.329 0.690 137 68 63 0
-4.2186 43.5129 -20.0152 0.781 -0.147 0.607 145 72 66 0
-3.0943 44.4369 -19.6711 0.616 -0.554 0.560 128 60 58 0
-7.6722 54.9667 -19.2516 0.302 -0.072 0.950 217 191 162 0
16.6036 50.9388 -14.8773 0.611 -0.327 0.721 214 202 177 0
6.4533 79.5977 -13.2706 0.236 -0.918 -0.319 198 178 151 0
21.3835 70.4419 -11.4309 -0.197 -0.331 0.923 190 172 140 0
31.1893 65.6688 -10.0646 0.553 0.341 0.760 176 154 123 0
27.2041 71.7982 -10.0863 0.571 0.357 0.739 175 152 121 0
26.4706 72.9681 -10.0850 0.571 0.357 0.739 174 151 120 0
25.9224 73.9225 -10.0738 0.561 0.336 0.756 174 151 120 0
20.7328 82.3926 -10.0398 0.250 0.039 0.967 174 148 120 0
24.7753 78.3870 -9.7361 0.204 -0.323 0.924 171 145 118 0
16.4281 91.4726 -9.7500 0.099 -0.983 0.154 171 144 115 0
17.1129 90.9562 -9.6778 0.402 -0.915 0.020 171 143 114 0
22.7628 87.1110 -9.0301 0.668 -0.090 0.739 160 132 102 0
24.4905 85.1810 -8.9281 0.923 0.061 0.379 158 130 98 0
-7.5276 -10.4075 -27.7446 0.975 0.153 -0.161 255 255 255 0
-9.6729 -7.9995 -27.8754 0.554 0.295 0.779 223 209 172 0
-10.0950 -4.2125 -27.4820 0.762 -0.362 -0.536 228 209 176 0
-9.0114 -3.6305 -27.1885 0.629 -0.756 -0.180 230 212 175 0
-23.6401 9.6583 -28.4764 0.254 -0.763 -0.595 239 223 190 0
-22.9215 9.7096 -28.3241 0.470 -0.501 -0.726 241 225 191 0
-20.9833 9.4509 -27.9634 0.775 -0.584 -0.241 242 225 193 0
-20.7478 9.6184 -27.8944 0.888 -0.439 -0.133 242 226 193 0
-20.7264 9.8401 -27.8621 0.891 -0.438 -0.117 242 226 193 0
-4.0259 21.8414 -22.9547 0.848 -0.212 0.485 237 223 196 0
-10.3722 29.5132 -23.2722 0.143 -0.588 0.796 156 108 95 0
-7.0933 31.9698 -22.2960 0.300 -0.599 0.742 149 83 70 0
-6.0420 39.8540 -21.0854 0.869 -0.363 0.337 147 71 59 0
-5.2992 41.0143 -20.7878 0.453 -0.445 0.773 148 73 67 0
-5.1124 41.1715 -20.7300 0.449 -0.526 0.722 150 76 70 0
-4.8338 41.8037 -20.5935 0.617 -0.387 0.685 141 71 65 0
-4.7555 42.0231 -20.5499 0.643 -0.252 0.723 144 73 69 0
-4.4113 43.4172 -20.3037 0.690 -0.698 0.189 147 74 67 0
-1.8503 47.2187 -19.3031 0.819 -0.414 0.398 127 69 59 0
-1.8501 47.4905 -19.2687 0.852 -0.415 0.318 125 68 57 0
-1.2875 47.3976 -19.1662 0.892 -0.416 0.176 129 73 61 0
9.7169 72.5547 -13.7507 0.312 -0.807 0.502 200 183 155 0
5.5152 85.4253 -12.9754 0.857 0.116 -0.503 193 174 142 0
25.7605 66.5967 -11.2484 -0.126 -0.289 0.949 190 171 139 0
30.0518 67.6518 -10.2440 0.538 0.342 0.770 176 155 124 0
26.6005 73.2059 -10.2419 0.556 0.334 0.761 172 149 118 0
24.4788 76.6704 -10.2343 0.604 0.376 0.703 173 149 119 0
24.9200 78.3089 -9.9375 0.247 -0.310 0.918 172 146 119 0
16.9863 91.2310 -9.9130 0.370 -0.929 0.018 169 141 112 0
24.9868 83.3303 -9.2887 0.619 0.464 0.634 168 138 111 0
23.6937 86.0035 -9.2130 0.894 -0.049 0.445 161 133 103 0
26.9895 82.9741 -8.9273 0.848 0.190 -0.496 153 127 90 0
41.1585 64.7261 -8.3601 0.477 0.148 0.866 150 126 86 0
40.7607 65.5256 -8.3396 0.363 0.067 0.929 150 125 85 0
40.7297 65.8369 -8.3066 0.388 -0.054 0.920 150 125 85 0
-7.5843 -10.3873 -27.9495 0.975 0.158 -0.156 255 255 255 0
-10.0379 -7.9374 -28.1437 0.422 0.300 0.855 223 209 174 0
-10.2985 -4.1618 -27.7227 0.814 -0.282 -0.508 227 208 176 0
-10.2379 -3.9813 -27.6876 0.473 -0.576 -0.667 228 210 177 0
-15.7407 28.1094 -24.7821 0.469 -0.209 0.858 233 219 193 0
-6.8630 31.6569 -22.5203 0.302 -0.600 0.741 150 86 74 0
-6.4937 31.7274 -22.4360 0.315 -0.598 0.737 148 84 72 0
-6.4141 31.9367 -22.3934 0.320 -0.591 0.740 149 83 72 0
-5.8656 40.0716 -21.2593 0.881 -0.352 0.317 149 71 59 0
-4.9869 41.1541 -20.9435 0.390 -0.606 0.694 153 78 71 0
-4.6886 42.0394 -20.7713 0.817 -0.257 0.517 150 78 72 0
-2.8544 44.1379 -20.1325 0.776 -0.562 0.286 131 63 55 0
-2.4914 44.4494 -20.0191 0.508 -0.810 0.292 128 60 51 0
-1.9310 47.3310 -19.5424 0.547 -0.379 0.747 126 66 57 0
-1.3541 47.5014 -19.4030 0.868 -0.455 0.200 125 66 56 0
-7.3347 56.0520 -19.5523 0.382 0.267 0.885 224 204 177 0
-8.0018 56.8110 -19.5934 0.325 0.261 0.909 221 204 176 0
-7.9864 57.0992 -19.5541 0.373 0.241 0.896 219 205 178 0
-8.4748 57.7399 -19.5735 0.223 0.076 0.972 217 206 177 0
16.2779 68.2535 -13.1893 -0.124 -0.267 0.956 198 180 152 0
16.6800 72.0520 -12.6298 0.883 0.296 0.365 190 172 143 0
23.3572 85.8867 -9.5260 0.634 0.471 0.614 166 137 109 0
24.8752 85.2246 -9.2987 0.918 0.391 0.072 155 130 96 0
29.2452 80.0889 -9.0499 0.903 -0.074 -0.422 152 125 89 0
-9.3291 -10.3631 -28.5024 0.978 0.160 -0.135 255 255 255 0
-7.6196 -10.3693 -28.1507 0.975 0.152 -0.162 255 255 255 0
-7.3429 -9.3369 -27.9648 0.938 -0.182 -0.294 223 207 173 0
-7.8997 -9.0924 -28.0491 0.993 0.065 0.099 224 207 174 0
-9.4600 -8.1779 -28.2568 0.409 0.296 0.863 224 207 176 0
-10.0029 -7.9260 -28.3373 0.434 0.314 0.845 222 207 174 0
-9.8280 -7.7646 -28.2811 0.441 0.367 0.819 223 210 175 0
-15.4313 28.0236 -24.9720 0.469 -0.209 0.858 230 219 195 0
-6.8460 30.4599 -22.8979 0.723 0.165 0.671 141 77 65 0
-6.3549 31.9542 -22.6102 0.888 -0.459 0.012 138 74 64 0
-6.5047 32.2752 -22.6011 0.935 -0.337 0.110 139 75 65 0
-4.9623 40.6678 -21.2361 0.335 -0.617 0.712 154 79 70 0
-5.0133 40.9599 -21.2102 0.422 -0.710 0.564 155 81 72 0
-4.8310 41.1193 -21.1527 0.424 -0.705 0.568 156 82 73 0
-2.9327 43.7095 -20.4382 0.765 -0.576 0.289 144 71 64 0
-2.8538 43.9279 -20.3947 0.777 -0.557 0.291 137 64 59 0
-2.7073 44.1053 -20.3424 0.772 -0.573 0.275 134 62 57 0
-1.2924 47.5219 -19.6244 0.868 -0.455 0.200 123 63 52 0
-6.7534 55.7186 -19.7279 0.355 0.227 0.907 221 198 171 0
-6.7800 56.0323 -19.6942 0.335 0.060 0.940 221 203 176 0
-7.3788 56.7455 -19.7287 0.229 0.068 0.971 219 203 179 0
-8.0311 57.8002 -19.7317 0.206 0.063 0.977 217 206 179 0
1.5850 52.1579 -18.4528 0.403 -0.640 -0.654 221 206 184 0
1.5677 80.4124 -14.9318 0.365 0.431 0.825 201 185 157 0
31.6128 62.1633 -11.0134 0.490 0.422 0.763 187 165 135 0
27.7979 71.6638 -10.6148 0.519 0.269 0.811 174 151 120 0
29.9311 73.7912 -9.9096 0.317 -0.298 0.900 170 144 117 0
32.8537 74.8020 -9.1809 0.895 -0.214 0.392 158 132 99 0
-20.5627 30.2013 -26.0113 -0.237 -0.901 0.364 227 218 197 0
-6.7010 30.4368 -23.1015 0.687 0.057 0.725 137 71 60 0
-6.4682 32.3039 -22.8219 0.935 -0.337 0.110 129 65 57 0
-5.8140 33.2288 -22.5714 0.446 -0.808 0.384 131 68 59 0
-5.6042 33.3740 -22.5098 0.446 -0.808 0.384 128 65 56 0
-4.9849 33.8120 -22.3268 0.900 -0.286 0.329 123 59 52 0
-4.3302 38.2860 -21.6366 0.696 -0.703 0.147 147 74 59 0
-4.7082 40.5774 -21.4313 0.498 -0.565 0.658 156 80 71 0
-4.6876 40.8283 -21.3959 0.428 -0.672 0.604 158 82 74 0
-2.7685 43.9331 -20.6125 0.777 -0.557 0.291 134 58 52 0
-2.6202 44.1094 -20.5599 0.792 -0.548 0.270 134 59 53 0
-1.7510 47.6082 -19.9459 0.498 -0.347 0.795 119 56 48 0
-1.0220 47.4065 -19.8193 0.985 -0.074 0.155 119 57 47 0
-0.7123 48.2919 -19.6453 0.986 0.117 0.119 128 73 59 0
-0.5967 48.4883 -19.5970 0.657 -0.219 0.722 127 74 61 0
-0.8906 48.9575 -19.5999 0.769 -0.072 0.635 129 79 64 0
-6.2310 55.7196 -19.8721 0.329 0.054 0.943 216 195 171 0
-7.0312 57.1681 -19.8589 0.228 0.069 0.971 217 204 185 0
-1.3032 53.4280 -19.1319 0.387 -0.614 -0.687 217 205 187 0
33.2791 60.3607 -11.0867 0.490 0.422 0.763 191 166 137 0
33.0805 63.2527 -10.7697 0.738 0.222 0.637 183 162 128 0
41.1373 65.5609 -8.8095 0.339 0.196 0.920 154 113 83 0
-7.3198 -9.1318 -28.3287 0.949 -0.133 -0.286 225 207 174 0
-9.6115 -7.7606 -28.6400 0.409 0.420 0.810 228 209 177 0
-10.2820 21.9100 -25.1311 0.322 -0.836 -0.445 238 226 209 0
-6.1743 32.2073 -23.0043 0.856 -0.453 0.251 125 57 54 0
-4.9323 33.5835 -22.5750 0.881 -0.320 0.349 127 64 57 0
-4.2308 33.9753 -22.3798 0.454 -0.805 0.383 123 59 51 0
-4.8448 35.8020 -22.2838 0.760 -0.453 0.466 136 63 56 0
-4.6079 35.9310 -22.2183 0.772 -0.441 0.457 136 63 56 0
-4.5071 37.9198 -21.9526 0.674 -0.515 0.530 141 67 57 0
-4.4409 40.4793 -21.6239 0.528 -0.650 0.547 160 83 73 0
-3.9427 42.8307 -21.2303 0.472 -0.732 0.491 161 88 79 0
-2.2346 47.4355 -20.3063 0.949 0.177 0.260 120 51 49 0
-2.0424 47.8581 -20.2140 0.773 -0.404 0.490 117 52 48 0
-0.6585 48.3178 -19.8676 0.992 0.089 0.093 124 65 55 0
-0.3558 48.3900 -19.7954 0.655 -0.218 0.724 126 69 60 0
-0.5036 48.7616 -19.7806 0.769 -0.107 0.630 126 73 61 0
-0.4620 49.0077 -19.7416 0.629 0.152 0.763 128 78 64 0
-1.6154 50.0572 -19.8541 0.474 0.240 0.847 130 81 67 0
-0.5256 49.6000 -19.6821 0.676 0.064 0.734 132 85 69 0
-5.7473 55.4517 -20.0560 0.306 0.053 0.950 181 159 135 0
-5.9435 55.8825 -20.0441 0.313 0.058 0.948 215 195 172 0
-6.0586 56.2581 -20.0220 0.302 0.033 0.953 216 200 181 0
-4.6248 71.6105 -17.8334 0.197 -0.549 0.812 211 201 181 0
18.6200 62.4321 -14.0941 0.856 0.516 -0.008 203 186 162 0
17.5770 63.7255 -14.1535 0.872 0.487 -0.048 203 187 162 0
17.5838 71.0656 -13.2493 0.833 0.483 -0.270 197 177 151 0
18.4345 71.6770 -12.9959 0.825 0.159 -0.543 194 174 148 0
28.2819 71.5642 -10.9474 0.537 0.267 0.800 177 153 125 0
27.9144 72.3019 -10.9337 0.532 0.244 0.811 176 152 124 0
27.2110 73.7496 -10.9029 0.488 0.148 0.860 175 150 122 0
-7.6741 -10.3210 -28.7462 0.976 0.079 -0.201 255 255 255 0
-11.1486 23.7076 -25.3240 0.492 -0.615 -0.616 232 222 210 0
-9.4889 28.3514 -24.4066 0.062 -0.492 0.869 150 102 87 0
-6.0258 32.1814 -23.2080 0.876 -0.450 0.175 126 57 54 0
-5.9596 32.3976 -23.1676 0.402 -0.307 0.863 123 53 51 0
-4.8377 33.5833 -22.7860 0.884 -0.306 0.353 126 63 54 0
-4.7795 34.0536 -22.7163 0.883 -0.308 0.355 126 62 54 0
-4.4283 34.1244 -22.6335 0.309 -0.920 0.240 127 62 53 0
-4.2529 34.2845 -22.5770 0.376 -0.911 0.170 123 59 49 0
-4.4552 35.9002 -22.4224 0.796 -0.490 0.355 140 66 60 0
-4.2189 36.2822 -22.3258 0.635 -0.772 0.029 137 64 53 0
-5.7897 42.9034 -21.8488 -0.186 -0.892 0.412 160 86 74 0
-3.9515 42.6259 -21.4947 0.244 -0.879 0.409 166 94 82 0
-3.6261 42.6990 -21.4171 0.447 -0.798 0.404 167 94 85 0
-2.0902 47.1303 -20.5518 0.941 0.148 0.305 125 52 53 0
-2.4243 48.1672 -20.4957 0.977 -0.208 0.038 119 50 50 0
-0.4115 48.7621 -19.9982 0.742 -0.066 0.667 120 64 54 0
-0.3554 48.9986 -19.9575 0.658 0.223 0.719 122 69 58 0
-0.4440 49.6078 -19.9018 0.362 -0.217 0.907 124 75 61 0
-3.6933 71.2300 -17.9472 0.222 -0.502 0.836 207 199 182 0
6.7098 68.3899 -16.0983 0.995 -0.064 -0.078 205 193 170 0
16.9898 64.6642 -14.3837 0.892 0.442 -0.097 201 187 160 0
31.5879 63.2505 -11.4753 0.475 0.398 0.785 188 164 136 0
29.9599 65.3910 -11.5575 0.347 0.308 0.886 186 162 134 0
47.6201 46.1970 -10.1741 0.423 0.369 0.828 183 160 129 0
31.2010 73.0716 -10.3576 0.286 -0.722 0.630 167 142 115 0
31.3414 73.1893 -10.3136 0.129 -0.594 0.794 167 142 116 0
11.9310 99.7578 -11.1658 0.547 -0.497 -0.673 167 140 113 0
44.3387 61.1678 -9.0385 0.319 0.189 0.928 146 101 73 0
-6.5450 30.4982 -23.7543 0.354 -0.863 0.361 134 66 58 0
-5.9904 32.2106 -23.4287 0.944 -0.262 -0.201 126 58 51 0
-5.7444 32.5875 -23.3307 0.749 -0.653 0.113 123 55 50 0
-5.4321 32.6822 -23.2528 0.680 -0.364 0.636 122 55 50 0
-4.7360 33.5796 -22.9959 0.893 -0.285 0.347 124 60 51 0
-4.6805 33.8012 -22.9573 0.893 -0.285 0.347 123 59 50 0
-4.7875 34.1058 -22.9431 0.719 -0.477 0.505 127 61 53 0
-4.3239 35.8806 -22.6293 0.784 -0.482 0.391 140 66 57 0
-0.5496 45.9318 -20.6080 0.667 -0.723 0.183 128 52 52 0
-2.2856 47.3162 -20.8094 0.817 0.260 0.515 126 51 51 0
-1.0951 48.7305 -20.3847 0.999 0.036 0.003 117 56 46 0
-0.6523 48.7107 -20.2929 0.899 0.166 0.405 116 58 47 0
-0.5695 48.9297 -20.2488 0.704 -0.335 0.626 118 61 52 0
-1.2949 51.3619 -20.1082 0.355 -0.012 0.935 136 92 76 0
6.6162 68.5588 -16.3406 0.991 0.054 -0.124 204 193 173 0
28.8966 74.2751 -10.9089 0.513 0.156 0.844 171 148 117 0
48.5559 54.8618 -9.0814 0.457 0.270 0.847 147 106 76 0
-7.1418 -9.1083 -28.8807 0.801 -0.590 -0.103 225 209 176 0
-20.4530 29.5448 -27.0811 -0.248 -0.768 0.590 231 220 199 0
-6.0141 30.5387 -23.8670 0.728 -0.369 0.578 126 58 54 0
-5.6478 31.3481 -23.6911 0.780 -0.372 0.504 126 59 51 0
-5.6938 32.6094 -23.5492 0.735 -0.668 0.115 133 69 60 0
-5.1177 32.5736 -23.4300 0.676 -0.391 0.625 130 66 59 0
-4.8690 32.9468 -23.3318 0.618 -0.740 -0.265 124 61 52 0
-1.5213 47.9757 -20.8054 0.632 -0.284 0.721 121 50 48 0
-1.6348 48.3242 -20.7878 0.708 -0.073 0.702 120 52 46 0
-1.7311 48.6625 -20.7677 0.650 -0.037 0.759 117 50 43 0
-1.3760 48.7035 -20.6867 0.866 0.130 0.483 116 51 42 0
-1.2176 48.8737 -20.6323 0.606 -0.312 0.732 115 53 43 0
-0.9364 55.4390 -19.7818 0.919 -0.251 -0.303 219 207 194 0
17.5855 60.0107 -15.2621 0.109 -0.956 0.271 201 189 172 0
19.9282 58.3779 -14.9565 0.487 -0.341 0.804 203 190 173 0
12.3054 67.5853 -15.4820 0.803 -0.596 -0.008 202 189 165 0
12.9615 67.2561 -15.3810 0.908 0.068 0.414 200 188 164 0
42.4006 53.3808 -10.7418 0.545 0.486 0.683 180 159 132 0
29.5910 70.8488 -11.3846 0.063 -0.254 0.965 176 153 125 0
29.5561 71.1836 -11.3518 -0.088 -0.244 0.966 176 150 123 0
29.2808 73.8929 -11.0847 0.513 0.149 0.845 171 148 117 0
46.2273 58.7956 -9.2700 0.519 0.331 0.788 132 91 67 0
-7.4126 -9.2397 -29.1526 0.778 -0.614 -0.134 225 207 176 0
-4.9130 -9.1858 -28.6064 0.223 -0.729 -0.647 224 210 175 0
-10.2832 22.2978 -26.0044 0.397 -0.802 -0.447 234 227 208 0
-5.1039 32.3655 -23.6830 0.379 -0.593 0.710 132 69 60 0
-4.9065 32.5159 -23.6224 0.389 -0.612 0.689 132 69 60 0
-4.0024 33.5523 -23.3034 0.817 -0.355 0.454 117 51 42 0
-3.7590 34.6754 -23.1166 0.821 -0.025 0.570 131 63 52 0
-4.0164 35.0606 -23.1262 0.847 0.008 0.531 136 65 54 0
-4.0547 35.3325 -23.1019 0.634 -0.537 0.556 139 67 54 0
-1.8424 49.0740 -20.9824 -0.011 -0.349 0.937 118 50 44 0
6.4083 59.9378 -17.9027 0.666 0.353 0.657 213 205 189 0
19.0514 58.9987 -15.2847 0.386 -0.916 0.112 203 191 176 0
12.3056 67.6690 -15.7054 0.747 -0.651 0.136 200 188 168 0
27.9549 75.3405 -11.4095 0.400 0.024 0.916 172 148 120 0
-10.9946 -5.8105 -29.7236 0.182 -0.919 -0.349 226 212 179 0
-6.2779 -6.1261 -28.7348 0.844 -0.505 0.181 226 211 178 0
-7.4720 27.8768 -24.9618 0.914 -0.395 -0.088 139 83 70 0
-7.3267 28.5416 -24.8514 0.615 -0.693 0.376 135 75 65 0
-7.0464 28.6589 -24.7765 0.448 -0.820 0.355 137 77 67 0
-6.9833 29.6079 -24.6502 0.790 -0.598 0.137 134 69 63 0
-6.7966 31.2473 -24.4151 0.883 -0.092 -0.461 123 60 51 0
-6.5685 31.3867 -24.3490 0.805 -0.592 0.035 126 62 53 0
-4.4103 30.8429 -23.9439 0.796 -0.572 0.197 123 59 49 0
-4.5031 32.3628 -23.7838 0.404 -0.506 0.763 122 58 49 0
-4.0150 35.1090 -23.3519 0.841 0.051 0.538 132 65 50 0
-3.9068 35.3043 -23.3052 0.707 -0.574 0.414 135 66 51 0
-5.2527 37.5503 -23.3317 0.741 -0.063 0.668 146 74 55 0
-3.0946 40.2410 -22.5430 0.948 -0.316 0.046 168 97 72 0
6.8589 67.9737 -17.0882 0.161 -0.892 -0.422 203 195 177 0
21.6860 55.8204 -15.3036 -0.065 -0.021 0.998 204 191 173 0
19.9575 58.5005 -15.3618 0.239 -0.001 0.971 204 192 175 0
20.3824 58.9176 -15.2199 0.169 -0.067 0.983 203 191 168 0
8.9680 70.6406 -16.3131 0.874 -0.468 -0.132 200 189 171 0
12.4561 72.1909 -15.3703 0.473 0.340 0.813 197 180 163 0
50.8904 40.4059 -10.7776 0.297 0.294 0.909 189 169 142 0
35.5020 63.8502 -11.3452 0.281 0.246 0.928 174 154 127 0
31.7665 68.9610 -11.5519 0.256 0.224 0.940 173 152 125 0
23.3138 83.8314 -11.6273 0.026 -0.238 0.971 171 144 117 0
19.9504 88.4709 -11.8089 0.524 -0.208 0.826 170 143 116 0
-7.9191 -10.0450 -29.7553 0.973 0.081 -0.216 255 255 255 0
-7.7032 -9.1754 -29.6056 0.882 -0.337 -0.331 224 208 175 0
-7.3659 31.0659 -24.7945 0.822 -0.562 -0.092 129 61 55 0
-7.1171 31.1968 -24.7245 0.965 -0.159 -0.207 133 67 60 0
-4.0131 31.1847 -24.0455 0.940 -0.264 0.217 130 64 55 0
-3.5588 33.4219 -23.6826 0.584 -0.360 0.728 117 50 42 0
-3.7186 34.7520 -23.5610 0.843 -0.356 0.403 130 64 50 0
-2.9587 39.9565 -22.7818 0.954 -0.277 0.114 166 96 68 0
-3.0367 40.2616 -22.7630 0.952 -0.303 0.040 167 98 70 0
-4.6465 58.0480 -21.0221 0.360 0.415 0.835 214 203 186 0
-6.0139 59.3425 -21.1694 0.277 0.332 0.902 215 205 187 0
-3.5628 72.1982 -19.1187 0.943 0.301 -0.142 213 201 185 0
-1.9611 75.4083 -18.3897 0.903 -0.428 -0.039 205 197 179 0
8.6032 71.0762 -16.5839 0.917 -0.399 -0.011 202 190 172 0
10.1583 70.8240 -16.2727 0.723 -0.691 -0.025 200 187 170 0
23.8744 83.2223 -11.8065 0.032 -0.243 0.970 171 144 117 0
19.3381 89.7157 -12.0365 0.883 -0.145 0.447 167 141 113 0
40.0318 64.9636 -10.4140 0.885 0.100 -0.454 164 130 107 0
40.0680 65.1862 -10.3799 0.906 0.146 -0.398 152 116 94 0
33.3456 80.1611 -10.0907 0.516 -0.745 -0.423 254 254 255 0
-7.7034 -9.1604 -29.8031 0.905 -0.315 -0.288 223 207 175 0
-3.6285 33.0089 -23.9763 0.812 -0.410 0.415 116 49 41 0
-3.5788 33.2316 -23.9393 0.805 -0.423 0.417 113 46 38 0
-3.3631 33.3698 -23.8755 0.843 -0.323 0.430 113 46 38 0
-3.8476 34.6168 -23.8368 0.842 -0.354 0.406 123 57 45 0
-4.2095 37.0904 -23.6278 0.562 -0.826 0.054 146 78 54 0
-4.1644 40.1748 -23.2574 0.797 -0.134 0.589 157 91 63 0
-3.0368 40.3156 -22.9919 0.905 -0.175 0.387 166 99 68 0
-0.1955 46.2707 -21.6687 0.685 -0.607 0.403 129 51 49 0
-0.1096 46.4845 -21.6247 0.681 -0.607 0.410 130 52 50 0
0.7037 46.4937 -21.4440 0.790 -0.289 0.541 130 55 54 0
0.6919 47.0398 -21.3828 0.739 -0.238 0.630 119 47 50 0
3.7038 54.0059 -19.9038 0.407 -0.911 -0.074 218 208 190 0
12.6244 67.6156 -16.3436 0.629 -0.777 -0.002 203 190 173 0
10.0929 70.6646 -16.5464 0.914 -0.398 0.082 200 187 170 0
10.2359 70.8361 -16.4948 0.863 -0.488 0.126 200 187 170 0
10.5472 70.8438 -16.4252 0.777 -0.626 0.061 199 186 169 0
11.0264 71.9280 -16.1926 0.838 0.398 -0.375 197 186 164 0
3.2785 90.7900 -15.7000 0.508 -0.849 0.144 190 173 149 0
22.7253 83.8062 -12.2212 0.063 -0.865 0.498 170 146 118 0
20.0931 88.1695 -12.2927 0.518 -0.705 -0.484 171 144 117 0
20.2616 88.2967 -12.2406 0.505 -0.704 -0.499 169 143 116 0
40.1921 63.7693 -10.7047 0.790 -0.562 -0.246 166 141 111 0
33.3413 80.2746 -10.2893 0.511 -0.751 -0.419 254 254 255 0
-7.9992 -10.3641 -30.2080 0.965 0.050 -0.258 255 255 255 0
-12.6101 23.8338 -27.2685 0.332 0.323 0.886 232 224 202 0
-9.6050 27.2296 -26.2062 0.162 -0.761 0.629 131 87 77 0
-9.3545 27.3663 -26.1346 -0.081 -0.896 0.437 131 84 74 0
-7.3541 27.9530 -25.6215 0.696 -0.718 0.000 139 79 70 0
-5.8443 28.9719 -25.1674 0.643 -0.103 0.759 139 69 63 0
-5.8297 29.2084 -25.1368 0.568 -0.250 0.784 138 65 60 0
-3.9489 31.7355 -24.4253 0.503 -0.677 0.537 124 54 49 0
-3.5380 32.7632 -24.2147 0.743 -0.449 0.496 118 50 42 0
-3.3568 32.9189 -24.1563 0.811 -0.424 0.403 117 50 42 0
-3.5907 33.2852 -24.1659 0.888 -0.448 0.104 114 47 40 0
-4.7763 42.7031 -23.3376 0.213 -0.976 -0.047 170 97 76 0
-1.5287 42.8946 -22.5929 0.678 -0.691 0.250 145 69 61 0
-0.0944 46.2652 -21.8830 0.662 -0.615 0.429 133 54 52 0
0.0413 46.4467 -21.8317 0.662 -0.615 0.429 133 55 53 0
1.5753 47.3243 -21.3887 0.483 -0.412 0.773 113 49 46 0
3.5684 54.1747 -20.1509 0.388 -0.919 -0.066 218 206 191 0
2.8664 90.9876 -16.0386 0.787 -0.607 -0.110 191 175 151 0
47.3528 48.3142 -11.0892 0.301 0.260 0.918 182 161 134 0
34.4579 65.6577 -11.9470 0.337 0.317 0.886 175 155 128 0
23.0351 83.8503 -12.3789 0.064 -0.880 0.471 170 145 119 0
39.3204 64.4516 -11.0051 0.078 -0.638 0.766 168 145 113 0
-44.5922 -1.3686 -37.5733 0.561 -0.818 -0.127 230 210 186 0
-9.1681 27.0841 -26.3600 0.174 -0.793 0.584 132 85 76 0
-7.6958 28.1480 -25.9076 0.653 -0.752 -0.089 136 74 66 0
-7.5463 28.3253 -25.8536 0.540 -0.701 -0.466 135 70 63 0
-5.6315 28.9178 -25.3563 0.597 -0.228 0.769 138 65 58 0
-2.6109 31.3657 -24.3977 0.748 -0.324 0.580 119 45 42 0
-2.5485 31.5783 -24.3592 0.748 -0.324 0.580 118 45 42 0
-1.3893 42.8666 -22.8005 0.840 -0.538 0.071 148 70 63 0
-1.2704 43.0586 -22.7518 0.840 -0.538 0.071 147 68 61 0
1.2894 47.0363 -21.7203 0.803 -0.249 0.542 118 50 47 0
3.3152 48.6339 -21.0825 0.653 -0.495 0.573 105 57 54 0
-5.2101 59.5775 -21.7339 0.255 0.309 0.916 217 203 189 0
4.1346 54.1005 -20.2698 0.332 -0.932 -0.142 218 206 192 0
3.6900 55.8497 -20.1682 0.394 -0.546 0.739 218 209 192 0
8.4979 74.2912 -16.9686 0.867 0.384 0.318 197 187 162 0
2.7952 91.1753 -16.3038 0.780 -0.604 -0.161 189 174 151 0
23.8281 70.4763 -13.9717 0.742 0.308 -0.596 191 174 148 0
38.0124 69.8680 -10.8626 0.710 -0.704 0.029 124 82 65 0
26.0423 86.3306 -11.6511 0.142 -0.090 0.986 120 78 62 0
-8.1147 -9.4269 -30.5255 0.968 0.165 -0.187 223 204 178 0
-7.3528 -9.1573 -30.3227 0.825 -0.443 -0.350 226 207 178 0
-0.3405 -9.3185 -28.7580 0.838 0.340 -0.427 227 211 181 0
-0.8186 -9.0882 -28.8396 0.849 0.229 -0.475 226 210 180 0
-42.2503 -2.3947 -37.4291 0.372 -0.928 -0.036 227 209 186 0
-44.4198 -1.3709 -37.8020 0.610 -0.784 -0.114 229 208 185 0
-25.2438 18.2380 -31.2338 0.520 -0.493 -0.697 236 224 199 0
-26.6600 18.9305 -31.4744 0.520 -0.570 -0.636 238 226 200 0
-26.5731 19.1561 -31.4290 0.574 -0.400 -0.714 238 226 200 0
-26.4635 19.3747 -31.3793 0.606 -0.317 -0.730 238 227 200 0
-23.0837 20.2943 -30.5113 -0.303 -0.879 0.369 238 229 200 0
-8.5949 26.8796 -26.4883 0.361 -0.813 0.457 132 83 75 0
-6.0771 26.9897 -25.9073 0.358 -0.924 -0.136 136 78 71 0
-7.7330 27.9636 -26.1699 0.624 -0.779 -0.064 138 77 69 0
-7.6833 28.1855 -26.1334 0.653 -0.752 -0.089 133 70 62 0
-7.5257 28.3594 -26.0779 0.658 -0.748 -0.087 130 66 58 0
-7.3547 28.5271 -26.0202 0.616 -0.785 -0.064 130 65 61 0
-4.5465 42.6805 -23.7701 -0.053 -0.986 0.161 168 98 73 0
-1.2301 43.0907 -22.9745 0.838 -0.541 0.079 148 68 62 0
1.2582 46.3112 -22.0451 0.889 -0.333 0.314 126 52 52 0
1.1191 46.6710 -22.0354 0.825 -0.531 0.193 122 50 50 0
1.2050 46.8835 -21.9917 0.701 -0.678 0.220 121 51 50 0
-2.8164 58.1853 -21.6091 0.425 0.368 0.827 213 202 188 0
0.2096 59.1671 -20.8139 0.695 -0.714 0.087 217 208 192 0
12.3788 62.7733 -17.6547 0.410 -0.839 0.357 206 197 178 0
6.8208 74.4198 -17.5797 0.411 -0.388 0.825 202 186 170 0
3.0337 91.0238 -16.5388 0.794 -0.608 -0.009 190 174 152 0
19.2125 86.8819 -13.3591 0.388 0.348 0.853 171 150 121 0
22.7022 83.4975 -12.9577 -0.025 -0.492 0.870 172 148 125 0
27.9899 78.0560 -12.3853 0.784 0.387 0.486 169 144 118 0
-8.1249 -9.9498 -30.7876 0.977 0.084 -0.195 255 255 255 0
-8.1583 -9.4069 -30.7337 0.968 0.165 -0.187 222 203 179 0
-42.1114 -2.3925 -37.6601 0.422 -0.901 -0.101 227 210 184 0
-45.1591 -1.2440 -38.2231 0.830 -0.056 -0.555 229 209 186 0
-45.3830 -0.9674 -38.2427 0.812 -0.095 -0.576 228 208 183 0
0.4624 -5.1133 -28.2868 0.895 -0.445 0.033 228 213 184 0
-26.0004 21.0434 -31.3412 -0.316 -0.816 0.483 241 229 202 0
-19.0024 27.2248 -29.0494 0.716 -0.058 0.696 232 222 197 0
-7.5839 28.1844 -26.3441 0.670 -0.732 -0.123 129 66 59 0
-7.4295 28.3597 -26.2891 0.550 -0.817 -0.174 125 62 55 0
-7.3906 28.5867 -26.2545 0.408 -0.861 -0.304 128 62 58 0
-5.1212 29.0127 -25.6902 0.349 -0.703 0.619 135 61 54 0
-4.7890 29.1010 -25.6046 0.225 -0.743 0.631 149 73 67 0
-2.1610 34.1826 -24.4313 0.720 -0.121 0.683 110 47 37 0
-2.1489 34.4250 -24.4011 0.720 -0.121 0.683 112 50 37 0
-3.4665 40.5172 -24.0105 0.977 -0.212 0.027 160 102 65 0
-4.0923 42.7367 -23.9013 -0.048 -0.988 0.145 171 103 76 0
-1.3143 42.6698 -23.2772 0.807 -0.587 0.067 149 75 65 0
-1.2717 42.9082 -23.2405 0.841 -0.529 0.114 153 78 70 0
1.5788 46.1612 -22.2237 0.854 -0.421 0.306 126 52 51 0
1.4343 46.5239 -22.2155 0.720 -0.519 0.461 122 50 51 0
3.2756 46.3716 -21.8140 0.577 -0.742 0.343 114 50 49 0
3.1877 47.4990 -21.7063 0.766 -0.398 0.505 110 48 46 0
3.6512 48.7967 -21.4538 0.856 -0.387 0.344 100 52 50 0
-2.3488 57.9111 -21.7856 0.422 0.381 0.822 211 202 187 0
-2.7543 58.5087 -21.8101 0.416 0.370 0.831 212 201 189 0
-1.4361 59.9064 -21.3520 0.941 -0.280 0.187 216 207 192 0
-0.2158 59.5675 -21.1129 0.626 -0.774 -0.094 217 208 193 0
12.4829 83.4381 -15.5207 0.584 -0.258 0.770 194 176 150 0
54.0947 37.5137 -11.2610 0.042 0.049 0.998 192 172 147 0
40.5286 59.7539 -11.8262 0.425 0.371 0.826 173 154 124 0
39.9149 64.7542 -11.3993 0.015 -0.626 0.780 165 139 114 0
-8.1680 -9.9305 -30.9956 0.977 0.084 -0.195 255 255 255 0
-34.8565 19.9649 -33.7481 0.893 -0.116 -0.436 234 223 201 0
-10.1679 23.0355 -27.7480 0.566 -0.550 0.614 232 224 201 0
-20.8430 27.7384 -29.6645 0.385 -0.544 0.745 231 223 198 0
-19.1118 27.3108 -29.3160 0.808 -0.192 0.557 232 222 197 0
-11.0109 27.2620 -27.4660 -0.082 -0.907 0.414 134 84 80 0
-4.8687 28.9397 -25.8705 0.342 -0.707 0.619 138 60 54 0
-1.9802 34.6341 -24.5688 0.762 0.008 0.647 116 54 41 0
-3.7866 37.3736 -24.6746 0.833 -0.438 0.340 137 82 49 0
-3.7998 40.4997 -24.3262 0.999 0.027 -0.039 156 98 61 0
-2.3416 42.5509 -23.7616 0.681 -0.671 0.292 165 93 76 0
-1.4688 43.6162 -23.4420 0.721 -0.617 0.316 135 55 49 0
2.9320 46.1288 -22.1515 0.498 -0.852 0.163 120 52 49 0
-2.0278 57.7450 -21.9818 0.481 0.479 0.734 211 201 186 0
1.0399 56.3398 -21.4371 0.470 -0.105 0.876 213 204 191 0
10.7829 56.6257 -19.1733 0.526 -0.171 0.833 212 203 188 0
22.8266 52.1580 -16.9169 0.765 0.607 0.215 210 199 181 0
16.5395 64.2616 -16.9964 0.816 0.542 0.202 204 189 170 0
24.8597 62.7233 -15.2636 0.416 0.008 0.909 193 181 159 0
20.9314 75.5662 -14.7197 0.770 0.553 0.317 192 172 147 0
-8.2111 -9.9111 -31.2040 0.977 0.084 -0.195 254 254 254 0
-8.1941 -8.6489 -31.0593 0.968 0.230 -0.104 226 212 183 0
-10.6305 22.5396 -28.1432 0.791 -0.138 -0.596 232 224 201 0
-21.3781 27.9933 -30.0144 0.220 -0.524 0.823 231 221 199 0
-9.8324 27.2940 -27.4288 -0.083 -0.899 0.431 130 74 71 0
-3.1669 28.9127 -25.7106 0.474 -0.788 0.393 135 47 44 0
-3.8760 33.9198 -25.3158 0.784 0.461 -0.416 107 38 34 0
-1.8436 34.6109 -24.7698 0.763 -0.107 0.637 118 56 45 0
-4.0577 38.8675 -24.8059 0.960 -0.207 0.187 144 84 54 0
-2.6277 42.5127 -24.0695 0.675 -0.713 0.189 167 99 73 0
-0.9830 43.1103 -23.6234 0.804 -0.595 0.025 138 59 51 0
1.4974 45.0004 -22.8404 0.828 -0.048 0.558 135 56 52 0
1.3399 45.3679 -22.8358 0.794 -0.134 0.593 136 59 54 0
0.9976 46.6627 -22.7704 0.177 -0.653 0.737 127 55 52 0
3.0236 46.1281 -22.3626 0.488 -0.829 0.272 120 50 48 0
0.8426 53.6868 -22.0228 0.715 -0.012 0.699 110 79 69 0
1.0812 58.1268 -21.4726 0.396 -0.352 0.848 215 206 192 0
23.7013 50.6874 -17.0838 0.858 0.394 -0.329 211 200 182 0
7.8176 73.7211 -18.1794 0.364 -0.200 0.910 203 188 168 0
7.7481 74.1097 -18.1521 0.371 -0.250 0.895 204 189 169 0
7.2090 75.6092 -18.1093 0.453 0.150 0.879 200 185 164 0
25.4944 59.9536 -15.6368 0.851 -0.516 0.094 197 185 162 0
38.0697 66.7988 -11.9723 0.084 -0.404 0.911 169 143 119 0
39.0201 68.6068 -11.5514 0.419 0.240 0.876 115 82 68 0
37.8663 71.0235 -11.5481 0.698 0.460 0.550 112 75 66 0
35.1579 75.3105 -11.6948 0.702 0.461 0.542 108 73 63 0
-8.2490 -9.8923 -31.4116 0.989 0.063 -0.137 254 254 254 0
-8.2865 -9.3473 -31.3600 0.974 0.171 -0.151 221 205 178 0
1.6250 -9.5084 -29.0750 0.801 0.236 -0.550 227 211 181 0
-24.0337 28.2878 -30.8551 0.562 -0.825 -0.052 231 223 201 0
-23.7807 28.4552 -30.7778 0.562 -0.825 -0.052 231 223 202 0
-23.5282 28.6223 -30.7007 0.562 -0.825 -0.052 230 222 201 0
-10.0045 26.9187 -27.7470 0.145 -0.968 0.205 131 79 77 0
-9.5578 26.9733 -27.6372 0.149 -0.968 0.199 133 77 75 0
-2.8871 29.0648 -25.8559 0.479 -0.785 0.394 135 45 44 0
-2.7143 29.2231 -25.7982 0.410 -0.754 0.513 137 46 45 0
-2.7728 29.7324 -25.7555 0.449 -0.793 0.411 137 46 45 0
-1.6072 34.2863 -24.9808 0.565 -0.262 0.782 118 56 45 0
-1.6138 34.5384 -24.9545 0.726 -0.077 0.683 122 60 49 0
-2.1510 35.0728 -25.0202 0.751 -0.659 -0.026 119 57 45 0
-4.0502 39.4381 -24.9785 0.961 -0.203 0.190 144 88 52 0
-4.0268 39.6866 -24.9456 0.975 -0.199 0.104 147 91 53 0
-2.1535 38.8884 -24.5986 0.776 -0.626 -0.071 151 95 57 0
-0.9223 43.1301 -23.8433 0.865 -0.479 0.149 138 60 48 0
3.3182 46.2580 -22.5120 0.226 -0.842 0.490 120 49 47 0
4.2128 50.4960 -21.8353 0.460 0.126 0.879 101 62 56 0
1.1277 53.8322 -22.1830 0.707 0.354 0.612 110 80 72 0
0.6934 54.4328 -22.2174 0.820 0.191 0.540 113 85 75 0
24.7420 46.1608 -17.5450 0.942 -0.185 -0.281 211 202 185 0
22.8314 52.2915 -17.3107 0.765 0.607 0.215 207 199 180 0
7.3230 75.5890 -18.3365 0.401 0.023 0.916 200 187 166 0
26.0737 65.5235 -15.0935 0.952 -0.265 0.152 192 176 152 0
24.4766 68.4337 -15.1426 0.159 -0.531 0.832 187 173 150 0
10.9861 86.8266 -16.2422 0.834 0.448 0.321 194 174 150 0
9.9630 88.3497 -16.3114 0.843 0.367 0.393 194 174 150 0
55.2192 37.5360 -11.4180 0.367 0.314 0.876 189 170 145 0
52.4663 41.7670 -11.5895 0.249 0.174 0.953 187 165 141 0
49.3044 49.2609 -11.4951 0.355 0.323 0.877 175 155 131 0
25.2612 83.2789 -13.3179 -0.036 -0.989 0.144 171 145 120 0
38.0095 67.2469 -12.1296 -0.064 -0.473 0.879 167 143 118 0
40.5637 66.3424 -11.6362 0.437 0.256 0.862 138 106 91 0
39.8659 67.5592 -11.6637 0.507 0.279 0.816 119 87 74 0
39.5273 70.8454 -11.3788 0.587 -0.810 0.004 99 69 61 0
-8.2960 -9.8725 -31.6216 0.988 0.074 -0.133 254 254 254 0
-8.3222 -9.3282 -31.5680 0.974 0.171 -0.151 221 205 178 0
-9.1394 -8.6849 -31.6887 0.907 0.374 0.193 226 211 183 0
11.1204 12.2815 -24.6471 -0.051 -0.944 -0.327 234 226 203 0
-22.8306 27.5972 -30.9106 0.960 -0.141 -0.242 231 223 198 0
-24.1386 28.3722 -31.1316 0.425 -0.859 -0.285 231 223 201 0
-23.5369 28.6695 -30.9582 0.546 -0.838 -0.008 229 221 202 0
-9.4872 26.7406 -27.8823 0.162 -0.976 0.146 131 80 77 0
-9.1842 26.8557 -27.7988 0.155 -0.975 0.159 131 76 74 0
-5.6049 27.4728 -26.8936 0.627 -0.562 0.539 130 67 60 0
-5.5900 27.7071 -26.8644 0.604 -0.595 0.530 125 60 55 0
-5.1904 27.7681 -26.7642 0.622 -0.566 0.542 124 56 53 0
-4.0401 27.4874 -26.5258 0.486 -0.501 0.717 124 54 52 0
-3.9211 27.6721 -26.4777 0.471 -0.496 0.730 130 58 56 0
-2.7278 29.2737 -26.0227 0.510 -0.799 0.318 132 43 42 0
-2.7172 29.5092 -25.9944 0.784 -0.516 0.345 134 45 44 0
-2.7833 29.7820 -25.9799 0.758 -0.530 0.381 136 47 46 0
-1.4382 29.3754 -25.7098 0.446 -0.796 0.410 135 47 46 0
-1.7984 29.7890 -25.7487 0.340 -0.718 0.608 135 46 45 0
-2.4361 34.7718 -25.3511 0.928 -0.364 -0.078 115 51 41 0
-2.2007 34.8980 -25.2821 0.936 -0.351 -0.038 119 55 45 0
-1.9772 35.0299 -25.2154 0.851 -0.215 0.480 116 52 42 0
-2.5157 37.0897 -25.1153 0.793 0.254 0.554 131 84 46 0
-4.2811 39.8837 -25.2218 0.871 -0.322 0.371 145 92 52 0
-1.7608 38.7188 -24.7599 0.701 -0.703 0.119 148 95 55 0
-1.5875 38.8777 -24.7019 0.784 -0.618 -0.057 150 97 57 0
-4.1124 42.7061 -24.8726 0.146 -0.988 -0.043 165 111 66 0
-0.6576 43.2896 -24.0001 0.685 -0.667 0.293 142 64 52 0
1.3679 50.0848 -22.7805 0.670 0.699 0.249 103 42 44 0
4.3532 49.9142 -22.1006 0.203 -0.732 0.650 96 51 50 0
4.5185 50.0691 -22.0449 0.465 -0.353 0.812 96 53 51 0
4.4176 50.4142 -22.0307 0.645 -0.015 0.764 99 58 54 0
4.1747 50.8621 -22.0384 0.571 0.050 0.819 104 64 60 0
1.3547 53.7352 -22.3830 0.638 0.277 0.719 106 75 68 0
0.5280 54.6216 -22.4791 0.819 -0.062 0.570 109 81 72 0
0.5690 54.8787 -22.4413 0.781 -0.136 0.609 114 87 76 0
0.7660 55.3092 -22.3480 0.849 -0.281 0.447 142 118 106 0
24.7311 46.4739 -17.7099 0.894 -0.339 -0.293 211 202 185 0
11.7300 64.6438 -18.7581 -0.047 -0.807 0.589 207 193 180 0
2.5450 79.3921 -19.2888 0.976 -0.193 -0.105 201 189 166 0
2.7287 79.5507 -19.2284 0.923 -0.263 -0.282 199 187 164 0
2.8133 79.8066 -19.1805 0.954 -0.195 -0.227 199 188 166 0
25.4746 60.1309 -16.0371 0.865 -0.409 0.291 197 184 165 0
27.6998 59.4583 -15.5903 0.616 0.467 0.635 195 183 159 0
26.7466 60.9932 -15.6449 0.639 0.445 0.627 195 183 159 0
26.0926 61.9530 -15.6926 0.562 0.361 0.744 196 184 158 0
25.5314 62.8200 -15.7288 0.778 0.232 0.584 194 182 159 0
24.6882 68.2877 -15.3260 0.539 -0.553 0.635 186 173 148 0
9.2511 88.2130 -16.7515 0.916 0.204 -0.345 194 174 150 0
11.4100 86.4486 -16.4400 0.811 0.555 0.186 194 175 151 0
8.5684 90.7798 -16.6296 0.838 0.442 0.321 192 173 147 0
53.7156 40.1461 -11.6221 0.263 0.191 0.946 187 165 141 0
52.6050 42.0732 -11.6705 0.122 0.047 0.991 187 165 141 0
23.7050 84.7461 -13.7499 0.251 -0.934 0.254 171 147 123 0
23.6741 85.1198 -13.7161 0.104 -0.989 0.109 171 146 123 0
38.1152 67.4791 -12.2729 -0.116 -0.406 0.906 165 141 118 0
40.0152 67.7288 -11.8009 0.565 0.337 0.753 124 93 81 0
39.2710 69.0196 -11.8334 0.636 0.399 0.661 113 83 73 0
38.2245 70.7297 -11.8906 0.691 0.442 0.572 106 77 68 0
39.3901 70.8474 -11.6049 0.558 -0.830 -0.023 98 71 62 0
39.5152 70.9603 -11.5633 0.548 -0.836 -0.018 96 68 60 0
39.6796 71.0179 -11.5185 0.565 -0.824 -0.043 61 45 41 0
39.8365 71.0854 -11.4744 0.551 -0.833 -0.056 49 48 48 0
-8.3252 -9.8546 -31.8281 0.988 0.074 -0.133 254 254 254 0
-8.3514 -9.3098 -31.7750 0.972 0.180 -0.154 223 207 179 0
-15.3788 -6.1605 -33.0881 0.123 -0.359 0.925 228 212 184 0
-13.5661 23.3029 -29.4538 0.878 -0.376 0.296 234 226 203 0
-22.8984 27.6665 -31.1779 0.957 -0.199 -0.211 231 223 199 0
-22.5660 27.8008 -31.0850 0.955 -0.267 -0.127 231 223 200 0
-22.8301 28.1688 -31.1072 0.507 -0.862 -0.008 230 222 200 0
-11.2138 27.0229 -28.4946 -0.132 -0.845 0.518 130 82 79 0
-9.5057 26.5461 -28.1440 0.122 -0.993 0.004 129 81 77 0
-3.7000 27.6141 -26.6596 0.471 -0.496 0.730 125 56 54 0
-2.4751 29.4381 -26.1725 0.787 -0.526 0.324 130 43 42 0
-2.5603 29.7197 -26.1619 0.797 -0.509 0.325 131 44 43 0
-0.8776 31.0671 -25.6187 0.437 -0.388 0.811 123 43 44 0
-0.1489 30.9427 -25.4605 0.692 -0.702 0.169 118 39 40 0
-0.4330 31.3267 -25.4857 0.779 -0.616 0.117 111 35 35 0
-2.5156 34.6122 -25.6188 0.974 -0.227 -0.013 106 42 33 0
-2.3209 35.0109 -25.5295 0.942 -0.332 0.053 112 48 38 0
-2.1100 36.4108 -25.3274 0.961 -0.078 0.266 126 77 44 0
-2.2426 36.9912 -25.2955 0.866 0.270 0.420 130 84 47 0
-5.4288 40.5856 -25.6550 0.540 0.565 0.623 142 91 51 0
-1.2855 38.5020 -24.9055 0.720 -0.690 -0.081 143 92 53 0
-1.8773 41.1788 -24.7536 0.953 -0.141 0.267 160 110 62 0
-2.6683 41.9090 -24.8605 0.591 -0.732 0.338 161 110 63 0
-0.5723 43.2943 -24.2158 0.682 -0.675 0.281 149 72 59 0
4.3706 49.6936 -22.3544 0.203 -0.732 0.650 97 49 49 0
4.5887 49.8110 -22.2903 0.203 -0.732 0.650 97 50 50 0
4.8054 49.9289 -22.2264 0.207 -0.710 0.673 96 51 51 0
4.8030 50.2029 -22.1971 0.465 -0.325 0.824 97 54 53 0
4.6444 50.5897 -22.1924 0.633 0.053 0.772 100 59 56 0
2.1234 53.2444 -22.4975 0.627 0.276 0.729 106 73 66 0
1.0367 54.3192 -22.6366 0.732 -0.077 0.677 108 78 70 0
0.9938 54.6365 -22.6121 0.655 -0.154 0.740 109 81 72 0
0.7167 55.4147 -22.5927 0.869 -0.405 0.284 127 99 89 0
13.2390 63.0442 -18.8114 0.999 -0.051 -0.003 207 193 178 0
22.5565 58.7622 -17.0819 0.788 -0.167 -0.593 203 188 168 0
2.6588 79.3765 -19.5268 0.909 -0.273 -0.315 201 189 166 0
2.6886 79.6864 -19.4860 0.923 -0.263 -0.282 198 187 164 0
8.4639 76.5903 -18.4621 0.089 -0.859 0.504 197 185 161 0
9.0525 89.9728 -16.8667 0.812 0.558 0.172 192 174 150 0
8.6545 90.7919 -16.8713 0.838 0.442 0.321 191 173 147 0
58.0381 36.5515 -11.1384 0.261 0.222 0.940 183 163 138 0
48.6844 50.8702 -11.7840 0.332 0.282 0.900 175 153 129 0
32.5126 73.1456 -13.1701 0.101 -0.238 0.966 171 149 125 0
19.3490 93.6973 -14.0350 -0.013 -0.229 0.973 163 135 113 0
16.9638 97.2447 -14.2109 0.075 -0.159 0.984 161 133 112 0
38.6550 70.2390 -12.0390 0.647 0.420 0.637 121 92 85 0
35.9718 74.4988 -12.2076 0.709 0.456 0.538 105 79 74 0
39.8674 69.9965 -11.7797 0.245 -0.952 0.181 89 66 57 0
39.9626 71.0069 -11.6473 0.148 -0.950 0.273 49 49 49 0
-8.5945 -8.9027 -31.9910 0.979 0.070 -0.193 224 212 182 0
-8.4839 -8.5515 -31.9268 0.987 0.154 -0.054 226 213 182 0
-14.2937 -6.0964 -33.0404 0.126 -0.672 -0.730 229 214 185 0
-12.4986 -6.1519 -32.6205 0.124 -0.666 -0.736 229 213 185 0
0.0896 -4.4160 -29.4459 0.162 -0.700 -0.695 240 221 191 0
-31.1931 22.7257 -33.9390 0.282 -0.918 -0.279 236 226 201 0
-13.4480 23.2969 -29.6664 0.851 0.180 0.494 234 226 204 0
-13.8475 23.6948 -29.7183 0.982 -0.055 0.179 234 226 203 0
-22.2287 27.7119 -31.2735 0.103 -0.585 0.804 230 222 201 0
-9.4275 26.5548 -28.3607 0.122 -0.993 0.004 126 77 73 0
-3.2023 27.4298 -26.7890 0.345 -0.742 0.575 123 56 53 0
-2.4739 29.7228 -26.3686 0.797 -0.509 0.325 128 42 42 0
-0.2705 30.3292 -25.7802 0.626 -0.549 0.554 126 42 40 0
-0.2867 31.2989 -25.6794 0.394 -0.693 0.604 112 36 36 0
-2.4179 34.6099 -25.8277 0.741 -0.426 0.519 105 41 32 0
-2.3418 34.8204 -25.7869 0.778 -0.372 0.506 107 44 35 0
-2.2170 35.0053 -25.7373 0.853 -0.386 0.352 109 46 37 0
-1.7590 36.2705 -25.4920 0.891 -0.380 0.247 126 77 46 0
-1.7387 36.5125 -25.4611 0.792 -0.190 0.581 126 79 46 0
-1.5988 36.6892 -25.4088 0.813 -0.163 0.559 126 80 46 0
-1.3389 38.5850 -25.1425 0.691 -0.719 -0.075 140 93 51 0
-1.9114 41.2540 -24.9902 0.948 -0.249 0.198 157 112 61 0
-1.6147 43.4590 -24.6817 0.796 -0.603 -0.057 148 71 55 0
-0.8408 43.2512 -24.5205 0.561 -0.787 0.256 152 74 60 0
-0.3774 43.2314 -24.4127 0.652 -0.706 0.276 151 74 60 0
4.4865 49.6754 -22.5628 0.056 -0.291 0.955 100 52 52 0
4.8173 49.7125 -22.4803 0.208 -0.702 0.681 104 56 56 0
4.9102 49.9182 -22.4360 0.458 -0.027 0.889 102 56 56 0
5.0213 50.1110 -22.3889 0.835 0.258 0.486 96 51 51 0
24.6183 46.6953 -18.1073 0.876 0.052 -0.479 211 202 185 0
13.2704 63.0948 -19.0296 0.997 -0.059 0.057 205 193 177 0
0.7748 79.6059 -20.2123 0.981 -0.005 0.195 202 189 171 0
38.1664 71.2924 -12.2368 0.647 0.420 0.637 125 96 91 0
39.8834 70.0713 -11.9612 0.277 -0.943 0.184 102 79 72 0
40.0137 71.0335 -11.8264 0.066 -0.941 0.331 49 48 49 0
-8.6377 -8.8823 -32.2024 0.979 0.070 -0.193 225 212 183 0
-13.2212 23.0060 -29.8835 0.810 0.194 0.553 232 224 204 0
-13.5819 23.6320 -29.9026 0.991 -0.108 0.083 232 224 204 0
-13.9052 24.0022 -29.9403 0.982 0.033 0.186 231 223 204 0
-21.4979 27.4687 -31.3834 0.131 -0.817 0.561 229 221 202 0
-9.9016 25.8196 -28.7890 0.354 -0.893 0.278 146 99 93 0
-6.5387 26.8082 -27.8796 0.046 -0.801 0.596 121 63 59 0
-2.8515 27.3122 -26.9445 0.437 -0.566 0.700 122 57 53 0
-2.0273 27.6440 -26.7121 0.858 -0.281 0.431 128 54 53 0
-1.9753 27.8569 -26.6769 0.858 -0.281 0.431 128 53 53 0
-2.0550 28.1315 -26.6665 0.441 -0.854 0.278 129 53 53 0
-0.8906 29.2442 -26.2691 0.805 -0.339 0.487 127 46 45 0
-0.8848 29.7190 -26.2169 0.769 -0.432 0.470 128 52 49 0
-2.3217 34.6084 -26.0368 0.762 -0.408 0.503 105 42 34 0
-2.2199 34.8053 -25.9914 0.805 -0.344 0.483 109 46 38 0
-1.5281 36.1954 -25.6772 0.817 -0.450 0.362 125 75 48 0
-1.4397 36.3998 -25.6342 0.900 -0.267 0.343 126 77 46 0
-1.2477 36.5474 -25.5725 0.875 -0.311 0.371 124 78 45 0
-2.2301 41.4972 -25.2773 0.881 0.008 0.473 154 112 59 0
-1.3597 43.3603 -24.8698 0.557 -0.830 0.043 154 78 60 0
-0.5983 43.1595 -24.7094 0.584 -0.741 0.330 157 80 64 0
2.5532 45.1424 -23.7441 0.700 -0.649 0.299 135 53 46 0
5.8715 46.6262 -22.7923 0.632 -0.739 0.234 103 38 40 0
4.6252 48.5577 -22.8833 0.702 0.507 0.500 98 44 44 0
5.0715 49.5956 -22.6655 0.211 -0.688 0.694 103 55 55 0
5.2616 49.7314 -22.6055 0.963 0.269 -0.007 105 58 58 0
5.1255 50.1007 -22.5985 0.943 0.317 0.097 96 51 50 0
1.6889 54.2642 -22.9739 0.539 -0.292 0.790 104 73 66 0
-4.7155 62.0159 -23.6743 0.479 0.548 0.686 213 205 192 0
0.6349 58.2410 -22.8000 0.755 -0.410 -0.513 212 205 191 0
24.9359 46.0070 -18.3030 0.919 0.198 -0.341 213 204 189 0
24.3865 46.7114 -18.3589 0.906 0.257 -0.336 213 204 188 0
12.2188 63.8467 -19.4318 0.997 -0.062 -0.041 204 196 177 0
25.2673 68.2005 -15.8477 0.392 -0.569 0.723 189 174 151 0
26.6909 82.4958 -13.9769 -0.271 -0.683 0.678 168 147 120 0
26.2834 84.0180 -13.9113 -0.109 -0.876 0.470 164 141 116 0
42.5316 64.5887 -12.1090 0.585 0.385 0.714 149 121 108 0
