ply
format ascii 1.0
element vertex 848
property float x
property float y
property float z
property float nx
property float ny
property float nz
property uchar diffuse_red
property uchar diffuse_green
property uchar diffuse_blue
property uchar class
end_header
41.1047 76.7876 -28.1278 0.795 -0.493 -0.353 165 151 138 0
35.2951 88.7306 -30.0190 0.694 -0.643 -0.324 254 255 255 0
-10.3643 -7.7998 -49.0183 0.731 -0.620 -0.284 229 217 208 0
-10.2977 -6.8434 -48.9750 -0.071 -0.965 0.252 230 220 211 0
-9.3063 -6.8148 -48.6081 -0.076 -0.888 0.454 232 222 213 0
-11.3170 29.3644 -48.6444 0.095 -0.871 -0.482 212 195 185 0
2.1820 27.4905 -43.6924 0.906 -0.418 0.061 101 53 61 0
2.2773 27.6852 -43.6534 0.913 -0.394 0.108 102 52 61 0
6.6770 27.0369 -42.0401 0.336 -0.915 0.221 104 46 55 0
7.0479 27.0738 -41.9023 0.317 -0.928 0.197 104 45 55 0
8.2544 27.5976 -41.4462 0.787 -0.558 0.264 99 39 51 0
9.1524 33.6221 -40.9966 0.782 -0.623 0.020 87 26 31 0
9.8610 34.6728 -40.7143 0.712 -0.561 0.423 86 25 30 0
11.1827 37.5944 -40.1688 0.986 -0.115 0.121 88 22 23 0
11.1206 38.1484 -40.1809 0.902 -0.356 -0.245 87 21 22 0
11.6709 38.5402 -39.9699 0.984 -0.151 0.099 81 20 20 0
9.9415 42.9186 -40.5235 0.877 -0.255 -0.407 61 19 21 0
12.0823 41.8931 -39.7523 0.744 -0.135 0.654 62 22 22 0
11.0607 42.9069 -40.1101 0.525 -0.776 -0.350 62 23 22 0
11.0863 43.1559 -40.0957 0.553 -0.757 -0.349 64 25 24 0
11.2790 43.2819 -40.0221 0.571 -0.747 -0.340 62 22 20 0
11.8446 43.3980 -39.8108 0.755 -0.408 0.513 59 20 19 0
10.9316 45.9869 -40.0976 0.864 0.045 0.502 53 22 20 0
11.1855 47.1715 -39.9807 0.696 -0.618 -0.366 52 25 24 0
11.3796 47.2972 -39.9065 0.957 -0.274 -0.098 53 28 26 0
11.0901 47.8026 -40.0036 0.987 0.061 -0.146 50 27 25 0
-0.9414 66.0416 -44.0937 0.866 0.499 -0.044 176 172 144 0
-1.2825 66.6754 -44.2073 0.854 0.518 -0.054 175 175 147 0
5.5228 65.5712 -41.7140 0.619 -0.702 -0.353 62 117 70 0
9.4632 62.2579 -40.3225 0.346 -0.306 0.887 62 118 71 0
16.5872 60.1423 -37.7310 0.997 -0.048 -0.055 64 118 73 0
16.6501 60.3849 -37.7031 0.984 0.168 0.066 64 118 74 0
5.6434 72.8747 -41.5267 0.775 -0.549 0.313 68 120 77 0
7.6750 71.1918 -40.8088 0.254 -0.831 0.494 68 120 78 0
9.8949 69.6404 -40.0187 0.690 -0.722 -0.049 71 120 82 0
9.5216 70.3521 -40.1428 0.159 -0.976 0.151 71 121 83 0
10.0967 70.7785 -39.9219 0.413 -0.910 0.036 81 128 89 0
13.1030 72.0259 -38.7865 0.737 0.103 0.668 185 181 168 0
16.8440 70.9823 -37.4244 0.436 -0.509 0.742 191 184 174 0
30.6617 75.3332 -32.2330 0.160 -0.975 0.155 184 173 159 0
26.2135 95.6533 -33.4800 0.901 0.212 -0.378 174 160 147 0
41.7040 74.9459 -28.1598 0.319 -0.061 0.946 169 155 142 0
42.6246 73.8002 -27.8420 0.764 -0.450 -0.462 168 154 141 0
41.0908 76.9261 -28.3477 0.833 -0.406 -0.377 166 152 139 0
34.8241 89.6388 -30.4154 0.725 -0.617 -0.307 254 255 254 0
-10.4374 -7.7723 -49.2670 0.731 -0.620 -0.284 228 216 207 0
-12.5687 29.7374 -49.3642 0.069 -0.881 -0.468 212 199 188 0
-1.1359 27.5083 -45.1601 0.072 -0.748 0.659 114 73 79 0
-0.1882 27.7723 -44.8033 0.199 -0.968 0.154 110 69 73 0
0.1307 27.8568 -44.6834 0.199 -0.968 0.154 106 64 68 0
2.2814 27.7274 -43.8871 0.910 -0.396 0.122 104 55 64 0
7.3295 27.9160 -42.0092 0.603 -0.781 0.165 101 41 51 0
7.8974 27.8402 -41.7997 0.352 -0.844 0.405 100 40 52 0
7.4374 32.7303 -41.8800 0.748 -0.333 -0.575 87 27 33 0
11.2370 37.6122 -40.3788 0.977 -0.064 0.203 87 21 22 0
11.0325 38.2640 -40.4427 0.915 -0.337 -0.222 84 20 20 0
10.9825 38.5557 -40.4558 0.904 -0.361 -0.230 82 19 20 0
10.8349 38.9155 -40.5040 0.823 -0.481 0.302 81 18 19 0
11.8337 38.4832 -40.1411 0.933 -0.346 -0.096 81 21 21 0
12.1905 41.8732 -39.9459 0.741 -0.133 0.658 59 21 20 0
11.7866 43.2342 -40.0706 0.967 0.161 0.196 58 18 16 0
9.6439 47.5962 -40.7855 0.776 -0.094 -0.623 51 23 20 0
-0.0349 63.3506 -44.0879 0.263 -0.451 0.853 169 159 129 0
0.2877 63.7328 -43.9610 0.279 -0.418 0.865 174 165 139 0
5.0962 65.0630 -42.1509 0.207 -0.678 0.705 64 118 72 0
5.5026 65.0190 -42.0008 0.203 -0.643 0.739 63 117 71 0
5.8126 65.0616 -41.8849 0.211 -0.644 0.735 60 116 69 0
7.3870 63.9375 -41.3211 0.157 -0.874 0.459 60 116 69 0
16.7690 60.0460 -37.9094 0.971 -0.122 -0.207 61 117 72 0
16.6781 60.4388 -37.9359 0.984 0.166 0.061 60 116 71 0
8.0967 70.1852 -40.9419 0.267 -0.713 0.648 65 116 75 0
7.5438 71.7566 -41.1182 0.315 -0.880 0.355 69 118 80 0
13.4279 71.7736 -38.9330 0.742 0.122 0.659 185 181 167 0
13.5707 71.9578 -38.8765 0.767 0.046 0.640 186 181 167 0
13.8987 72.2798 -38.7487 0.532 -0.125 0.838 187 181 169 0
16.9944 71.2432 -37.6184 0.398 -0.519 0.756 192 183 174 0
32.6803 61.5470 -31.9734 0.824 -0.499 0.268 191 182 172 0
42.1803 70.1332 -28.2869 0.409 -0.194 0.892 177 160 150 0
34.9023 83.7659 -30.7370 0.947 0.241 -0.214 171 157 144 0
42.5898 73.9686 -28.0638 0.764 -0.450 -0.462 169 155 142 0
41.0713 77.0741 -28.5702 0.832 -0.399 -0.386 168 154 141 0
-2.8879 23.2386 -46.1306 0.797 -0.479 0.369 222 213 206 0
-10.6353 28.0770 -48.9365 0.960 -0.277 0.049 219 206 197 0
-0.9291 27.4482 -45.3262 0.084 -0.753 0.653 115 74 79 0
-0.0548 27.7485 -44.9948 0.183 -0.966 0.184 115 74 78 0
0.2656 27.8320 -44.8738 0.183 -0.966 0.184 110 68 72 0
4.9451 29.7685 -43.0940 0.726 -0.655 -0.209 100 40 52 0
8.3398 34.7334 -41.7407 0.628 -0.778 -0.007 83 24 26 0
8.5954 34.8249 -41.6437 0.637 -0.767 -0.071 84 24 24 0
8.9071 35.1325 -41.5221 0.508 -0.223 0.832 85 25 26 0
8.9742 35.3427 -41.4933 0.498 -0.230 0.836 82 22 24 0
11.1326 37.7379 -40.6462 0.754 -0.373 0.540 84 20 20 0
10.9472 38.1206 -40.7087 0.691 -0.443 0.571 84 20 20 0
10.8407 38.4507 -40.7426 0.957 -0.278 0.084 84 20 21 0
9.0208 43.1649 -41.3392 0.569 -0.050 -0.821 59 16 19 0
9.1520 43.6124 -41.2824 0.572 -0.053 -0.819 60 20 20 0
11.9107 42.4028 -40.2743 0.863 0.143 0.484 57 19 18 0
11.9996 42.8696 -40.2330 0.892 0.046 0.450 59 19 20 0
11.9303 43.1881 -40.2533 0.905 0.043 0.423 58 19 18 0
10.3006 48.5556 -40.7675 0.576 -0.677 -0.459 46 26 25 0
-0.2730 63.3050 -44.4545 0.009 -0.522 0.853 167 155 126 0
0.8357 64.0015 -44.0287 0.111 -0.330 0.938 170 166 139 0
6.5420 64.4752 -41.8914 0.186 -0.735 0.652 60 116 71 0
7.4318 63.9795 -41.5682 0.160 -0.878 0.452 60 116 70 0
9.6132 62.2825 -40.7839 0.634 -0.264 0.727 58 116 68 0
9.6102 62.6019 -40.7795 0.442 -0.400 0.803 58 117 67 0
21.0345 53.6719 -36.6733 0.052 -0.960 -0.275 59 116 71 0
21.4473 53.5621 -36.5212 0.120 -0.937 -0.329 58 115 70 0
2.5691 71.8961 -43.2440 0.191 -0.844 0.501 58 114 69 0
16.5571 59.7265 -38.2379 0.923 0.120 -0.366 57 115 67 0
16.4861 60.0989 -38.2579 0.954 0.101 -0.284 59 116 71 0
15.1283 63.2863 -38.7088 0.930 -0.068 0.362 62 118 73 0
8.2917 71.7796 -41.1110 0.582 -0.811 0.063 67 116 76 0
8.5704 71.8387 -41.0059 0.813 -0.539 -0.222 67 118 77 0
17.3355 71.6257 -37.7395 0.480 -0.413 0.774 192 183 174 0
31.1490 62.2974 -32.7489 0.930 0.194 -0.312 192 181 175 0
18.6920 89.6004 -36.9191 0.835 -0.002 -0.550 185 174 162 0
43.6679 66.1323 -28.0111 0.452 0.102 0.886 177 163 151 0
34.6526 83.2058 -31.0761 0.395 -0.878 -0.272 175 159 148 0
34.9045 83.1701 -30.9828 0.392 -0.896 -0.209 176 159 149 0
42.5506 74.1446 -28.2879 0.757 -0.457 -0.467 168 153 140 0
-14.7934 -6.4510 -51.3234 0.659 -0.667 -0.347 229 218 211 0
-15.7214 31.0498 -51.0541 0.017 -0.795 -0.606 216 205 194 0
-13.8920 30.4570 -50.3781 0.040 -0.802 -0.596 215 203 191 0
-12.7118 30.1659 -49.9404 0.136 -0.736 -0.663 213 198 188 0
-0.8792 27.4671 -45.5493 0.132 -0.942 0.307 122 81 86 0
-0.3925 27.4690 -45.3668 0.198 -0.921 0.334 115 75 80 0
-0.4767 27.7600 -45.3935 0.118 -0.938 -0.325 113 72 77 0
-0.1487 27.8409 -45.2693 0.250 -0.879 -0.406 114 72 76 0
4.8967 30.0885 -43.3409 0.732 -0.677 -0.078 101 40 53 0
4.9928 30.2814 -43.3017 0.742 -0.668 -0.060 101 39 51 0
5.2735 30.6173 -43.1910 0.750 -0.650 -0.119 99 37 48 0
8.3448 34.7819 -41.9711 0.600 -0.800 -0.018 82 23 26 0
10.3060 33.7966 -41.2522 0.688 -0.515 0.511 83 24 26 0
8.7175 38.9100 -41.7635 0.812 -0.301 0.500 85 22 23 0
8.7978 39.1175 -41.7300 0.814 -0.292 0.502 84 21 22 0
11.1093 38.0652 -40.8808 0.699 -0.557 0.449 83 20 21 0
10.8703 38.4861 -40.9635 0.957 -0.278 0.084 82 19 20 0
10.7521 38.8257 -41.0022 0.851 -0.484 0.205 80 19 21 0
8.6525 44.0364 -41.7035 0.591 -0.378 -0.713 58 19 16 0
10.5547 47.0223 -40.9413 0.775 0.330 0.539 48 24 19 0
10.0630 48.8091 -41.0962 0.735 -0.157 -0.660 46 27 24 0
-2.2284 64.3776 -45.4476 0.672 -0.740 -0.045 164 148 122 0
0.5383 63.3519 -44.4273 0.030 -0.346 0.938 169 162 135 0
20.1655 53.7158 -37.2284 0.225 -0.968 -0.111 59 116 67 0
16.7924 60.1851 -38.3864 0.997 0.063 0.050 58 116 69 0
7.5854 72.5878 -41.6336 0.819 -0.502 0.279 65 117 75 0
7.6796 72.8371 -41.5942 0.810 -0.521 0.269 65 117 75 0
8.3656 72.8271 -41.3372 0.682 -0.387 0.620 68 123 78 0
12.7638 74.0417 -39.6685 0.179 0.149 0.973 185 182 167 0
20.7503 87.3339 -36.4559 0.882 0.308 -0.356 185 176 164 0
43.9198 65.5541 -28.1290 0.476 0.001 0.879 178 164 152 0
43.9817 66.0618 -28.0974 0.617 -0.020 0.787 177 163 149 0
34.9993 82.7881 -31.1893 0.332 -0.943 0.004 175 158 148 0
33.7736 87.2547 -31.5753 0.870 0.276 0.409 169 153 143 0
-14.8452 -7.4296 -51.5900 0.776 -0.556 -0.296 135 135 135 0
-3.2479 23.4837 -46.7451 0.434 -0.279 -0.857 223 214 205 0
-13.1168 30.4053 -50.3552 0.143 -0.726 -0.673 213 200 189 0
-0.8483 27.4956 -45.7794 0.393 -0.918 -0.059 125 85 93 0
-0.3732 27.5033 -45.6003 0.331 -0.942 0.046 117 78 84 0
-0.5947 27.8646 -45.6782 0.262 -0.877 -0.403 113 73 78 0
-0.4048 28.0167 -45.6043 0.311 -0.793 -0.524 111 70 75 0
2.7670 29.8259 -44.3818 0.844 -0.014 -0.537 104 47 54 0
4.7993 30.1900 -43.6107 0.685 -0.729 0.010 102 42 54 0
8.2125 34.6638 -42.2562 0.653 -0.756 0.045 84 26 29 0
8.4155 34.7891 -42.1778 0.613 -0.789 -0.050 83 24 28 0
8.8729 35.0056 -42.0022 0.564 -0.809 -0.165 83 24 25 0
9.0998 38.7080 -41.8596 0.425 -0.231 0.875 83 21 22 0
9.3869 38.7745 -41.7504 0.366 -0.274 0.889 83 21 22 0
11.1724 38.3346 -41.0847 0.927 -0.232 0.295 79 18 19 0
8.0329 44.5485 -42.1713 0.617 -0.304 -0.726 59 20 15 0
7.8961 45.4785 -42.2085 0.826 -0.564 0.016 56 21 17 0
7.8920 45.7596 -42.2057 0.779 -0.627 0.023 55 19 15 0
7.8868 46.0422 -42.2033 0.747 -0.664 0.023 54 20 19 0
8.0707 46.1847 -42.1318 0.769 -0.637 0.051 54 20 19 0
8.2588 46.3235 -42.0588 0.933 -0.096 0.348 54 20 19 0
4.6139 53.7753 -43.3167 0.074 -0.997 0.015 47 34 27 0
1.4145 57.2537 -44.4680 0.948 -0.294 0.123 45 40 30 0
4.8612 55.0890 -43.2032 0.844 -0.289 0.453 57 55 38 0
5.7157 55.6078 -42.8734 0.226 -0.973 -0.038 136 119 94 0
-0.9565 62.7271 -45.2765 0.533 -0.169 0.829 157 140 116 0
-2.1623 64.0700 -45.7100 0.461 -0.732 0.502 159 144 118 0
-1.9218 64.8687 -45.6070 -0.080 -0.929 0.360 165 156 127 0
1.7093 63.4090 -44.2620 0.131 -0.327 0.936 109 125 95 0
1.8451 63.6188 -44.2076 0.131 -0.327 0.936 85 112 77 0
2.2912 64.2139 -44.0304 0.061 -0.393 0.917 65 118 74 0
2.6314 64.2431 -43.9018 0.084 -0.359 0.930 64 117 73 0
10.2713 61.8359 -41.0615 0.354 -0.256 0.899 58 116 66 0
21.4376 53.7203 -36.9811 0.083 -0.944 -0.318 55 114 67 0
16.2594 60.1770 -38.8318 0.805 0.310 0.505 55 114 68 0
16.0750 60.6619 -38.8937 0.965 0.262 0.025 55 114 66 0
7.6913 73.6122 -41.8515 0.962 0.006 0.271 66 119 75 0
23.5879 82.9047 -35.7209 0.869 0.493 -0.040 185 175 165 0
20.2554 88.4985 -36.8897 0.881 0.307 -0.360 182 174 163 0
19.7993 89.4967 -37.0461 0.878 0.312 -0.364 181 173 162 0
19.2789 90.5878 -37.2253 0.884 0.362 -0.295 181 172 162 0
44.1302 65.9386 -28.2457 0.598 0.108 0.794 177 163 150 0
-14.9361 -6.3935 -51.8409 0.568 -0.741 -0.359 231 220 211 0
-11.5922 28.3936 -50.0745 0.494 -0.581 0.647 221 211 201 0
-11.2938 30.3833 -49.9329 -0.097 -0.844 -0.527 206 189 182 0
-1.3144 27.7754 -46.1942 0.439 -0.654 -0.617 120 84 90 0
-0.7988 28.2633 -45.9921 0.406 -0.645 -0.648 113 72 80 0
3.3810 30.2825 -44.3813 0.001 -0.956 -0.292 100 41 50 0
5.1341 30.5435 -43.7142 0.732 -0.678 -0.075 104 43 54 0
5.2494 30.7258 -43.6679 0.735 -0.675 -0.066 99 39 49 0
7.5432 32.8650 -42.7691 0.604 -0.797 -0.030 84 27 34 0
7.6518 33.0492 -42.7254 0.575 -0.816 -0.054 85 28 36 0
7.8174 33.1986 -42.6606 0.549 -0.835 -0.030 87 30 37 0
8.0053 34.0872 -42.5766 0.464 -0.866 0.188 86 27 31 0
9.8079 35.7233 -41.8710 0.737 -0.642 -0.209 86 24 27 0
9.6377 36.0878 -41.9301 0.659 -0.752 -0.032 87 25 28 0
9.7283 36.2832 -41.8930 0.698 -0.584 0.415 86 23 27 0
10.0462 36.3295 -41.7721 0.936 -0.174 0.306 86 21 26 0
9.9149 36.6707 -41.8168 0.764 -0.082 0.640 86 21 25 0
9.9794 36.8837 -41.7894 0.764 -0.093 0.638 83 19 22 0
10.4946 38.5961 -41.5697 0.714 -0.686 0.138 79 19 19 0
11.0525 38.4725 -41.3604 0.946 -0.193 0.262 78 18 18 0
11.1541 40.2219 -41.2968 0.614 -0.776 0.143 64 16 17 0
7.7259 45.9454 -42.5116 0.233 -0.971 0.059 53 20 16 0
7.7403 46.2143 -42.5023 0.338 -0.659 0.672 53 20 19 0
7.9195 46.3608 -42.4323 0.337 -0.666 0.665 53 21 19 0
8.2398 46.4014 -42.3106 0.715 -0.169 0.679 52 21 19 0
1.7748 57.3508 -44.5993 0.928 -0.300 0.221 53 51 37 0
5.1212 55.8645 -43.3544 0.833 -0.296 0.466 129 115 91 0
5.4539 55.8967 -43.2280 0.682 -0.422 0.597 137 121 94 0
-0.3138 61.6161 -45.3282 0.682 -0.263 0.682 151 134 108 0
-1.5105 64.6012 -45.7381 -0.178 -0.755 0.631 158 155 124 0
2.6082 63.6899 -44.1926 -0.079 -0.689 0.720 62 116 72 0
2.9011 63.7600 -44.0808 -0.080 -0.686 0.723 58 115 71 0
16.3033 60.5207 -39.0559 1.000 0.006 -0.024 55 114 66 0
5.5392 75.9139 -42.9075 0.945 0.324 -0.055 63 118 74 0
6.7143 75.0609 -42.4751 0.902 0.153 0.403 62 118 73 0
7.4944 74.6081 -42.1864 0.682 -0.440 0.583 64 120 75 0
16.9882 75.0189 -38.5880 0.465 -0.638 0.614 190 184 172 0
24.9467 80.8430 -35.4925 0.829 0.003 -0.559 185 175 163 0
18.7513 91.4300 -37.6844 0.905 0.380 -0.191 181 172 163 0
46.1479 64.7497 -27.7015 0.361 0.375 0.854 178 162 149 0
-8.9652 -7.3498 -49.8164 0.129 -0.961 -0.245 230 219 210 0
-6.0872 -7.2557 -48.7210 0.164 -0.930 -0.328 228 217 211 0
-5.1752 -7.2222 -48.3739 0.158 -0.932 -0.325 226 215 209 0
4.0975 -7.5902 -44.8534 0.666 -0.746 0.025 229 218 212 0
5.1585 18.8220 -44.0969 0.958 0.217 -0.189 228 221 213 0
-2.5533 23.9758 -46.9599 0.629 -0.288 -0.722 222 213 204 0
-13.2399 29.4760 -50.9492 0.844 -0.506 -0.175 220 210 201 0
-13.7082 29.9661 -51.1207 0.954 -0.198 -0.227 218 208 199 0
-12.5477 30.2260 -50.6760 0.228 -0.827 -0.513 214 202 192 0
2.6809 29.4678 -44.8965 0.811 -0.483 -0.330 101 50 59 0
2.5977 29.7620 -44.9242 0.925 -0.372 -0.074 101 50 58 0
3.3232 30.3615 -44.6403 0.001 -0.956 -0.292 98 40 50 0
8.6922 34.4660 -42.5442 0.710 -0.661 -0.244 83 27 26 0
8.9714 35.5541 -42.4235 0.209 -0.876 0.435 81 21 21 0
9.7243 35.8304 -42.1336 0.596 -0.803 -0.020 85 23 26 0
9.7661 36.0573 -42.1147 0.635 -0.772 -0.007 86 24 27 0
9.9143 36.2149 -42.0562 0.826 -0.544 -0.144 85 23 28 0
10.2083 36.2765 -41.9436 0.974 -0.207 -0.095 84 21 27 0
10.1931 36.5410 -41.9458 0.974 -0.149 -0.169 84 20 24 0
8.9233 37.6372 -42.4139 0.615 -0.751 -0.238 82 19 21 0
9.1138 37.7697 -42.3398 0.615 -0.751 -0.238 82 20 21 0
9.5671 37.9848 -42.1645 0.657 -0.746 -0.111 82 19 20 0
9.8984 38.2798 -42.0346 0.903 -0.018 0.429 80 20 20 0
10.6327 38.5575 -41.7518 0.740 -0.662 0.116 77 19 18 0
10.9611 38.5911 -41.6265 0.942 -0.226 0.249 75 18 17 0
9.2830 40.0073 -42.2455 0.529 -0.089 0.844 74 17 18 0
11.2185 40.2340 -41.5066 0.614 -0.776 0.143 63 17 15 0
7.8038 45.9510 -42.7284 0.233 -0.971 0.059 50 20 17 0
7.8010 46.2327 -42.7257 0.418 -0.680 0.602 51 20 18 0
8.0480 46.3286 -42.6305 0.438 -0.647 0.624 53 22 20 0
1.4567 61.1849 -44.9378 0.972 -0.205 0.113 160 147 121 0
3.0720 63.6919 -44.2901 -0.052 -0.571 0.819 59 115 71 0
20.5337 51.9001 -37.8091 0.892 -0.083 -0.445 56 116 67 0
25.7124 47.6480 -35.8971 0.934 -0.100 0.342 55 115 64 0
25.0815 48.7680 -36.1220 0.813 -0.566 0.135 55 115 64 0
18.2323 73.0128 -38.4017 0.803 -0.014 0.596 188 184 172 0
18.0266 73.5861 -38.4723 0.748 -0.147 0.647 188 184 172 0
16.6182 75.5446 -38.9816 0.683 -0.669 0.292 189 184 172 0
20.4121 88.1490 -37.3706 0.905 0.424 -0.041 185 175 165 0
42.3686 71.9676 -29.2395 0.622 0.492 0.610 173 159 148 0
-11.8280 28.8589 -50.6846 0.970 -0.228 0.087 220 210 202 0
-10.7654 29.1538 -50.2751 0.984 0.109 0.144 215 204 195 0
-9.9654 29.0366 -49.9710 0.888 -0.290 0.358 213 203 193 0
-10.1005 29.3659 -50.0185 0.975 -0.198 -0.103 212 200 191 0
-1.6062 29.2744 -46.7751 0.489 -0.681 -0.544 112 71 80 0
2.6861 27.7826 -45.1540 0.398 -0.890 -0.224 106 64 72 0
2.4985 29.3640 -45.2062 0.825 -0.468 -0.318 99 51 59 0
2.6195 29.5474 -45.1577 0.715 -0.684 -0.144 101 50 59 0
5.7608 32.7759 -43.9180 0.727 -0.207 -0.655 86 33 39 0
9.7583 35.8613 -42.3530 0.596 -0.803 -0.020 83 23 25 0
9.9252 36.2611 -42.2843 0.834 -0.540 -0.116 84 22 25 0
10.1886 36.3429 -42.1827 0.923 -0.279 -0.265 84 22 25 0
10.1678 36.6114 -42.1873 0.974 -0.160 -0.163 84 22 25 0
8.9350 37.6842 -42.6450 0.710 -0.697 -0.103 83 21 23 0
9.9753 38.0243 -42.2434 0.836 -0.094 0.541 79 19 19 0
10.0796 38.2127 -42.2013 0.815 -0.131 0.564 79 20 20 0
10.3004 38.3219 -42.1155 0.869 0.082 0.489 80 22 21 0
9.3024 40.3155 -42.4722 0.531 -0.524 0.666 70 16 18 0
10.7219 40.1165 -41.9324 0.552 -0.810 -0.198 66 18 15 0
11.3160 40.2227 -41.7042 0.621 -0.770 0.147 63 18 15 0
11.5819 41.3488 -41.5887 0.478 -0.877 -0.051 58 19 17 0
8.2148 45.7096 -42.8210 0.289 -0.955 0.074 49 20 16 0
8.0227 46.1313 -42.8892 0.401 -0.663 0.632 51 21 19 0
8.4886 46.6224 -42.7052 0.928 0.371 0.043 51 23 20 0
9.5265 49.2150 -42.2767 0.912 0.410 0.012 43 30 24 0
-1.6564 62.8939 -46.3794 0.545 -0.471 -0.693 147 136 108 0
-0.6821 63.7279 -45.9969 0.768 0.274 0.578 129 138 103 0
25.2361 48.6927 -36.2827 0.641 -0.742 -0.196 52 113 62 0
27.4186 51.1630 -35.4185 0.821 0.552 0.148 54 113 66 0
14.4103 77.4800 -40.0625 0.193 0.208 0.959 186 182 170 0
23.2982 68.5982 -36.7772 0.481 -0.855 -0.194 188 184 173 0
22.0508 73.6863 -37.1909 0.416 -0.804 -0.425 189 180 171 0
22.9811 73.5688 -36.8370 0.648 -0.655 -0.389 192 184 173 0
23.0826 73.7808 -36.7956 0.651 -0.617 -0.442 190 182 172 0
23.1840 73.9929 -36.7543 0.761 -0.550 -0.344 188 179 170 0
33.6396 66.9259 -32.8478 0.627 -0.629 -0.459 186 177 168 0
21.4395 86.5067 -37.2662 0.891 0.429 -0.147 185 175 166 0
20.6770 87.9113 -37.5401 0.892 0.432 -0.136 186 176 166 0
42.6190 71.0474 -29.3672 0.781 -0.326 -0.532 174 162 148 0
-14.2768 29.7825 -51.8780 0.619 -0.493 0.611 222 213 205 0
-11.6368 28.8141 -50.8759 0.955 -0.280 0.096 221 210 204 0
-13.6185 30.2871 -51.6198 0.919 -0.242 -0.311 218 205 198 0
-10.1673 29.1786 -50.3079 0.961 -0.225 -0.160 213 203 194 0
-10.1385 29.4298 -50.2940 0.963 -0.227 -0.148 212 200 191 0
-12.7212 31.2162 -51.2649 0.086 -0.772 -0.630 209 196 187 0
-2.5411 29.0389 -47.3830 0.287 -0.702 -0.652 116 84 87 0
0.0647 29.9633 -46.3726 -0.166 -0.933 -0.321 102 58 65 0
2.4058 29.4602 -45.4798 0.774 -0.559 -0.295 101 54 62 0
2.6191 29.5939 -45.3965 0.765 -0.553 -0.330 103 53 62 0
4.7726 31.8924 -44.5441 0.478 -0.485 -0.732 89 36 45 0
7.8674 31.3303 -43.3629 0.357 -0.926 0.123 90 36 42 0
8.1859 31.3882 -43.2400 0.824 -0.558 -0.097 89 36 42 0
8.2749 34.3254 -43.1726 0.789 -0.448 -0.422 84 27 28 0
7.8045 36.4087 -43.3296 0.849 -0.088 -0.521 82 23 22 0
8.0366 36.5171 -43.2393 0.919 -0.177 -0.352 80 22 21 0
9.7104 35.9455 -42.6034 0.601 -0.799 -0.007 81 21 23 0
9.8611 36.1018 -42.5438 0.601 -0.799 0.001 80 20 22 0
9.9124 36.3230 -42.5216 0.839 -0.534 -0.105 80 20 22 0
8.9472 37.7309 -42.8761 0.710 -0.697 -0.103 88 26 27 0
10.2853 38.3877 -42.3552 0.951 0.148 0.273 80 22 21 0
10.2898 38.6442 -42.3506 0.955 0.148 0.257 77 20 19 0
11.5060 40.1460 -41.8669 0.541 -0.824 0.167 62 17 14 0
9.6915 44.6775 -42.5119 0.922 0.282 0.265 50 20 18 0
8.9787 45.4830 -42.7764 0.937 0.331 -0.109 50 20 18 0
8.6350 46.0174 -42.9022 0.870 0.374 -0.322 50 22 19 0
8.6965 46.2503 -42.8760 0.941 0.320 -0.109 51 23 20 0
0.7696 62.9029 -45.7295 -0.071 -0.564 0.823 67 96 55 0
3.2313 62.7376 -44.7867 -0.112 -0.893 0.436 58 111 67 0
6.3884 60.2989 -43.6028 0.815 -0.506 -0.283 58 114 69 0
25.0208 48.6964 -36.5839 0.524 -0.834 -0.174 51 113 62 0
26.0028 48.3087 -36.2115 -0.056 -0.520 0.852 50 112 61 0
13.9303 77.4244 -40.5149 0.846 0.514 -0.138 186 182 170 0
12.7151 79.1636 -40.9616 0.844 0.506 -0.177 186 182 170 0
22.5605 73.8444 -37.2437 0.633 -0.678 -0.374 192 184 173 0
22.9073 73.7595 -37.1115 0.628 -0.684 -0.371 192 184 173 0
24.2594 81.3855 -36.5064 0.872 0.448 -0.196 186 178 167 0
23.4981 82.7598 -36.7831 0.884 0.454 -0.106 186 178 165 0
23.0582 83.7110 -36.9411 0.893 0.443 0.076 186 178 167 0
21.8305 86.0979 -37.3852 0.903 0.265 0.339 185 175 166 0
20.2674 88.5860 -37.9569 0.891 0.436 -0.129 185 175 166 0
42.5628 71.2436 -29.5973 0.794 -0.314 -0.520 176 164 150 0
41.3455 77.1130 -29.9981 0.890 -0.111 -0.443 169 155 142 0
5.1704 19.3748 -44.7574 0.762 -0.192 0.618 227 220 212 0
-17.3554 31.8272 -53.3137 0.913 0.005 0.408 220 208 202 0
-14.2254 30.6214 -52.1194 0.820 -0.570 -0.055 219 206 200 0
-10.5009 29.3839 -50.6963 0.933 -0.358 -0.025 214 204 194 0
-10.4465 29.6238 -50.6728 0.907 -0.419 0.036 213 200 191 0
-3.7170 29.6867 -48.0778 0.187 -0.884 -0.428 120 89 93 0
-3.0140 29.5829 -47.8078 0.292 -0.854 -0.430 115 83 87 0
-2.2594 29.4497 -47.5183 0.597 -0.641 -0.483 109 78 81 0
-2.0753 29.6097 -47.4457 0.594 -0.648 -0.478 108 76 80 0
-1.3840 29.5048 -47.1802 0.355 -0.785 -0.508 105 72 77 0
8.0352 31.0337 -43.5331 0.353 -0.900 0.256 89 37 44 0
7.0970 33.3351 -43.8712 0.755 -0.655 -0.038 85 29 33 0
7.6496 33.7541 -43.6539 0.670 -0.734 -0.111 87 30 36 0
7.9283 33.8347 -43.5456 0.685 -0.579 -0.442 86 29 35 0
7.9531 34.3243 -43.5310 0.879 -0.237 -0.414 85 28 31 0
7.5684 36.6138 -43.6558 0.844 -0.095 -0.528 78 23 23 0
7.8895 36.9242 -43.5288 0.917 -0.212 -0.337 78 22 22 0
9.7397 35.9796 -42.8252 0.351 -0.918 0.183 78 21 22 0
9.9517 36.0959 -42.7423 0.349 -0.917 0.195 78 21 22 0
9.9537 36.3494 -42.7389 0.459 -0.759 0.462 79 21 23 0
8.9595 37.7777 -43.1075 0.710 -0.697 -0.103 87 27 28 0
10.7262 42.3526 -42.3794 0.446 -0.660 -0.604 54 19 19 0
9.9514 44.2731 -42.6584 0.921 0.204 0.331 50 21 18 0
9.8514 44.6210 -42.6933 0.897 0.327 0.298 51 23 20 0
12.2003 43.9522 -41.7946 0.995 0.079 0.063 49 24 19 0
10.5953 45.9892 -42.3925 0.699 -0.610 -0.374 47 24 19 0
10.4984 46.3404 -42.4262 0.753 -0.374 -0.541 46 25 20 0
6.4603 51.7700 -43.9272 0.666 0.010 -0.746 40 36 25 0
-1.6939 63.7500 -46.9478 0.793 -0.171 -0.584 88 106 76 0
1.1725 62.6397 -45.8541 -0.012 -0.500 0.866 59 101 61 0
2.3620 63.9062 -45.3825 -0.258 -0.950 0.175 55 111 65 0
24.9571 48.8256 -36.8265 0.676 -0.244 0.695 51 113 64 0
25.4367 48.6439 -36.6435 0.583 -0.806 -0.103 51 113 63 0
26.0593 48.3249 -36.4067 0.237 -0.732 0.639 51 112 63 0
22.9067 57.2580 -37.5303 -0.128 -0.991 -0.039 51 113 64 0
22.8020 58.2439 -37.5605 0.429 -0.895 -0.124 56 115 68 0
23.2438 58.3779 -37.3888 0.273 -0.891 -0.362 57 114 69 0
21.3449 60.6406 -38.0977 0.491 -0.581 -0.649 58 116 69 0
21.5219 60.7589 -38.0282 0.502 -0.578 -0.644 59 116 69 0
21.5761 74.1215 -37.8700 -0.032 -0.955 0.293 188 183 172 0
23.8516 82.0418 -36.9114 0.884 0.454 -0.106 186 178 166 0
23.1645 83.3201 -37.1631 0.884 0.454 -0.106 186 178 167 0
-17.0939 32.0309 -53.4883 0.938 -0.287 0.195 219 207 201 0
-13.9867 30.8279 -52.2959 0.650 -0.716 -0.256 216 204 198 0
-10.5462 29.7177 -50.9737 0.796 -0.602 0.060 214 201 192 0
-16.5267 33.1625 -53.2581 0.091 -0.642 -0.761 212 198 189 0
-4.2874 30.0251 -48.5467 0.055 -0.905 -0.423 124 93 98 0
-2.2614 29.7526 -47.7645 0.572 -0.660 -0.487 110 78 82 0
0.5492 31.0674 -46.6638 0.466 -0.555 -0.689 102 55 63 0
1.1552 30.9904 -46.4298 0.780 -0.174 -0.601 100 51 59 0
3.5262 30.9389 -45.5120 0.373 -0.757 -0.536 99 48 59 0
3.8313 32.2804 -45.3814 0.422 -0.459 -0.782 93 41 50 0
7.9145 31.3994 -43.8081 0.678 -0.553 -0.485 88 36 42 0
7.6257 33.8195 -43.8976 0.671 -0.733 -0.114 85 28 34 0
8.0657 34.0529 -43.7250 0.386 -0.917 -0.099 91 33 36 0
7.6128 36.6389 -43.8765 0.864 -0.125 -0.487 76 23 23 0
7.8156 37.0261 -43.7944 0.917 -0.212 -0.337 77 23 23 0
10.1349 36.0295 -42.9053 0.349 -0.918 0.191 78 22 23 0
9.9411 36.4113 -42.9769 0.922 -0.298 -0.246 78 22 23 0
10.1567 36.7806 -42.8900 0.956 -0.107 0.273 80 21 23 0
8.8900 37.8788 -43.3704 0.656 -0.751 -0.068 80 21 22 0
9.8832 38.2525 -42.9823 0.907 -0.293 -0.303 79 21 22 0
10.2833 38.2411 -42.8274 0.798 -0.434 -0.418 75 19 21 0
9.6764 43.1744 -43.0169 0.644 -0.506 -0.573 52 20 18 0
6.6513 50.2236 -44.1234 0.758 0.501 -0.417 39 27 19 0
-0.0174 60.4662 -46.6116 0.912 -0.312 -0.265 133 121 97 0
1.5457 62.4015 -45.9883 -0.014 -0.503 0.864 50 102 63 0
1.6751 62.6171 -45.9362 -0.015 -0.530 0.848 51 102 62 0
1.0006 63.8549 -46.1860 -0.045 -0.945 0.323 52 106 65 0
22.9060 58.2179 -37.7539 0.395 -0.386 0.834 55 114 66 0
6.5038 77.9121 -43.9246 0.319 -0.698 -0.642 61 118 74 0
6.4130 78.3695 -43.9555 0.367 -0.805 -0.466 61 118 75 0
13.9138 78.3580 -41.0505 0.825 0.451 -0.340 186 181 169 0
22.8689 73.6725 -37.6254 -0.051 -0.839 0.541 188 181 171 0
22.6246 84.1578 -37.6231 0.883 0.407 -0.233 186 178 166 0
38.6188 68.2003 -31.5759 0.505 -0.757 -0.415 180 169 165 0
38.7780 68.2849 -31.5135 0.518 -0.745 -0.419 180 169 165 0
40.5061 66.7345 -30.8585 0.644 0.340 0.685 180 169 163 0
45.6962 65.9586 -28.8555 0.823 0.546 0.160 177 164 149 0
42.4727 75.1838 -30.0187 0.870 -0.215 -0.444 168 155 142 0
-0.7864 -6.6196 -47.7380 0.268 -0.696 -0.667 233 220 211 0
-14.0276 30.8943 -52.5823 0.652 -0.727 -0.218 216 205 199 0
-13.2074 30.7746 -52.2641 0.564 -0.812 -0.150 215 204 196 0
-18.3345 34.0918 -54.2318 0.088 -0.634 -0.768 213 199 190 0
2.8096 28.8838 -46.0475 0.662 -0.735 -0.150 102 60 67 0
3.8013 30.0823 -45.6518 0.518 -0.683 -0.515 97 50 58 0
7.5970 33.8881 -44.1437 0.677 -0.726 -0.119 88 30 36 0
7.8599 34.2317 -44.0385 0.704 -0.642 -0.302 92 33 37 0
7.9302 34.4414 -44.0095 0.593 -0.802 -0.077 89 32 35 0
7.6043 34.8990 -44.1325 0.503 -0.856 -0.122 83 29 29 0
8.2534 35.0009 -43.8791 0.438 -0.895 0.085 79 28 27 0
8.5574 35.0632 -43.7603 0.509 -0.845 0.163 78 27 26 0
8.5943 35.2942 -43.7441 0.651 -0.755 0.083 78 27 28 0
8.8486 35.3868 -43.6443 0.651 -0.757 0.060 77 26 27 0
7.7497 36.3461 -44.0641 0.909 0.063 -0.413 76 25 24 0
7.8103 36.8243 -44.0366 0.928 -0.133 -0.349 76 24 23 0
10.8908 35.5881 -42.8481 0.410 -0.656 0.633 77 23 23 0
10.2481 40.1519 -43.0607 0.801 -0.515 -0.306 61 18 14 0
11.3848 45.2391 -42.5767 0.762 0.646 -0.050 43 25 18 0
5.3579 51.5908 -44.8696 0.610 -0.291 0.737 38 29 20 0
5.2116 52.0016 -44.9231 0.613 -0.282 0.738 38 30 21 0
6.0456 61.7944 -44.5183 0.756 0.354 0.550 50 107 64 0
24.1686 56.4226 -37.5108 0.100 -0.743 0.662 50 112 61 0
12.3373 73.2154 -41.9765 -0.116 -0.993 -0.022 62 117 77 0
12.1960 74.4027 -42.0217 0.379 -0.844 -0.380 66 118 80 0
13.2768 73.5758 -41.6079 0.521 -0.795 -0.310 69 120 82 0
14.7227 72.3437 -41.0555 0.756 -0.578 -0.309 70 121 83 0
13.0688 74.4923 -41.6814 0.728 -0.252 -0.638 72 122 85 0
13.9294 73.8944 -41.3514 0.831 -0.132 -0.541 73 122 86 0
14.0312 74.1265 -41.3099 0.839 -0.123 -0.530 76 125 88 0
29.9254 68.3138 -35.1732 0.041 -0.306 0.951 189 180 172 0
23.6680 82.5143 -37.4914 0.870 0.492 0.019 183 175 163 0
22.3743 85.3470 -37.9715 0.995 0.077 -0.059 181 175 163 0
41.5130 65.0828 -30.6911 0.519 -0.843 -0.140 179 168 162 0
-13.5528 30.9874 -52.6674 0.572 -0.811 -0.120 215 204 197 0
-12.5361 30.7704 -52.2715 0.609 -0.784 0.115 213 203 194 0
-3.9997 30.2298 -48.9387 0.145 -0.752 -0.643 126 95 103 0
-1.9729 29.9513 -48.1484 0.547 -0.673 -0.497 110 77 84 0
2.8073 28.9308 -46.2872 0.662 -0.735 -0.150 104 64 70 0
2.9900 29.0805 -46.2147 0.662 -0.735 -0.150 101 60 66 0
3.0653 29.2881 -46.1838 0.737 -0.640 -0.219 102 60 66 0
0.6864 31.0878 -47.1008 0.475 -0.435 -0.765 102 58 63 0
4.4856 29.2555 -45.6289 0.991 -0.102 -0.081 99 54 60 0
1.6739 31.3090 -46.7132 0.536 -0.524 0.662 97 52 57 0
6.2655 32.9769 -44.9065 0.745 -0.463 0.481 88 35 42 0
6.0751 33.3439 -44.9783 0.841 -0.396 0.369 86 35 40 0
6.0550 33.6098 -44.9842 0.844 -0.361 0.396 86 35 37 0
7.9398 34.2334 -44.2430 0.443 -0.852 -0.279 86 29 31 0
8.3798 35.4832 -44.0621 0.258 -0.962 0.093 77 27 28 0
9.7416 34.8688 -43.5342 0.400 -0.358 0.844 77 27 27 0
9.5403 35.7589 -43.6064 0.637 -0.209 0.742 76 25 24 0
9.9586 40.1473 -43.4115 0.919 -0.256 -0.300 63 20 14 0
8.5194 44.1371 -43.9454 0.947 0.160 -0.278 49 21 17 0
2.0484 61.4832 -46.3505 0.878 0.274 -0.393 42 97 54 0
2.1271 61.7401 -46.3178 0.871 0.230 -0.435 43 100 57 0
8.6419 64.9888 -43.7480 0.243 -0.623 0.744 47 113 61 0
6.6781 78.6533 -44.4177 0.320 -0.697 -0.642 58 115 72 0
13.6545 74.9870 -41.7170 0.786 -0.161 -0.597 74 128 90 0
12.8195 79.8232 -42.0087 0.936 0.134 -0.326 184 179 165 0
22.5483 84.8606 -38.1698 0.983 0.085 0.164 183 176 165 0
40.8817 78.6829 -31.0478 0.878 -0.384 -0.285 170 153 139 0
-14.2734 30.8312 -53.2222 0.717 0.050 0.695 220 210 204 0
-15.7114 32.0725 -53.7793 0.531 -0.667 0.522 215 205 198 0
2.9332 28.6612 -46.4790 0.235 -0.820 -0.522 106 68 76 0
0.0803 30.4433 -47.5883 0.446 -0.596 -0.668 104 65 73 0
0.7167 30.3547 -47.3389 0.445 -0.586 -0.677 101 62 68 0
0.6954 30.6205 -47.3457 0.482 -0.788 -0.384 102 62 68 0
3.0714 30.3303 -46.4145 0.772 -0.456 -0.444 98 55 59 0
1.4699 31.4703 -47.0364 0.667 -0.389 0.636 98 55 58 0
6.0948 33.1289 -45.2101 0.575 -0.515 0.636 88 35 43 0
9.8270 34.6141 -43.7355 0.559 -0.138 0.817 79 29 30 0
10.0194 34.7433 -43.6591 0.436 -0.203 0.877 78 28 28 0
7.8041 37.4566 -44.5124 0.338 -0.940 -0.053 76 25 24 0
8.4586 37.5485 -44.2548 0.232 -0.903 0.361 76 25 23 0
8.4495 42.8796 -44.2257 0.514 -0.478 -0.712 54 22 15 0
4.1603 53.2658 -45.8462 0.615 -0.676 0.406 37 39 25 0
-0.0776 60.1032 -47.4684 0.792 -0.521 -0.317 104 117 85 0
-0.1157 60.7820 -47.4792 0.898 -0.337 -0.284 56 87 55 0
9.2971 76.3173 -43.6878 0.146 -0.838 -0.526 58 116 73 0
16.0949 72.0460 -41.0446 0.795 -0.051 -0.604 69 125 87 0
13.2928 76.5385 -42.1174 0.859 0.331 -0.390 79 130 99 0
12.7452 78.5749 -42.3199 0.867 0.336 -0.368 181 181 167 0
21.3625 86.9503 -38.8848 0.968 0.074 -0.239 182 174 165 0
16.6584 95.3074 -40.6807 0.835 -0.073 -0.545 182 174 165 0
16.8296 95.8781 -40.6099 0.896 0.238 -0.375 181 172 164 0
26.7363 87.2998 -36.7725 0.885 0.133 -0.445 180 169 163 0
34.9922 86.9518 -33.5327 0.374 -0.554 0.743 171 156 143 0
40.8763 78.8116 -31.2721 0.884 -0.367 -0.289 170 152 138 0
40.9685 79.0044 -31.2348 0.884 -0.367 -0.289 170 152 137 0
-14.2716 31.1521 -53.4922 0.270 -0.714 0.646 219 210 203 0
-15.9905 32.2548 -54.1647 0.364 -0.708 0.605 216 206 199 0
-13.3269 31.2467 -53.1191 0.115 -0.634 0.765 214 203 197 0
-12.5945 31.1652 -52.8306 0.130 -0.692 0.711 213 202 196 0
0.6537 30.6906 -47.6071 0.476 -0.788 -0.391 104 65 72 0
0.7381 30.8996 -47.5727 0.466 -0.720 -0.515 103 63 69 0
1.1236 30.9439 -47.4204 0.485 -0.689 -0.538 101 60 66 0
5.6396 31.1823 -45.6378 0.926 -0.352 -0.138 94 49 53 0
6.0093 33.2302 -45.4815 0.753 -0.457 0.474 90 37 45 0
6.1323 33.4103 -45.4321 0.751 -0.476 0.457 88 37 43 0
6.0428 33.7185 -45.4659 0.722 -0.491 0.487 87 37 41 0
10.0856 34.7530 -43.8658 0.542 -0.162 0.824 76 26 26 0
7.8952 37.4517 -44.7161 0.333 -0.940 -0.070 76 26 24 0
8.6762 37.2004 -44.4093 0.167 -0.856 0.489 76 25 24 0
8.5522 37.5416 -44.4565 0.227 -0.914 0.335 75 25 23 0
7.2925 44.5970 -44.9175 0.515 -0.552 0.656 51 25 16 0
7.8290 44.7633 -44.7050 0.308 -0.604 0.735 47 25 16 0
8.3015 44.6958 -44.5189 0.840 -0.181 -0.512 46 25 18 0
8.1977 45.0493 -44.5581 0.518 -0.622 -0.588 46 26 18 0
4.1114 52.4717 -46.1322 0.421 -0.906 0.045 33 35 19 0
3.9473 52.9003 -46.1947 0.603 -0.680 0.416 35 37 22 0
4.1048 53.0785 -46.1317 0.603 -0.680 0.416 35 38 24 0
-1.6781 62.8132 -48.3632 0.788 0.427 -0.443 35 85 49 0
1.3363 62.9043 -47.1737 0.766 -0.019 -0.642 43 102 58 0
1.2110 63.3410 -47.2209 0.770 -0.006 -0.638 45 101 60 0
-0.0345 65.0822 -47.7033 0.686 0.199 -0.700 42 103 60 0
11.1482 77.6071 -43.2284 0.886 0.206 -0.415 67 125 87 0
16.5118 80.7435 -41.0966 0.876 -0.061 -0.478 188 183 173 0
16.3262 81.3300 -41.1668 0.865 -0.029 -0.502 188 181 171 0
27.3858 68.5699 -36.8692 -0.028 -0.896 0.442 189 181 172 0
20.7326 88.6826 -39.3912 0.996 0.079 0.050 180 173 164 0
21.6906 87.7550 -39.0180 0.923 0.159 -0.351 182 174 165 0
18.1140 93.4341 -40.3999 0.495 -0.640 0.588 184 174 167 0
17.3219 94.9246 -40.7048 -0.116 -0.992 0.052 182 173 166 0
26.1130 88.3274 -37.2706 0.880 -0.016 -0.474 179 168 162 0
40.9598 79.1395 -31.4609 0.882 -0.380 -0.277 168 153 137 0
-0.2338 -7.0175 -48.3574 0.088 -0.885 -0.458 230 221 212 0
-18.6348 34.4376 -55.4808 0.327 -0.424 -0.845 215 203 196 0
-16.6497 34.0353 -54.6959 0.053 -0.756 -0.652 213 197 190 0
-13.0046 33.0674 -53.2554 0.120 -0.721 -0.682 207 190 183 0
8.6893 36.9870 -44.6431 0.313 -0.795 0.520 77 28 25 0
8.8531 37.1387 -44.5776 0.167 -0.856 0.489 76 26 24 0
7.7257 40.5303 -45.0106 0.601 -0.798 0.042 68 25 18 0
7.8931 40.6837 -44.9436 0.626 -0.780 -0.008 68 26 19 0
7.8870 40.9565 -44.9449 0.636 -0.713 -0.294 67 26 19 0
8.5479 41.3050 -44.6816 0.638 -0.428 -0.641 61 24 15 0
7.3623 44.3308 -45.1392 -0.146 -0.956 -0.256 53 26 17 0
7.8708 45.0733 -44.9346 0.879 -0.260 -0.399 46 25 16 0
7.8519 45.3661 -44.9410 0.585 -0.574 -0.573 45 27 17 0
8.3188 45.3012 -44.7562 0.700 -0.678 -0.225 45 28 15 0
1.7118 54.4103 -47.3374 0.281 -0.959 -0.036 34 36 22 0
4.3326 53.2720 -46.3034 0.579 -0.748 0.324 34 41 24 0
4.4518 53.4801 -46.2554 0.359 -0.931 0.067 38 43 27 0
-1.7757 62.6435 -48.6859 0.781 0.339 -0.524 36 85 50 0
1.4737 61.5607 -47.4027 0.654 -0.087 -0.752 35 94 53 0
1.0036 63.2713 -47.5821 0.766 -0.019 -0.642 42 102 58 0
0.8201 63.7596 -47.6528 0.771 -0.009 -0.637 43 103 59 0
20.3657 65.5997 -39.9002 0.730 -0.021 -0.683 57 118 74 0
13.0145 76.3475 -42.7696 0.931 0.362 -0.056 72 127 94 0
16.2672 77.9242 -41.4743 0.484 -0.683 -0.547 188 178 172 0
16.4932 78.0126 -41.3844 0.484 -0.683 -0.547 190 179 173 0
42.1655 57.8852 -31.2931 0.807 -0.295 -0.512 185 178 168 0
20.6277 88.1852 -39.7048 0.999 -0.030 -0.025 184 175 166 0
20.6618 88.5195 -39.6899 0.990 0.083 -0.118 183 174 165 0
17.5299 93.9668 -40.9089 0.124 -0.894 0.431 184 173 167 0
17.8465 93.9300 -40.7836 0.165 -0.864 0.475 185 173 167 0
25.9531 89.0638 -37.5910 0.967 -0.206 -0.147 180 166 163 0
20.1708 99.5449 -39.8398 0.378 -0.318 0.869 179 166 159 0
33.5633 85.4231 -34.5902 0.345 -0.870 0.352 179 162 154 0
33.8716 85.3070 -34.4685 0.262 -0.899 0.350 178 161 151 0
42.4455 75.8077 -31.1095 0.959 0.045 -0.281 169 155 143 0
41.0175 78.4775 -31.6645 0.991 0.073 0.114 168 154 142 0
40.9401 79.2927 -31.6919 0.880 -0.367 -0.303 166 153 139 0
4.1654 29.6177 -46.7042 0.744 -0.663 -0.083 104 61 68 0
3.6934 30.6290 -46.8890 0.431 -0.875 0.220 100 57 63 0
5.9908 33.5965 -45.9656 0.959 -0.225 -0.175 90 40 47 0
6.0469 33.8176 -45.9426 0.959 -0.225 -0.175 90 40 45 0
7.6972 41.6866 -45.2620 0.745 -0.261 -0.614 62 26 17 0
4.6927 44.8995 -46.4482 -0.018 -0.571 0.821 55 24 14 0
1.3525 58.5239 -47.7367 0.763 -0.328 -0.557 36 73 36 0
4.6936 62.1063 -46.3960 0.564 0.515 0.646 45 107 61 0
16.5568 63.9893 -41.6681 0.462 -0.495 -0.736 49 113 63 0
10.3252 78.0026 -44.1064 0.974 0.174 0.147 65 124 84 0
12.6870 76.8137 -43.1699 0.955 0.295 -0.022 75 127 95 0
16.1771 77.7803 -41.7777 -0.113 -0.982 0.152 189 180 172 0
18.4363 76.8734 -40.8811 0.316 -0.792 -0.523 189 180 171 0
41.9702 57.9546 -31.5704 0.614 -0.681 -0.398 184 177 168 0
23.0218 86.1740 -39.0278 0.978 0.176 -0.110 184 172 166 0
20.5175 99.9977 -39.9830 0.707 -0.484 0.515 175 163 159 0
29.5755 94.9221 -36.3927 0.496 -0.308 0.812 174 162 150 0
29.4656 95.4970 -36.4348 0.621 -0.304 0.723 174 163 151 0
29.6804 95.5499 -36.3491 0.294 -0.166 0.941 170 160 147 0
42.3328 76.1083 -31.3714 0.957 0.031 -0.289 168 154 145 0
0.5522 -7.1263 -48.4602 0.096 -0.946 -0.310 232 221 211 0
5.5308 31.6409 -46.3931 0.799 -0.601 -0.022 97 51 56 0
5.6884 31.8007 -46.3297 0.816 -0.577 0.019 95 51 56 0
4.7520 35.9532 -46.6960 0.101 -0.735 -0.670 83 36 34 0
6.5758 35.0834 -45.9684 0.589 -0.807 0.031 83 36 33 0
6.5473 35.3589 -45.9793 0.302 -0.947 0.109 81 33 32 0
6.7757 35.4744 -45.8877 0.294 -0.947 0.126 81 34 32 0
7.7750 41.4207 -45.4764 0.500 -0.821 -0.276 63 29 17 0
8.1691 41.6873 -45.3183 0.990 -0.123 0.071 60 29 15 0
1.5002 54.1029 -47.9604 0.180 -0.815 0.550 36 39 22 0
5.2179 61.7264 -46.4588 0.656 0.426 0.623 43 106 59 0
3.9259 63.1892 -46.9726 0.658 0.468 0.590 43 107 59 0
12.1634 61.4446 -43.6823 0.124 -0.864 0.487 43 109 61 0
16.3939 64.5593 -41.9845 0.573 -0.154 -0.805 48 112 62 0
16.7088 64.8729 -41.8580 0.565 -0.168 -0.808 50 113 66 0
10.3434 78.0850 -44.3772 0.951 0.305 -0.052 64 121 82 0
20.5744 88.5002 -40.2657 0.931 -0.045 -0.363 186 175 167 0
22.4077 86.7599 -39.5361 0.969 0.193 -0.154 186 173 167 0
22.9390 86.4071 -39.3243 0.979 0.173 -0.110 184 172 165 0
23.2855 86.3050 -39.1860 0.828 -0.296 -0.476 184 172 165 0
29.7402 94.7952 -36.5883 0.540 -0.355 0.763 173 161 149 0
29.8881 94.9545 -36.5289 0.529 -0.354 0.771 171 161 149 0
29.8908 95.3484 -36.5270 0.312 -0.197 0.929 170 160 148 0
30.0425 95.5018 -36.4661 0.271 -0.224 0.936 168 157 145 0
42.2607 76.3432 -31.6184 0.938 -0.013 -0.346 170 157 146 0
-17.8024 32.1878 -56.0031 0.351 -0.828 -0.438 226 218 214 0
-12.6930 33.8942 -53.9493 0.138 -0.688 -0.712 199 185 179 0
5.6994 31.8433 -46.5639 0.815 -0.580 0.005 93 52 57 0
5.9323 32.4630 -46.4698 0.566 -0.790 -0.234 91 46 50 0
5.8549 33.7798 -46.4996 0.978 -0.150 -0.147 87 41 46 0
6.0273 33.9314 -46.4303 0.493 -0.850 0.186 88 43 47 0
6.5432 34.1290 -46.2229 0.866 -0.443 0.231 89 43 44 0
6.5334 34.9044 -46.2261 0.944 -0.077 0.322 83 37 36 0
7.6766 41.5479 -45.7607 0.506 -0.820 -0.267 63 33 17 0
7.6270 41.8537 -45.7804 0.967 -0.201 -0.160 62 33 16 0
8.1364 41.7694 -45.5759 0.806 -0.492 0.329 60 33 15 0
6.8648 42.9340 -46.0855 -0.129 -0.739 0.661 59 33 15 0
5.6808 45.1663 -46.5590 0.047 -0.421 0.906 53 31 16 0
-2.4874 51.6314 -49.8338 0.827 0.246 -0.505 54 32 18 0
0.0746 51.2847 -48.8051 0.482 -0.859 -0.171 45 32 16 0
5.2095 48.3681 -46.7453 0.326 0.160 0.932 42 34 17 0
5.2170 50.1134 -46.7407 0.641 -0.735 -0.222 38 35 22 0
3.8943 52.0191 -47.2702 0.504 -0.327 0.799 35 38 21 0
1.8408 54.5255 -48.0926 0.350 -0.934 0.077 36 40 24 0
2.7193 55.6863 -47.7387 0.884 0.287 -0.370 63 74 46 0
1.0440 58.9290 -48.4086 0.932 0.288 -0.218 30 83 46 0
3.4431 58.8560 -47.4451 0.338 -0.852 -0.399 27 92 52 0
4.3595 58.4044 -47.0774 0.329 -0.867 -0.375 30 94 54 0
4.1722 63.0539 -47.1483 0.651 0.467 0.598 44 107 59 0
9.3851 59.3800 -45.0579 -0.437 -0.855 0.278 41 108 57 0
12.3967 61.3066 -43.8465 0.105 -0.883 0.457 41 109 60 0
10.2281 78.3146 -44.7018 0.946 0.324 -0.022 65 121 83 0
41.9838 57.5538 -31.9663 0.624 -0.667 -0.407 185 177 169 0
29.7909 95.2496 -36.8286 0.267 -0.331 0.905 169 159 147 0
29.9398 95.4078 -36.7686 0.285 -0.178 0.942 167 157 145 0
30.0142 95.6868 -36.7385 0.285 -0.178 0.942 167 157 144 0
42.3754 75.9375 -31.7920 0.844 0.045 -0.534 169 158 143 0
1.6074 -6.7464 -48.4493 0.772 -0.289 -0.566 229 220 212 0
-17.9496 32.3057 -56.3441 0.351 -0.828 -0.438 224 219 212 0
-14.4717 32.3183 -54.9409 0.454 0.227 0.861 220 209 207 0
-13.6426 32.1907 -54.6064 0.443 0.245 0.863 219 208 206 0
-13.6510 32.7505 -54.6099 0.523 0.501 0.689 214 204 201 0
-12.5840 34.1684 -54.1796 0.157 -0.658 -0.736 201 183 179 0
5.6318 31.9316 -46.8301 0.819 -0.572 0.034 93 52 58 0
4.9307 34.3884 -47.1132 0.650 -0.515 0.558 88 41 46 0
5.0019 34.6038 -47.0845 0.667 -0.494 0.558 88 43 46 0
6.3092 34.0672 -46.5570 0.493 -0.850 0.186 88 43 46 0
6.6888 34.0914 -46.4039 0.656 -0.367 0.659 86 40 42 0
6.6628 34.8763 -46.4145 0.718 -0.153 0.679 85 39 40 0
6.2286 35.4037 -46.5897 0.821 -0.258 0.510 84 38 40 0
7.6778 41.6060 -46.0058 0.338 -0.812 0.475 65 37 18 0
5.2082 45.5678 -47.0026 0.493 0.014 0.870 52 33 16 0
1.3919 50.0830 -48.5428 0.770 -0.071 0.634 48 35 18 0
1.3502 50.4125 -48.5596 0.658 -0.708 0.256 46 36 18 0
3.7346 50.4206 -47.5976 0.940 0.272 0.205 41 38 23 0
0.0536 55.0559 -49.0833 0.456 -0.544 -0.705 37 40 23 0
0.8425 55.6897 -48.7651 0.987 -0.147 -0.060 36 40 23 0
0.7590 56.0682 -48.7988 0.975 -0.223 0.019 47 53 33 0
0.4020 56.6640 -48.9429 0.869 -0.395 0.297 54 64 39 0
0.4007 56.9805 -48.9435 0.866 -0.459 0.196 52 67 41 0
1.7827 58.7198 -48.3861 0.263 -0.918 -0.297 27 89 49 0
4.7189 57.8659 -47.2014 0.902 -0.375 -0.212 25 93 51 0
6.0192 57.0876 -46.6767 0.607 -0.740 -0.290 27 95 54 0
6.7135 64.7697 -46.3975 0.160 -0.987 0.015 41 111 57 0
6.3162 66.4620 -46.5579 0.860 0.366 0.357 42 110 60 0
11.6683 71.2666 -44.3992 0.681 0.199 0.705 47 113 63 0
11.4631 74.5873 -44.4823 0.773 -0.082 0.629 49 119 69 0
11.9644 74.3959 -44.2801 0.948 0.140 0.284 48 120 71 0
12.6050 80.0857 -44.0223 0.883 0.298 0.363 184 179 167 0
11.6709 82.2643 -44.3994 0.838 0.511 -0.189 187 179 171 0
24.3481 85.8221 -39.2852 0.872 -0.129 -0.472 181 171 162 0
25.8767 88.9169 -38.6688 0.917 -0.047 -0.397 179 168 165 0
25.9521 89.5698 -38.6384 0.897 -0.081 -0.434 177 166 160 0
29.7567 95.0444 -37.1041 0.463 -0.825 0.324 171 161 149 0
29.9943 95.0596 -37.0083 0.449 -0.840 0.304 169 159 147 0
30.0973 95.2915 -36.9667 0.465 -0.843 0.270 167 157 145 0
30.2705 95.4095 -36.8968 0.465 -0.843 0.270 167 157 145 0
-15.6554 -6.2203 -55.6520 0.746 -0.589 -0.312 227 218 208 0
-0.1533 -6.4028 -49.3694 0.164 -0.856 -0.490 229 220 212 0
-13.5915 32.2139 -54.8602 0.650 0.481 0.589 219 208 205 0
5.6470 31.9719 -47.0634 0.657 -0.731 -0.184 91 51 58 0
5.5096 32.3049 -47.1194 0.715 -0.691 -0.104 91 50 56 0
5.0264 34.3821 -47.3177 0.686 -0.569 0.453 89 43 47 0
5.0920 34.6009 -47.2913 0.633 -0.589 0.502 88 43 45 0
5.3021 34.7319 -47.2064 0.588 -0.553 0.591 88 44 46 0
6.1627 34.7218 -46.8576 0.536 -0.366 0.761 90 44 46 0
6.2235 35.4595 -46.8338 0.797 -0.224 0.561 84 38 40 0
6.3427 36.9492 -46.7872 0.986 0.127 0.108 76 34 28 0
5.8816 39.1036 -46.9766 0.144 -0.914 -0.378 75 33 24 0
6.1230 39.2125 -46.8789 0.092 -0.940 -0.330 75 35 23 0
10.0312 40.0286 -45.2960 0.740 -0.651 -0.166 65 38 18 0
10.3436 40.0759 -45.1695 0.856 -0.249 -0.453 65 40 19 0
10.0009 40.8477 -45.3092 0.723 -0.532 -0.440 61 40 18 0
10.2443 40.9429 -45.2107 0.715 -0.525 -0.461 59 38 17 0
5.2347 47.6133 -47.2486 0.541 0.046 0.840 47 38 20 0
5.0406 48.0458 -47.3278 0.516 0.037 0.855 46 38 20 0
5.2687 49.9155 -47.2375 0.935 -0.281 0.218 38 39 20 0
4.9994 50.4154 -47.3472 0.809 -0.559 0.179 38 39 21 0
-0.1127 55.2570 -49.4246 0.461 -0.559 -0.689 35 40 23 0
1.6581 54.5037 -48.7060 0.807 -0.501 -0.312 36 42 23 0
0.5114 56.0230 -49.1725 0.775 -0.626 0.088 43 50 30 0
0.1779 56.5998 -49.3083 0.986 -0.113 0.124 52 61 38 0
-0.3068 57.2991 -49.5056 0.988 -0.150 -0.029 48 63 36 0
2.1995 57.5048 -48.4901 0.867 -0.400 -0.297 25 85 47 0
2.2070 57.8143 -48.4874 0.857 -0.404 -0.319 25 89 49 0
2.3512 58.0127 -48.4292 0.869 -0.395 -0.299 25 91 50 0
8.4559 58.4901 -45.9558 0.895 0.447 0.018 37 107 58 0
11.6103 74.5274 -44.6961 0.719 0.036 0.694 48 120 72 0
29.7465 95.1993 -37.3703 0.394 -0.912 -0.117 172 161 149 0
30.0781 95.0626 -37.2357 0.346 -0.932 -0.107 170 159 147 0
41.9451 77.2141 -32.4059 0.863 0.251 -0.438 170 159 148 0
-16.2897 -6.9211 -56.1468 0.756 -0.580 -0.302 135 135 135 0
1.2566 -6.8284 -49.0046 0.234 -0.883 -0.406 231 220 213 0
-0.1904 -6.3791 -49.5946 0.278 -0.865 -0.417 231 221 214 0
-11.6177 -2.4129 -54.2550 0.916 0.336 -0.217 232 222 213 0
-12.1431 -2.0994 -54.4695 0.935 0.254 -0.248 231 221 212 0
-14.8958 32.3426 -55.6660 0.789 0.574 0.217 223 212 210 0
-15.0535 35.8210 -55.7379 -0.021 -0.842 -0.539 198 183 177 0
5.5849 32.3102 -47.3291 0.673 -0.736 -0.074 93 52 58 0
4.8130 33.0183 -47.6448 0.979 -0.031 -0.203 92 50 56 0
2.9382 35.6958 -48.4139 0.786 0.140 0.602 92 48 51 0
6.5042 35.0790 -46.9610 0.978 -0.174 0.115 90 46 45 0
6.3937 35.4062 -47.0067 0.941 -0.051 0.334 87 41 41 0
6.5620 37.3887 -46.9425 0.994 -0.078 -0.083 76 38 28 0
6.7636 37.5219 -46.8608 0.930 -0.341 0.136 77 38 29 0
13.4246 35.1963 -44.1442 0.605 -0.723 -0.333 76 41 23 0
10.0187 40.8938 -45.5432 0.270 -0.941 -0.205 64 43 17 0
10.2817 40.9752 -45.4363 0.321 -0.936 -0.145 63 42 16 0
16.6292 37.2362 -42.8442 0.415 -0.883 -0.220 59 42 19 0
2.7200 52.8333 -48.5405 0.958 -0.077 0.277 32 43 23 0
-0.2259 55.4173 -49.7454 0.476 -0.554 -0.683 31 42 21 0
1.6207 54.6049 -48.9919 0.791 -0.529 -0.306 37 48 26 0
0.4255 56.4787 -49.4826 0.958 -0.283 0.038 45 65 38 0
0.0856 57.3805 -49.6229 0.921 -0.378 0.098 36 71 39 0
5.8666 54.5979 -47.2636 0.813 -0.499 0.301 24 89 47 0
8.3922 58.6238 -46.2444 0.895 0.444 0.041 37 105 57 0
16.4234 64.8787 -42.9890 0.117 -0.973 0.201 47 112 62 0
11.7371 74.8388 -44.9186 0.759 -0.047 0.649 52 121 77 0
11.1775 76.5054 -45.1501 0.968 0.223 0.114 56 119 81 0
29.9425 95.4209 -37.5533 0.451 -0.749 -0.486 173 161 149 0
40.8343 80.1997 -33.0861 0.857 -0.415 -0.306 168 154 142 0
-16.0323 -6.5348 -56.2816 0.752 -0.586 -0.302 223 215 205 0
1.2545 -6.8115 -49.2127 0.209 -0.903 -0.376 230 219 213 0
-14.4973 34.1635 -55.7864 0.740 0.548 0.391 212 200 196 0
-15.0608 36.1641 -56.0234 0.059 -0.698 -0.714 197 182 175 0
5.6759 39.0830 -47.5543 -0.126 -0.851 0.509 78 45 30 0
15.4714 40.1756 -43.5528 0.778 -0.623 -0.076 50 45 23 0
15.8023 40.4487 -43.4184 0.770 -0.622 -0.141 46 45 24 0
15.5347 40.9086 -43.5293 0.992 -0.085 0.091 45 46 24 0
2.8843 52.1714 -48.7383 0.714 -0.608 -0.349 40 42 21 0
-0.8259 55.3258 -50.2655 0.016 -0.855 -0.518 38 44 22 0
1.5889 54.7021 -49.2761 0.809 -0.513 -0.289 40 59 32 0
0.9578 59.6298 -49.5502 0.624 -0.491 -0.608 23 93 48 0
10.0205 55.7499 -45.8321 -0.291 -0.378 0.879 27 100 53 0
0.5732 65.8978 -49.7279 -0.094 -0.747 0.658 37 104 54 0
11.0240 68.4940 -45.4633 0.643 -0.746 0.174 43 112 58 0
11.5483 68.6330 -45.2494 0.312 -0.883 0.351 42 110 61 0
11.2077 69.3138 -45.3909 -0.187 -0.965 -0.185 43 111 62 0
12.2721 71.5993 -44.9631 0.978 -0.158 0.137 46 114 65 0
9.5549 78.3820 -46.0961 0.963 -0.052 0.265 58 117 82 0
24.7975 75.5711 -39.8548 0.081 -0.995 -0.063 188 181 171 0
30.9351 95.5421 -37.4103 0.500 -0.866 -0.005 174 157 147 0
-16.5827 -5.8089 -56.7498 0.826 -0.396 -0.402 228 218 208 0
-6.3886 -7.1152 -52.5577 0.246 -0.720 -0.649 226 215 210 0
-4.9795 -7.1648 -51.9788 0.249 -0.715 -0.654 228 217 213 0
3.3428 23.3161 -48.6922 0.586 0.051 0.809 223 213 212 0
-8.7764 34.3337 -53.7167 0.957 -0.283 -0.063 181 163 159 0
-8.7296 34.5852 -53.6985 0.958 -0.282 -0.057 163 144 142 0
3.9304 35.7254 -48.5042 0.112 -0.274 0.955 89 47 48 0
6.3148 35.0425 -47.5221 0.866 -0.433 -0.249 88 46 45 0
8.9174 37.5343 -46.4640 0.344 0.265 0.901 81 49 27 0
8.8694 38.8793 -46.4895 0.529 0.490 0.693 87 54 22 0
8.8040 39.1881 -46.5177 0.152 0.098 0.984 87 54 20 0
8.7836 39.4673 -46.5273 0.143 0.029 0.989 92 60 23 0
14.6245 40.5993 -44.1334 0.852 -0.496 0.166 54 48 25 0
15.1961 40.4379 -43.8980 0.929 -0.371 0.006 54 50 28 0
15.4973 40.4748 -43.7744 0.973 -0.136 -0.187 50 49 27 0
15.5549 40.6921 -43.7517 0.971 -0.044 -0.237 47 49 27 0
15.0269 41.3483 -43.9714 0.990 -0.099 0.095 45 49 25 0
5.3392 49.4776 -47.9849 0.905 -0.378 0.193 46 44 23 0
4.9103 50.3925 -48.1650 0.980 -0.182 -0.079 44 44 23 0
-0.9973 55.5303 -50.6132 0.015 -0.856 -0.517 39 48 24 0
-0.5543 56.4490 -50.4352 0.555 -0.537 -0.635 39 67 37 0
-0.1331 57.3864 -50.2663 0.546 -0.485 -0.683 30 82 43 0
0.2051 57.4356 -50.1276 0.553 -0.483 -0.679 26 83 42 0
3.3472 58.0542 -48.8398 0.766 -0.061 -0.639 22 93 48 0
0.6175 65.9437 -49.9948 -0.058 -0.805 0.590 39 105 55 0
10.4372 59.7668 -45.9355 -0.419 -0.640 0.644 38 106 57 0
11.6081 68.6634 -45.4929 0.334 -0.869 0.365 40 108 60 0
10.8736 72.8223 -45.8125 0.614 -0.484 -0.623 43 114 64 0
11.8491 72.1403 -45.4089 0.760 -0.561 0.328 43 115 64 0
11.8400 72.4936 -45.4142 0.880 -0.345 0.327 44 115 65 0
10.9357 73.7983 -45.7912 0.458 -0.423 0.782 44 116 64 0
11.4658 73.5825 -45.5725 0.645 -0.226 0.730 46 117 65 0
9.5757 78.4622 -46.3697 0.965 -0.000 0.263 59 114 81 0
9.6061 78.7914 -46.3587 0.970 0.008 0.243 60 114 82 0
9.1517 79.6562 -46.5490 0.950 0.257 0.180 63 113 84 0
24.9880 75.4350 -40.0273 0.091 -0.995 -0.038 188 181 171 0
22.1707 82.2384 -41.2135 0.893 -0.251 0.374 187 179 170 0
21.3271 87.8251 -41.5840 0.563 -0.548 -0.618 184 175 168 0
30.9228 95.7027 -37.6772 0.358 -0.887 0.291 172 155 145 0
31.2458 95.5715 -37.5440 0.452 -0.724 0.521 172 155 145 0
-36.0449 -0.8713 -65.0452 -0.026 -0.818 0.574 229 218 214 0
-13.4511 32.0609 -55.9018 0.881 0.393 0.264 224 213 209 0
-8.7396 33.8134 -53.9677 0.982 -0.183 -0.044 190 177 170 0
-8.9370 34.1931 -54.0512 0.863 -0.351 -0.362 187 172 167 0
-8.8296 34.4126 -54.0081 0.863 -0.351 -0.362 182 167 162 0
