ply
format ascii 1.0
element vertex 830
property float x
property float y
property float z
property float nx
property float ny
property float nz
property uchar diffuse_red
property uchar diffuse_green
property uchar diffuse_blue
property uchar class
end_header
37.9043 65.2424 -37.1346 0.004 -0.506 0.862 181 174 166 0
36.9154 87.9840 -38.1241 0.678 -0.639 -0.364 168 154 143 0
37.3656 87.6000 -37.9255 0.950 -0.275 -0.148 166 154 141 0
37.4360 87.8649 -37.9027 0.946 -0.282 -0.158 166 152 139 0
37.5151 88.1151 -37.8758 0.946 -0.282 -0.158 108 99 93 0
37.7160 88.5428 -37.8023 0.871 -0.409 -0.274 247 247 246 0
-13.9880 -7.8262 -57.2915 0.937 0.268 -0.225 255 255 255 0
-11.3356 -6.0739 -56.2202 0.265 -0.834 -0.484 224 213 207 0
-35.1149 -0.0529 -66.3971 0.366 -0.772 0.520 228 218 209 0
-18.0410 -2.7147 -59.1337 0.742 0.403 0.536 230 219 212 0
1.8485 18.9684 -51.3255 0.335 -0.875 -0.349 231 227 219 0
-10.1957 29.9596 -56.6893 0.747 0.400 0.531 225 218 217 0
-7.6183 30.0115 -55.6048 0.508 -0.751 0.423 220 215 211 0
-1.3789 27.8485 -52.9192 0.521 -0.829 -0.203 220 212 208 0
8.8595 33.4675 -48.7538 0.257 -0.966 0.021 106 78 67 0
11.1886 34.5146 -47.8001 0.683 -0.605 0.410 189 171 65 0
11.4159 34.8750 -47.7138 0.988 -0.155 -0.005 199 179 59 0
11.3971 35.1438 -47.7288 0.761 -0.646 -0.068 202 182 56 0
11.4517 35.6214 -47.7184 0.991 -0.128 0.031 207 188 54 0
14.6138 35.7506 -46.3896 0.538 -0.492 0.684 215 200 54 0
10.7150 52.2855 -48.4678 0.869 -0.448 0.210 19 93 44 0
10.6139 52.9717 -48.5284 0.365 -0.457 0.811 20 96 47 0
4.3078 62.6048 -51.4390 0.823 0.047 -0.566 24 100 52 0
4.3249 62.9220 -51.4401 0.813 0.046 -0.580 27 101 50 0
4.9805 62.6631 -51.1571 0.859 -0.204 0.470 26 100 49 0
14.9162 60.1295 -46.9045 0.191 -0.143 0.971 33 107 54 0
9.2562 72.1848 -49.6066 0.740 -0.268 -0.617 37 114 68 0
9.6599 72.1150 -49.4347 0.740 -0.525 -0.421 39 114 70 0
10.6445 75.3364 -49.1048 0.537 -0.802 0.261 53 108 79 0
10.7146 75.6203 -49.0827 0.507 -0.503 0.700 56 109 81 0
18.1507 77.5051 -45.9995 0.910 0.022 -0.413 190 188 176 0
43.6803 75.1718 -35.1825 0.984 0.096 -0.150 170 156 145 0
37.5125 88.2527 -38.1256 0.942 -0.290 -0.169 107 99 93 0
37.5932 88.5012 -38.0981 0.946 -0.282 -0.158 50 50 50 0
37.7184 88.6727 -38.0499 0.873 -0.399 -0.282 247 247 245 0
-14.0668 -7.5972 -57.5664 0.959 0.169 -0.229 255 255 255 0
-17.9334 -6.5438 -59.2313 0.976 0.073 -0.203 65 62 61 0
-17.5967 -5.3427 -59.1218 0.916 0.206 -0.346 222 212 203 0
-34.6216 -0.1282 -66.4682 0.385 -0.723 0.574 229 218 211 0
-33.1271 -0.1762 -65.8345 0.434 -0.599 0.673 230 219 213 0
-7.4705 29.9808 -55.8059 0.434 -0.828 0.356 223 215 212 0
-7.2485 30.1358 -55.7162 0.434 -0.828 0.356 222 215 212 0
-1.5821 38.1723 -53.5391 0.330 -0.540 -0.774 119 89 94 0
-1.5783 39.0112 -53.5605 0.341 -0.466 -0.817 116 88 85 0
9.8884 33.1174 -48.5472 0.757 -0.497 -0.425 111 83 71 0
11.0293 35.6999 -48.1353 0.763 -0.364 0.535 207 190 54 0
11.1720 35.8623 -48.0794 0.975 -0.200 0.100 209 194 53 0
17.2132 33.9812 -45.4717 0.707 -0.436 0.557 217 204 52 0
13.3083 40.3944 -47.2997 0.178 -0.590 0.787 208 194 46 0
3.3430 62.8812 -52.1328 0.689 -0.633 -0.353 22 97 51 0
3.6815 62.9129 -51.9905 0.851 -0.133 -0.508 25 98 52 0
4.0704 62.8980 -51.8255 0.827 0.064 -0.558 25 98 52 0
4.1525 63.1578 -51.7979 0.830 0.052 -0.556 24 100 50 0
8.3236 60.3641 -49.9565 0.082 -0.915 0.395 26 103 51 0
9.0552 72.4880 -49.9794 0.740 -0.268 -0.617 40 113 73 0
9.5799 74.7872 -49.8204 0.767 0.194 -0.612 53 106 79 0
10.5161 74.8540 -49.4261 0.174 -0.982 -0.074 55 108 82 0
36.9018 66.5143 -38.0333 -0.079 -0.930 0.358 183 174 167 0
28.2761 90.5416 -42.3419 0.861 -0.492 0.131 172 161 157 0
34.2441 82.7807 -39.6039 0.312 -0.538 0.783 170 162 156 0
37.3267 87.9311 -38.4409 0.927 -0.324 -0.190 166 152 141 0
37.4289 88.1425 -38.4034 0.942 -0.290 -0.169 166 152 140 0
37.5180 88.3765 -38.3721 0.947 -0.280 -0.158 107 99 93 0
37.5920 88.6372 -38.3480 0.946 -0.282 -0.158 50 50 50 0
37.7307 88.7856 -38.2934 0.874 -0.402 -0.275 247 247 246 0
-14.1229 -7.7748 -57.8211 0.940 0.234 -0.246 255 255 255 0
-34.2597 -0.1782 -66.5943 0.360 -0.722 0.591 229 218 213 0
-32.7710 -0.2257 -65.9604 0.366 -0.809 0.460 230 219 215 0
-29.2476 8.8692 -64.7224 0.787 -0.039 0.616 229 222 214 0
-28.7600 8.9914 -64.5187 0.876 -0.240 0.418 229 222 214 0
-28.5705 9.4478 -64.4512 -0.189 -0.335 0.923 231 225 219 0
-17.7357 28.1299 -60.3796 0.543 -0.163 0.824 230 227 220 0
-9.1973 37.9212 -57.0305 0.769 -0.524 0.366 171 160 164 0
-7.1382 39.0287 -56.1871 0.099 -0.598 -0.795 130 117 120 0
-2.3875 38.1595 -54.1436 0.678 -0.158 -0.718 127 99 106 0
-2.3027 38.3883 -54.1142 0.678 -0.158 -0.718 126 98 103 0
8.6959 33.4140 -49.2987 0.155 -0.377 0.913 118 92 83 0
9.0998 33.4138 -49.1271 0.209 -0.937 0.279 119 91 80 0
9.6503 33.3185 -48.8905 0.200 -0.932 0.301 119 92 74 0
10.0198 33.3368 -48.7340 0.336 -0.744 0.578 122 95 67 0
10.8849 35.8491 -48.4380 0.478 -0.466 0.745 212 196 58 0
16.2779 34.1894 -46.0991 0.721 -0.182 0.668 218 205 50 0
16.9351 33.9794 -45.8138 0.460 -0.619 0.637 218 205 49 0
15.3396 35.3465 -46.5308 0.677 -0.472 0.564 220 207 50 0
15.1727 35.7171 -46.6122 0.534 -0.528 0.661 219 207 50 0
15.3293 35.8604 -46.5498 0.480 -0.578 0.660 219 207 51 0
13.1689 40.2876 -47.5940 0.205 -0.530 0.823 211 198 48 0
13.4139 40.3733 -47.4923 0.187 -0.538 0.822 211 197 47 0
13.9977 40.2058 -47.2395 0.187 -0.319 0.929 209 195 47 0
4.2693 63.1333 -52.0268 0.825 0.062 -0.562 22 98 50 0
15.1428 59.4394 -47.3011 0.031 -0.275 0.961 30 108 53 0
12.5869 70.2598 -48.6955 0.543 -0.302 0.783 47 107 75 0
12.4960 70.7022 -48.7468 0.440 -0.209 0.873 48 107 76 0
12.9700 70.5425 -48.5408 0.514 -0.290 0.807 50 106 78 0
13.4818 70.6848 -48.3274 0.812 0.221 0.539 54 107 81 0
12.9224 80.2877 -48.8388 0.876 -0.079 -0.477 178 181 175 0
22.5210 94.5579 -45.1668 0.093 -0.939 0.332 178 167 163 0
44.2258 73.8033 -35.3523 0.877 0.438 0.197 168 157 145 0
36.8711 88.4576 -38.8952 0.643 -0.684 -0.344 168 151 142 0
37.3236 88.0693 -38.6919 0.927 -0.324 -0.190 165 150 139 0
37.4116 88.3056 -38.6612 0.927 -0.330 -0.180 164 150 138 0
37.5112 88.5220 -38.6250 0.946 -0.282 -0.158 106 98 92 0
37.5907 88.7735 -38.5984 0.946 -0.282 -0.158 50 50 50 0
37.7206 88.9379 -38.5480 0.874 -0.402 -0.275 247 247 245 0
37.5601 89.6094 -38.6353 0.996 0.085 -0.022 254 255 255 0
-14.1227 -7.7601 -58.0575 0.936 0.254 -0.244 255 255 255 0
-18.0637 -6.2809 -59.7831 0.980 0.116 -0.159 219 211 204 0
-14.3442 23.6970 -59.0827 -0.080 -0.885 -0.458 231 228 221 0
10.6096 14.4921 -48.1615 0.006 -0.814 -0.581 230 227 220 0
-13.7789 31.8822 -59.0836 0.843 0.473 0.256 223 218 215 0
-11.7640 37.1031 -58.3782 0.934 -0.111 -0.341 201 195 197 0
-11.7256 37.3721 -58.3697 0.859 -0.443 -0.258 196 191 193 0
-2.9770 37.4487 -54.6386 0.505 -0.370 -0.780 126 111 115 0
9.7857 33.0272 -49.0614 0.412 -0.304 0.859 127 101 84 0
9.9633 33.1681 -48.9898 0.107 -0.610 0.785 128 101 74 0
10.9946 35.8273 -48.6283 0.699 -0.310 0.644 214 200 58 0
16.1266 33.1056 -46.3578 -0.070 -0.975 -0.212 218 202 54 0
17.1857 33.8552 -45.9280 0.472 -0.589 0.657 220 208 50 0
15.8591 35.2858 -46.5364 0.303 -0.534 0.789 222 209 51 0
15.2284 36.2394 -46.8338 0.841 -0.541 0.006 219 207 54 0
13.2566 40.5473 -47.8026 0.153 -0.779 0.609 211 199 48 0
14.4764 39.9060 -47.2631 0.218 -0.525 0.823 210 198 48 0
16.0696 39.7638 -46.5790 0.007 -0.210 0.978 207 192 46 0
13.0602 53.1659 -48.2598 0.416 -0.814 -0.407 15 99 47 0
3.1588 62.8712 -52.7722 0.894 0.210 0.396 20 99 50 0
3.7836 62.6486 -52.4990 0.623 -0.676 -0.394 22 98 52 0
7.5901 59.8945 -50.7931 0.848 -0.021 0.530 23 99 53 0
7.9633 60.5261 -50.6526 0.934 -0.335 0.126 24 102 52 0
13.0203 70.2359 -48.7818 0.571 -0.304 0.762 50 107 78 0
13.3930 70.1826 -48.6212 0.538 -0.165 0.826 53 107 80 0
13.8014 70.0891 -48.4441 0.810 0.110 0.576 56 109 83 0
37.4814 65.5891 -38.2057 0.087 -0.973 -0.216 182 174 167 0
39.7882 63.9225 -37.1720 0.740 -0.582 0.336 181 170 164 0
22.6532 94.4927 -45.3886 0.093 -0.939 0.332 178 167 164 0
44.2824 73.8234 -35.5470 0.870 0.447 0.208 166 156 144 0
36.8560 88.6167 -39.1538 0.624 -0.700 -0.347 168 151 142 0
37.3215 88.2059 -38.9430 0.927 -0.330 -0.180 168 151 141 0
37.5895 88.9102 -38.8494 0.946 -0.282 -0.158 50 50 50 0
37.6549 89.1874 -38.8298 0.869 -0.445 -0.214 247 247 245 0
37.6012 89.6734 -38.8671 0.995 0.092 -0.032 254 255 255 0
-14.2518 -7.7242 -58.3503 0.962 0.141 -0.235 255 255 255 0
-1.3365 27.9996 -53.9108 -0.162 -0.939 0.304 219 214 211 0
-11.4930 37.2942 -58.5485 0.901 -0.383 -0.206 197 194 195 0
-11.8412 37.7792 -58.7126 -0.052 -0.332 0.942 195 192 193 0
11.3279 35.6547 -48.7180 0.740 -0.363 0.567 215 203 55 0
16.3866 38.7975 -46.6464 0.160 -0.348 0.924 210 198 46 0
17.5108 45.1237 -46.3586 0.455 0.350 0.819 33 98 46 0
15.8676 51.0577 -47.2448 0.203 -0.755 -0.623 19 100 47 0
3.3657 62.7674 -52.9617 0.866 -0.086 0.492 21 99 51 0
4.0319 62.5069 -52.6682 0.650 -0.680 -0.339 22 99 53 0
4.0323 63.5091 -52.6988 0.946 -0.322 0.028 21 98 52 0
8.1727 60.4143 -50.8295 0.863 -0.430 0.267 24 102 54 0
9.7745 59.5941 -50.1178 0.188 -0.493 0.850 24 101 53 0
14.5125 59.8946 -48.0965 0.956 -0.290 0.034 25 107 49 0
12.6334 68.3368 -49.1607 0.791 0.560 0.245 37 111 68 0
13.5331 70.1248 -48.8299 0.532 -0.144 0.835 53 107 80 0
38.5492 64.5152 -37.9370 -0.084 -0.982 0.167 181 173 165 0
35.5187 69.0612 -39.3751 0.801 0.468 0.374 181 172 165 0
36.5546 67.9359 -38.8967 0.996 -0.016 -0.089 180 172 166 0
27.8950 92.7276 -43.3681 0.828 -0.497 0.259 169 160 153 0
44.2652 73.9677 -35.7772 0.868 0.449 0.212 165 155 144 0
36.8596 88.7441 -39.4040 0.624 -0.700 -0.347 169 151 143 0
37.3207 88.3406 -39.1940 0.927 -0.330 -0.180 168 150 141 0
37.4102 88.5753 -39.1629 0.927 -0.330 -0.180 168 151 141 0
37.4998 88.8102 -39.1317 0.927 -0.330 -0.180 108 99 94 0
37.5883 89.0471 -39.1010 0.946 -0.282 -0.158 50 50 50 0
37.7152 89.2174 -39.0519 0.873 -0.436 -0.216 247 247 245 0
37.6649 89.6979 -39.0881 0.997 -0.058 0.056 254 255 255 0
37.7464 89.9487 -39.0609 0.997 -0.035 0.063 254 255 255 0
-14.3153 -7.6991 -58.6153 0.946 0.242 -0.216 255 255 255 0
-15.6180 -5.8383 -59.2351 0.908 0.324 0.265 225 215 209 0
-16.7231 24.7943 -60.6832 -0.103 -0.892 -0.440 231 228 223 0
-13.1827 29.4549 -59.3075 0.913 -0.158 0.375 224 219 216 0
-12.8069 29.8241 -59.1574 0.877 -0.255 0.408 224 219 216 0
-4.1161 29.4930 -55.4065 0.956 -0.073 0.284 219 214 211 0
-12.3813 36.9644 -59.2010 0.849 0.472 -0.238 207 201 203 0
-9.1816 41.8848 -57.9801 0.985 0.166 -0.054 136 125 129 0
-8.8754 41.9962 -57.8518 0.762 -0.338 -0.553 132 118 122 0
-5.0732 41.1235 -56.1877 0.477 -0.099 -0.873 120 100 97 0
12.1852 33.0965 -48.5051 0.393 -0.817 0.421 203 183 66 0
16.6559 34.5777 -46.6280 0.774 -0.607 0.182 224 211 57 0
15.8233 41.9286 -47.2197 0.656 -0.606 -0.449 194 182 49 0
17.7732 40.9348 -46.3490 0.679 -0.596 -0.428 190 178 47 0
3.0644 63.1160 -53.3836 0.825 -0.181 0.536 21 98 50 0
7.0683 60.1960 -51.5677 0.992 0.097 0.078 20 97 51 0
10.0528 59.4170 -50.2585 0.180 -0.498 0.848 25 102 56 0
14.6873 60.1209 -48.2862 0.944 -0.186 -0.273 26 106 50 0
9.3573 73.9728 -51.0199 0.895 0.359 -0.266 50 106 78 0
15.7191 77.3093 -48.3878 0.984 -0.001 0.177 170 180 171 0
15.4968 77.9356 -48.5034 0.978 -0.124 0.168 174 182 172 0
15.3598 78.4635 -48.5791 0.980 -0.024 0.198 176 182 172 0
14.9983 79.2609 -48.7600 0.909 0.012 0.416 178 182 174 0
14.7295 79.9517 -48.8976 0.922 -0.124 0.367 181 182 176 0
18.5426 77.5479 -47.1802 0.699 -0.590 0.405 186 186 175 0
18.7897 77.6076 -47.0758 0.691 -0.576 0.437 186 184 174 0
38.1661 64.5204 -38.3210 0.317 -0.767 0.559 183 174 167 0
35.2547 69.8605 -39.7436 0.733 0.465 0.496 181 172 167 0
34.6824 71.3298 -40.0365 0.738 0.434 0.517 180 171 166 0
34.2684 72.2513 -40.2439 0.754 0.406 0.517 180 171 166 0
31.3611 90.5516 -42.0762 0.362 0.410 0.837 170 160 150 0
35.5337 87.6255 -40.1875 0.362 -0.821 -0.441 167 157 147 0
36.9454 88.7306 -39.6150 0.898 -0.412 -0.154 168 150 142 0
37.5871 89.1843 -39.3532 0.946 -0.282 -0.158 50 50 50 0
37.7021 89.3759 -39.3098 0.903 -0.421 -0.079 247 247 245 0
37.6982 89.7759 -39.3242 0.991 -0.129 0.030 254 255 255 0
37.7159 90.1393 -39.3281 0.994 -0.045 0.100 254 255 254 0
-11.4733 -6.5565 -57.6618 0.985 0.130 0.111 227 216 210 0
-18.7516 -4.8400 -60.8639 0.755 0.227 0.615 228 217 211 0
1.2213 -7.3668 -52.1485 0.221 -0.927 0.304 230 221 214 0
-13.0179 29.4196 -59.5106 0.988 -0.140 0.066 225 219 217 0
-13.1167 30.0192 -59.5730 0.897 -0.250 0.364 223 218 215 0
-13.3469 30.4085 -59.6852 0.911 -0.058 0.408 223 218 215 0
-11.8997 37.6233 -59.2966 0.192 -0.032 0.981 202 200 202 0
-4.3607 36.4658 -56.0002 0.452 -0.216 0.865 185 175 183 0
-5.4304 37.3740 -56.4924 0.298 -0.323 0.898 183 172 179 0
-7.0588 38.6178 -57.2370 0.382 -0.718 0.582 180 170 176 0
-7.1978 38.9885 -57.3092 0.205 -0.958 0.200 177 166 172 0
-8.6436 41.9108 -58.0301 0.787 -0.343 -0.514 149 138 143 0
-8.8040 42.3070 -58.1124 0.721 -0.373 -0.584 145 133 138 0
-8.5691 42.4613 -58.0160 0.950 -0.156 -0.269 140 125 127 0
9.6361 32.7612 -49.8290 0.364 -0.611 0.703 119 102 87 0
11.4307 33.3856 -49.0739 0.885 -0.446 0.131 207 187 73 0
21.6334 33.5127 -44.6684 0.560 -0.808 0.182 222 212 55 0
13.3701 40.9039 -48.4825 -0.189 -0.617 0.764 218 205 47 0
15.2279 41.9126 -47.7127 0.689 -0.544 -0.478 203 190 47 0
15.4054 42.0443 -47.6403 0.698 -0.543 -0.467 199 188 46 0
15.7465 42.0479 -47.4930 0.656 -0.606 -0.449 196 184 45 0
15.8131 42.2651 -47.4713 0.644 -0.659 -0.388 195 182 45 0
17.7793 41.2532 -46.5883 0.403 -0.903 0.150 191 178 46 0
6.8754 60.4475 -51.9312 0.656 0.480 0.582 22 99 53 0
15.6036 58.0615 -48.0805 0.921 0.384 0.068 25 108 52 0
15.4668 64.2476 -48.3427 0.506 0.115 0.855 41 113 73 0
13.6683 66.7649 -49.2027 0.851 -0.512 -0.114 41 111 71 0
10.8164 74.2945 -50.6825 0.560 -0.712 -0.423 60 114 89 0
15.6965 77.4386 -48.6766 0.972 -0.111 0.208 170 178 171 0
15.3230 78.2447 -48.8645 0.867 0.065 0.494 172 178 171 0
15.2581 79.7955 -48.9434 0.907 -0.044 0.419 181 182 176 0
40.7750 67.1848 -37.5008 0.723 -0.479 0.498 178 167 161 0
23.5522 93.5454 -45.8101 0.748 0.530 0.398 177 168 160 0
22.5850 95.4034 -46.2891 0.766 0.529 0.365 176 167 160 0
35.7590 87.3801 -40.3318 0.326 -0.854 -0.405 167 156 146 0
36.9401 88.8737 -39.8703 0.909 -0.395 -0.136 164 148 139 0
37.2209 89.1719 -39.7588 0.334 -0.852 -0.402 163 145 136 0
37.6490 89.2119 -39.5751 0.443 -0.813 -0.379 50 50 50 0
37.7232 89.4749 -39.5516 0.886 -0.405 -0.227 247 247 245 0
37.7043 89.9017 -39.5738 0.996 -0.055 0.064 254 255 255 0
37.7192 90.2707 -39.5795 0.996 -0.066 0.058 254 255 254 0
-13.2494 30.1283 -59.9105 0.939 -0.117 0.324 223 216 214 0
-11.3834 30.5916 -59.1164 0.221 -0.883 0.415 223 219 216 0
-11.1660 36.6870 -59.2287 0.724 0.548 0.420 206 202 203 0
1.4919 32.8280 -53.6039 0.360 -0.933 0.001 191 185 191 0
9.7607 32.7313 -50.0117 0.454 -0.597 0.661 133 119 98 0
12.0146 32.8034 -49.0359 0.477 -0.321 0.818 209 188 75 0
11.4813 33.4025 -49.2877 0.887 -0.444 0.123 211 192 74 0
12.9784 32.9270 -48.6217 0.654 -0.751 0.093 213 200 70 0
13.2972 32.9676 -48.4848 0.615 -0.785 0.075 215 204 65 0
13.5449 33.0540 -48.3802 0.624 -0.768 0.145 217 206 64 0
20.0586 31.8042 -45.5106 0.684 -0.729 0.010 229 216 56 0
19.0720 32.7362 -45.9705 0.735 -0.662 0.150 227 216 58 0
19.2074 32.8838 -45.9167 0.841 -0.506 0.193 226 215 60 0
15.2924 41.9220 -47.9225 0.369 -0.819 -0.439 205 192 45 0
15.4846 42.0422 -47.8432 0.535 -0.710 -0.458 202 188 44 0
15.9349 41.9603 -47.6449 0.579 -0.618 -0.531 199 185 45 0
16.1368 42.0711 -47.5611 0.610 -0.608 -0.508 198 184 44 0
20.2773 39.5961 -45.6800 0.498 -0.849 0.177 190 174 46 0
13.9391 66.5724 -49.3459 0.663 -0.266 0.700 42 109 70 0
14.1492 66.6892 -49.2587 0.752 0.003 0.659 42 108 70 0
10.2920 71.7520 -51.1046 0.799 0.576 0.175 47 109 76 0
10.9903 72.0708 -50.8123 0.882 -0.167 -0.442 51 110 80 0
11.9089 71.7946 -50.4042 0.951 0.207 -0.231 57 111 85 0
11.8223 72.2389 -50.4569 0.957 0.194 -0.217 58 112 86 0
10.9982 75.2732 -50.9175 0.848 0.417 -0.328 83 123 105 0
15.6290 77.9860 -48.9996 0.957 -0.142 0.252 173 178 174 0
15.3474 79.0547 -49.1581 0.991 0.071 0.113 179 180 175 0
15.3214 79.4549 -49.1829 0.991 0.071 0.113 181 182 176 0
20.8032 87.2349 -47.0675 0.555 -0.560 0.615 185 177 167 0
20.9985 87.3571 -46.9869 0.843 0.118 0.524 183 176 166 0
36.2771 69.6081 -39.7535 0.917 0.271 0.292 180 169 165 0
36.9184 89.0456 -40.1344 0.901 -0.418 -0.114 164 149 138 0
37.6849 89.6780 -39.8232 0.889 -0.413 -0.196 246 246 245 0
37.7322 89.9896 -39.8132 0.972 -0.220 -0.083 254 255 255 0
37.7170 90.4121 -39.8342 0.995 -0.093 0.036 254 255 255 0
0.1379 -3.3919 -53.1792 0.999 -0.026 -0.021 231 222 217 0
-14.6505 1.2820 -59.7885 0.027 -0.961 -0.277 231 222 217 0
-9.4266 26.4473 -58.3925 0.127 -0.831 0.541 224 221 213 0
-0.8554 27.9222 -54.7082 0.368 -0.825 -0.429 218 212 214 0
9.5812 32.6397 -50.3245 0.315 -0.710 0.630 155 144 126 0
12.2421 32.7051 -49.1670 0.522 -0.295 0.800 210 193 77 0
10.7877 33.9046 -49.8429 0.631 -0.430 0.646 212 196 75 0
19.8550 31.5166 -45.8072 0.618 -0.503 0.605 227 216 58 0
19.8655 31.9887 -45.8192 0.847 -0.314 0.429 230 218 57 0
17.2635 39.1418 -47.2037 0.227 -0.390 0.892 212 203 46 0
15.3933 42.1728 -48.1249 0.551 -0.776 -0.307 205 190 46 0
16.0201 42.2223 -47.8535 0.612 -0.625 -0.484 200 184 45 0
20.3663 39.5831 -45.8667 0.501 -0.857 0.123 191 175 45 0
31.6993 45.0618 -41.1189 0.928 0.150 -0.341 29 112 56 0
31.7459 46.0632 -41.1337 0.703 -0.509 -0.497 34 116 67 0
14.1462 66.4457 -49.5182 0.657 -0.266 0.705 44 108 72 0
14.1536 66.7728 -49.5264 0.766 -0.046 0.642 45 107 72 0
9.3104 73.2346 -51.8635 0.854 -0.391 -0.344 50 110 77 0
15.1030 77.9794 -49.5048 0.325 -0.872 -0.366 173 178 177 0
15.4522 79.0346 -49.3896 0.883 0.027 -0.469 178 179 175 0
19.1817 77.4404 -47.7082 0.410 -0.770 0.489 183 183 173 0
21.1843 87.6116 -47.1914 0.593 0.136 0.794 183 176 166 0
21.7678 87.5854 -46.9362 0.702 -0.596 0.390 182 173 167 0
21.8626 87.8443 -46.9039 0.699 -0.598 0.392 181 172 167 0
20.6412 89.9443 -47.5098 0.718 0.443 0.537 180 171 166 0
36.3373 69.6250 -39.9572 0.913 0.270 0.305 179 170 165 0
35.1111 71.7043 -40.5644 0.912 0.330 0.244 178 169 164 0
42.1431 65.0424 -37.2663 0.649 0.391 0.652 176 167 158 0
36.3068 84.4440 -40.4892 0.318 -0.671 0.670 163 153 143 0
34.7907 90.8432 -41.3741 0.465 -0.734 -0.494 169 155 145 0
36.8940 89.2223 -40.4006 0.876 -0.472 -0.098 165 152 141 0
37.1897 89.4967 -40.2813 0.329 -0.865 -0.378 161 147 135 0
37.7357 89.7255 -40.0513 0.887 -0.425 -0.181 247 247 245 0
37.7790 90.0443 -40.0436 0.971 -0.226 -0.073 254 255 255 0
37.8044 90.3956 -40.0448 0.992 -0.123 0.023 253 255 255 0
-5.7473 24.5007 -56.9781 -0.117 -0.724 0.680 224 222 213 0
-9.4406 26.4955 -58.6666 0.132 -0.610 0.781 224 221 215 0
-8.9589 27.0617 -58.4762 -0.207 -0.811 0.548 224 220 214 0
-4.7373 39.9764 -57.0946 0.250 -0.530 0.810 183 178 178 0
-5.8795 40.9706 -57.6304 0.472 0.335 0.816 184 177 175 0
-6.2660 41.5031 -57.8188 0.500 0.398 0.769 181 175 168 0
-6.6392 42.0299 -58.0011 0.490 0.400 0.774 180 174 162 0
9.3199 32.8534 -50.6848 0.933 -0.053 0.357 177 166 145 0
9.8244 32.7891 -50.4617 0.889 -0.458 0.011 178 164 128 0
9.9120 32.9879 -50.4305 0.879 -0.476 0.034 184 166 112 0
12.4425 32.6242 -49.3098 0.592 -0.255 0.764 211 196 78 0
13.5228 32.6681 -48.8385 0.685 -0.442 0.579 219 207 74 0
19.8778 32.2702 -46.0427 0.956 -0.293 0.032 229 219 60 0
18.6384 33.8775 -46.6432 -0.049 -0.794 0.606 228 220 60 0
10.8229 45.2273 -50.4736 0.524 -0.140 0.840 212 197 49 0
15.4427 42.1940 -48.3421 0.619 -0.643 -0.452 206 191 47 0
11.5288 45.5268 -50.1754 0.306 -0.907 0.291 204 189 46 0
11.7539 45.6331 -50.0807 0.306 -0.907 0.291 202 187 45 0
15.0624 59.1302 -49.1198 0.823 -0.555 -0.122 25 107 53 0
15.2656 59.2477 -49.0351 0.770 -0.633 -0.080 27 107 54 0
14.1624 60.6355 -49.5680 0.754 -0.510 -0.413 29 107 55 0
13.2985 61.7983 -49.9881 0.886 -0.270 -0.378 30 108 56 0
13.3886 62.0332 -49.9571 0.867 -0.386 -0.315 31 110 55 0
15.4904 63.8261 -49.1019 0.887 -0.375 -0.270 44 110 72 0
15.7549 63.8811 -48.9881 0.884 -0.378 -0.276 42 110 73 0
15.8501 64.1097 -48.9547 0.881 -0.387 -0.271 43 109 73 0
17.2902 82.1094 -48.9740 0.805 0.584 0.107 190 183 173 0
21.8182 87.6359 -47.1916 0.746 -0.554 0.370 181 172 166 0
22.0842 87.6563 -47.0760 0.679 -0.622 0.389 180 171 168 0
37.4754 67.4621 -39.6105 0.920 0.392 -0.018 179 170 165 0
35.1000 71.8254 -40.8077 0.918 0.333 0.216 178 169 164 0
44.4788 62.5850 -36.3692 0.830 -0.524 0.189 174 165 156 0
43.0868 71.4244 -37.2975 0.998 -0.012 -0.054 166 157 149 0
42.0144 73.8288 -37.8537 0.969 -0.247 -0.025 165 156 147 0
36.3137 84.5590 -40.7361 0.283 -0.784 0.552 164 154 143 0
27.6309 101.3887 -45.1439 0.523 -0.852 0.014 166 153 145 0
35.9823 89.7420 -41.0682 0.709 0.214 0.672 166 153 142 0
36.5488 89.5588 -40.8136 0.527 -0.838 0.143 165 153 141 0
37.1962 89.6211 -40.5325 0.287 -0.908 -0.306 163 150 138 0
37.7842 89.7771 -40.2808 0.872 -0.468 -0.141 247 247 245 0
37.8967 89.9742 -40.2386 0.872 -0.468 -0.141 254 255 255 0
38.0093 90.1713 -40.1965 0.872 -0.468 -0.141 253 255 255 0
-16.2015 -5.2345 -60.7250 0.887 0.274 -0.372 228 218 210 0
-0.8621 -3.7048 -54.0400 0.969 0.112 0.219 232 222 218 0
-12.2794 4.2680 -59.3545 -0.142 -0.989 0.049 232 225 218 0
16.1886 15.6984 -47.2672 0.747 -0.353 -0.564 223 216 216 0
16.2333 16.3020 -47.2701 0.540 -0.409 -0.736 223 218 216 0
-3.2953 39.1438 -56.7025 0.457 0.105 0.884 187 183 182 0
9.4432 32.8247 -50.8688 0.702 -0.517 0.490 191 178 151 0
9.5911 32.9861 -50.8097 0.953 -0.292 0.078 191 177 132 0
9.7946 33.3675 -50.7345 0.997 -0.044 -0.056 202 185 104 0
13.8635 32.7423 -48.9229 0.376 -0.675 0.635 222 213 70 0
19.9576 31.7831 -46.2088 0.580 -0.801 0.152 232 220 61 0
20.0668 32.4282 -46.1847 0.981 -0.191 -0.014 229 222 62 0
10.2038 45.4840 -51.0051 0.284 -0.166 0.944 213 200 46 0
10.7857 45.3183 -50.7432 0.367 -0.114 0.923 213 198 48 0
10.7968 45.5934 -50.7486 0.346 -0.115 0.931 210 196 48 0
12.0252 45.2007 -50.1941 0.200 -0.930 0.309 205 190 46 0
11.7775 45.6774 -50.3207 0.147 -0.898 0.414 204 189 46 0
16.2082 58.1018 -48.8352 0.513 -0.817 -0.263 28 107 57 0
15.2630 59.3296 -49.2963 0.729 -0.679 -0.083 28 107 57 0
14.1917 60.6877 -49.8177 0.957 -0.158 -0.243 29 107 58 0
15.1424 80.3596 -50.1312 0.873 -0.006 -0.487 176 178 174 0
15.0380 80.8596 -50.1957 0.903 0.060 -0.425 179 180 174 0
19.2419 77.2140 -48.2125 0.462 -0.670 0.581 183 183 172 0
21.4600 87.8628 -47.6335 0.826 0.101 0.555 181 172 165 0
28.4359 100.1858 -45.0256 0.523 -0.821 0.230 164 152 145 0
36.3709 89.6058 -41.1447 0.935 0.354 0.028 165 151 139 0
36.6715 89.4828 -41.0080 0.503 -0.808 0.307 163 151 137 0
36.8025 89.6509 -40.9567 0.571 -0.814 0.110 163 151 136 0
37.2228 89.7109 -40.7741 0.287 -0.908 -0.306 161 149 135 0
37.7478 89.9781 -40.5533 0.900 -0.393 -0.189 247 247 244 0
37.7307 90.4045 -40.5767 0.998 -0.061 0.029 254 255 255 0
37.8739 90.5488 -40.5191 0.994 -0.091 -0.067 254 255 255 0
-16.4546 24.9185 -62.2355 0.482 0.484 0.730 231 228 221 0
15.6778 15.9800 -47.7116 0.669 -0.583 -0.460 221 215 215 0
16.1323 15.9677 -47.5106 0.747 -0.353 -0.564 221 215 215 0
-6.6791 40.6941 -58.5248 0.293 -0.465 0.835 190 190 190 0
12.7998 32.7407 -49.6233 0.719 -0.358 0.596 219 209 79 0
19.8098 32.1765 -46.5078 0.813 -0.426 0.397 233 221 63 0
10.4960 45.3210 -51.1216 0.284 -0.166 0.944 215 202 46 0
11.0403 45.1834 -50.8761 0.268 -0.235 0.934 213 200 47 0
11.0747 45.4399 -50.8707 0.346 -0.115 0.931 212 198 49 0
11.3294 45.5248 -50.7615 0.278 -0.268 0.922 210 196 48 0
13.5025 44.1053 -49.7481 0.598 -0.760 0.254 208 194 47 0
15.1833 43.0606 -48.9663 0.452 -0.867 0.211 206 192 46 0
15.1085 43.3930 -49.0121 0.339 -0.916 0.217 204 189 44 0
25.4963 47.5386 -44.5860 0.699 0.099 0.708 27 105 57 0
15.3633 59.3118 -49.5088 0.767 -0.634 -0.093 29 107 59 0
14.1347 60.8242 -50.1089 0.943 -0.184 -0.278 29 107 59 0
31.4143 45.0226 -41.8778 0.906 -0.397 -0.143 27 112 62 0
15.0993 79.7729 -50.4084 0.835 -0.021 -0.550 177 180 173 0
22.3583 85.9623 -47.4415 0.500 0.346 0.794 182 173 164 0
21.6456 87.3350 -47.8086 0.826 -0.254 0.503 181 173 163 0
31.7970 75.7107 -42.8834 0.954 -0.157 0.255 180 169 166 0
27.1550 90.7731 -45.5085 0.759 0.526 0.383 170 163 153 0
42.0388 74.3595 -38.3114 0.875 0.079 0.478 164 155 145 0
37.7549 90.1029 -40.8046 0.908 -0.374 -0.188 247 247 243 0
37.7601 90.4907 -40.8172 0.994 -0.085 0.062 254 255 254 0
37.6979 90.9992 -40.8641 0.995 -0.102 0.002 254 254 254 0
-17.4344 26.4780 -63.0095 0.369 -0.514 0.775 228 223 217 0
-6.7678 38.1883 -58.7431 0.916 -0.295 -0.274 198 193 199 0
-5.6492 37.8162 -58.2327 0.906 -0.226 -0.359 198 193 197 0
-6.0320 40.0626 -58.4908 0.123 -0.940 0.318 194 192 194 0
10.4864 32.0110 -50.8531 0.801 -0.460 0.383 198 190 156 0
12.9533 32.6898 -49.7865 0.703 -0.367 0.609 222 212 78 0
13.2535 32.7436 -49.6556 0.994 -0.104 0.026 223 214 75 0
18.9910 31.8307 -47.0768 0.541 -0.708 0.453 230 224 63 0
19.1912 31.9335 -46.9922 0.603 -0.252 0.757 230 224 63 0
16.3970 37.1626 -48.4363 0.802 -0.513 0.306 226 221 58 0
13.4974 42.5169 -49.9322 0.967 0.036 -0.254 217 207 50 0
14.0474 42.3677 -49.6826 0.956 -0.077 -0.282 217 205 50 0
15.2675 43.0550 -49.1689 0.452 -0.867 0.211 208 193 46 0
15.4607 43.1756 -49.0880 0.452 -0.867 0.211 206 191 46 0
15.5874 43.3484 -49.0386 0.450 -0.865 0.222 202 187 42 0
25.6598 47.4519 -44.7362 0.687 0.083 0.721 27 104 56 0
25.6353 47.7489 -44.7587 0.675 0.061 0.735 27 104 57 0
18.3665 55.5630 -48.2878 0.863 0.348 -0.366 27 105 58 0
16.3694 59.3514 -49.3220 0.717 -0.518 -0.466 26 112 63 0
31.4142 44.8283 -42.0827 0.840 -0.430 0.331 25 113 64 0
13.4885 65.8019 -50.8527 0.729 0.288 -0.621 44 109 74 0
12.6338 67.0133 -51.2791 0.736 0.315 -0.600 47 109 76 0
11.0693 72.8129 -52.2008 0.869 0.492 0.056 68 120 98 0
14.5402 81.6778 -51.0115 0.878 0.139 -0.458 178 181 173 0
22.0010 86.9631 -47.9130 0.801 -0.277 0.531 181 172 163 0
21.6143 89.0733 -48.1675 -0.017 -0.996 0.082 181 170 168 0
22.3628 89.6018 -47.8565 0.854 -0.055 0.518 178 169 164 0
26.1048 88.9122 -46.1710 0.560 -0.748 -0.356 175 166 158 0
27.8010 101.5452 -45.9165 0.274 -0.903 0.330 161 149 141 0
31.1569 96.7391 -44.2400 0.595 -0.758 -0.266 162 149 141 0
37.7639 90.2246 -41.0554 0.920 -0.350 -0.175 247 246 243 0
37.7881 90.5795 -41.0587 0.997 -0.078 0.002 254 255 255 0
-15.3924 -5.9571 -61.0708 0.908 0.330 -0.259 229 218 214 0
-18.2978 -5.2315 -62.3931 0.928 0.350 -0.125 230 219 214 0
-8.5161 36.9510 -59.7465 -0.087 -0.198 0.976 202 202 204 0
-10.8940 38.5937 -60.8712 0.056 -0.041 0.998 201 201 203 0
-9.3732 39.1850 -60.2183 -0.009 -0.034 0.999 200 198 203 0
-7.2844 38.2560 -59.2511 0.564 -0.655 -0.503 198 196 201 0
-6.0159 37.7991 -58.6681 0.917 -0.328 -0.227 197 194 200 0
-5.5937 37.8360 -58.4817 0.913 -0.232 -0.335 199 194 200 0
10.7186 31.6618 -50.9726 0.858 -0.325 0.397 199 192 169 0
10.8067 31.8577 -50.9413 0.843 -0.357 0.402 200 191 154 0
10.8813 32.0622 -50.9164 0.843 -0.357 0.402 203 191 140 0
10.8696 32.3217 -50.9320 0.773 -0.314 0.552 210 196 127 0
11.0509 32.4587 -50.8569 0.722 -0.352 0.596 213 200 109 0
18.8158 31.7592 -47.3730 0.603 -0.555 0.573 230 225 63 0
18.8100 32.0051 -47.3856 0.631 -0.524 0.572 231 226 64 0
19.1044 32.0433 -47.2561 0.690 -0.452 0.566 231 226 64 0
19.6088 32.4174 -47.0468 0.641 -0.664 0.384 235 225 65 0
19.8453 32.4931 -46.9446 0.539 -0.404 0.739 233 226 65 0
16.1957 37.1066 -48.7554 0.797 -0.599 -0.084 228 222 65 0
14.0427 41.0747 -49.8741 0.436 0.579 0.689 223 214 57 0
14.1211 42.3708 -49.8916 0.781 -0.337 -0.526 217 206 51 0
14.5203 42.3353 -49.7125 0.728 -0.368 -0.578 217 205 47 0
15.4063 43.0063 -49.3453 0.434 -0.878 0.201 208 193 48 0
15.6258 43.1059 -49.2517 0.466 -0.864 0.190 206 191 48 0
15.2917 43.6444 -49.4221 0.481 -0.828 0.288 204 189 46 0
8.1020 60.5400 -53.3053 0.567 -0.288 -0.772 21 104 52 0
25.8392 47.3499 -44.8782 0.646 0.041 0.762 27 103 56 0
25.8042 47.6567 -44.9062 0.675 0.061 0.735 28 105 58 0
18.7494 56.4807 -48.4027 0.352 -0.899 0.262 27 111 62 0
16.1838 59.6140 -49.6712 0.672 -0.570 -0.473 27 115 67 0
31.4995 45.3340 -42.2777 0.637 -0.681 -0.361 34 118 70 0
23.4475 72.7025 -46.9682 0.492 -0.271 0.827 184 181 169 0
23.9225 83.6594 -47.2001 0.912 0.383 -0.149 181 171 164 0
20.8773 88.6416 -48.7568 0.882 -0.421 0.212 181 171 164 0
20.5180 89.5375 -48.9529 0.788 -0.556 0.266 180 171 164 0
21.5607 89.2716 -48.4781 -0.047 -0.994 0.101 180 169 167 0
21.8680 89.2357 -48.3399 -0.012 -0.997 0.074 180 169 167 0
34.7996 74.7369 -41.9985 0.149 -0.865 0.479 176 167 157 0
35.0831 74.6671 -41.8695 0.338 -0.850 0.404 176 166 156 0
37.8383 90.2313 -41.2730 0.921 -0.341 -0.190 247 247 245 0
37.7848 90.7239 -41.3168 0.998 -0.060 0.029 254 255 255 0
-15.2115 -5.9729 -61.2325 0.917 0.318 -0.241 227 216 211 0
-15.6778 25.5154 -62.7492 0.459 -0.190 0.868 228 224 219 0
-5.0424 26.1686 -58.0238 -0.165 -0.964 0.211 223 218 217 0
-12.2231 34.4425 -61.5763 0.101 0.029 0.994 217 212 213 0
-7.8041 38.6133 -59.7749 0.518 -0.668 -0.534 197 195 200 0
-6.6864 38.2461 -59.2602 0.908 -0.296 -0.295 197 195 201 0
-5.5837 37.8827 -58.7524 0.875 -0.187 -0.447 198 194 202 0
-1.0847 36.3248 -56.6772 -0.131 -0.837 0.531 197 193 198 0
12.2868 32.2183 -50.5313 0.880 -0.111 0.463 217 206 89 0
12.8724 32.5907 -50.2851 0.599 -0.145 0.788 223 214 75 0
14.9178 32.2415 -49.3566 0.770 -0.560 -0.305 227 220 69 0
13.1538 34.1717 -50.2250 0.662 0.236 0.711 230 223 69 0
6.9957 39.6734 -53.2054 0.976 0.044 -0.213 231 225 65 0
19.0807 32.1094 -47.4908 0.820 -0.390 0.420 233 228 66 0
16.3896 37.0197 -48.8974 0.576 -0.620 0.533 229 224 70 0
15.8959 39.9977 -49.2418 0.516 0.627 0.584 223 213 57 0
16.6325 47.3421 -49.2177 0.521 0.692 0.500 38 95 49 0
7.3057 62.3338 -54.0084 0.502 -0.308 -0.808 23 104 56 0
18.7389 56.5681 -48.6598 0.342 -0.902 0.262 27 114 65 0
15.0503 63.3933 -50.5917 0.958 0.196 -0.210 45 109 74 0
15.4642 63.2991 -50.4028 0.975 0.147 -0.168 47 110 76 0
14.4713 64.6388 -50.9022 0.766 0.552 0.330 47 110 77 0
17.9622 78.8396 -49.9322 0.502 -0.827 -0.251 179 181 169 0
20.9484 89.4585 -49.0390 0.718 0.139 -0.682 179 168 162 0
23.6775 88.3679 -47.7741 -0.185 -0.959 0.214 178 170 162 0
31.0826 78.1253 -44.0395 0.812 0.018 0.584 177 169 161 0
31.3210 78.4995 -43.9485 0.928 0.372 0.005 174 166 157 0
33.0167 81.0741 -43.2977 0.408 -0.711 -0.573 169 160 154 0
33.4360 93.9762 -43.6464 0.572 -0.006 -0.820 163 151 138 0
34.7405 92.9618 -43.0214 0.450 -0.531 -0.718 161 147 136 0
36.8612 90.0941 -41.9545 0.583 -0.681 -0.444 161 145 134 0
37.8372 90.3714 -41.5299 0.921 -0.341 -0.190 247 246 245 0
37.8350 91.1739 -41.5643 0.995 -0.097 -0.014 254 255 255 0
-15.0651 -7.2215 -61.3568 0.941 0.239 -0.241 255 255 255 0
-12.4782 -1.8769 -60.4239 0.995 -0.084 -0.058 233 224 219 0
-15.4162 25.4413 -62.9072 0.543 -0.184 0.819 228 223 219 0
-11.4738 34.0955 -61.5072 0.119 0.055 0.991 217 213 214 0
-7.7382 38.6278 -60.0243 0.791 -0.587 -0.172 199 197 202 0
-7.3415 38.6848 -59.8487 0.905 -0.407 -0.122 198 196 202 0
-6.8863 38.7058 -59.6454 0.892 -0.378 -0.248 195 193 202 0
10.4763 30.1592 -51.4902 0.454 0.236 0.859 194 192 194 0
10.2083 30.5718 -51.6281 0.379 0.190 0.906 194 192 193 0
12.2975 32.0098 -50.7520 0.983 0.150 0.101 217 205 92 0
12.6614 32.0258 -50.5894 0.744 -0.488 0.456 219 209 87 0
14.9085 32.0495 -49.5821 0.841 -0.535 -0.079 229 220 70 0
6.9584 39.7549 -53.4780 0.977 0.038 -0.208 233 227 67 0
18.9715 31.9924 -47.7565 0.788 -0.262 0.557 234 229 67 0
19.3544 31.9689 -47.5837 0.804 -0.245 0.542 234 229 67 0
19.0743 32.8936 -47.7489 0.709 -0.196 0.677 235 229 69 0
19.9415 32.5256 -47.3441 0.742 -0.325 0.587 233 229 68 0
16.0006 36.8421 -49.2964 0.103 -0.697 0.710 231 227 68 0
14.5225 42.4534 -50.1990 0.908 -0.155 -0.389 217 207 52 0
14.5286 63.6789 -51.1013 0.927 0.133 -0.351 46 110 76 0
12.6376 73.8934 -52.3854 0.848 0.509 0.144 165 182 175 0
25.9344 70.1656 -46.2601 0.590 -0.541 -0.599 184 180 171 0
20.8631 83.4724 -49.1031 0.808 0.576 0.119 184 177 167 0
22.0353 86.8864 -48.7227 0.848 0.333 -0.413 182 170 164 0
20.2300 90.1856 -49.6734 0.812 0.317 -0.491 179 168 164 0
31.4781 77.6692 -44.0926 0.945 0.310 -0.099 176 168 159 0
35.0178 74.6367 -42.3750 0.218 -0.789 0.574 174 164 153 0
33.6568 81.3195 -43.2707 0.907 -0.403 0.125 172 159 156 0
43.1685 70.2957 -38.5326 0.528 -0.214 -0.822 165 156 147 0
42.3789 72.2240 -38.9692 0.640 -0.546 0.541 166 156 148 0
32.4431 95.8141 -44.4334 0.577 0.015 -0.817 159 148 134 0
37.8327 90.5178 -41.7892 0.909 -0.359 -0.212 247 246 244 0
-19.2401 3.0135 -63.9273 0.438 -0.894 -0.093 228 224 215 0
-10.7409 33.7567 -61.4427 0.296 -0.242 0.924 214 212 213 0
-8.1049 38.8963 -60.4798 0.531 -0.843 0.090 199 198 203 0
10.1383 31.4141 -51.9331 0.292 0.223 0.930 198 194 184 0
12.4937 32.1828 -50.9055 0.718 -0.567 0.404 220 211 85 0
13.0065 32.6020 -50.6928 0.738 0.016 0.675 225 218 77 0
13.5736 32.7313 -50.4430 0.906 -0.041 0.421 228 221 72 0
14.6257 32.2858 -49.9494 0.845 -0.413 0.340 229 222 70 0
17.2991 32.9535 -48.7741 0.544 -0.820 0.179 233 229 68 0
17.7602 33.1272 -48.5740 0.423 -0.832 0.358 234 231 67 0
19.3609 32.7424 -47.8360 0.799 -0.185 0.572 235 230 70 0
17.4731 36.5926 -48.8549 0.858 -0.491 0.151 231 225 73 0
11.2098 44.7977 -52.0357 0.888 -0.033 0.458 217 208 51 0
11.0429 45.2099 -52.1290 0.835 -0.094 0.542 216 207 50 0
10.8309 57.9696 -52.7826 0.219 -0.774 -0.594 21 100 52 0
8.6897 61.5460 -53.9037 -0.064 -0.487 0.871 25 104 56 0
16.9746 58.4506 -50.0356 0.824 -0.419 0.381 29 118 70 0
17.1883 58.5526 -49.9438 0.476 -0.876 0.076 32 118 71 0
15.8436 60.1909 -50.6213 0.691 -0.515 -0.507 35 117 73 0
15.8577 62.7431 -50.7266 0.867 -0.144 -0.477 48 108 78 0
15.9106 63.0139 -50.7146 0.903 0.026 -0.429 51 110 80 0
18.2022 82.4886 -50.5339 -0.160 -0.987 -0.013 184 180 173 0
30.0593 72.7554 -44.7660 0.571 -0.810 0.134 184 175 168 0
21.3748 88.3164 -49.3594 0.878 0.371 -0.302 180 169 165 0
33.8179 81.1917 -43.4415 0.500 -0.804 -0.322 169 157 151 0
42.6103 71.6291 -39.0619 0.558 -0.168 -0.812 166 155 150 0
43.2760 70.8960 -38.7299 0.585 -0.218 -0.781 166 155 150 0
37.8294 90.6624 -42.0484 0.909 -0.359 -0.212 247 247 244 0
-11.8489 29.0653 -62.0126 0.852 0.308 0.424 223 217 217 0
-6.5679 34.6402 -59.8735 0.175 -0.145 0.974 210 207 208 0
4.5364 30.7518 -54.6757 -0.084 -0.903 0.421 201 201 203 0
11.2401 30.5287 -51.6329 0.799 0.448 0.400 196 196 187 0
12.3936 32.0457 -51.1791 0.724 -0.494 0.482 220 209 92 0
13.4528 34.6331 -50.8159 0.643 0.242 0.727 233 228 65 0
18.9763 32.3314 -48.2140 0.528 -0.675 0.516 234 232 69 0
17.2420 36.8164 -49.1996 0.154 -0.729 0.667 233 227 73 0
11.7588 44.4357 -52.0218 0.823 0.075 0.564 218 209 53 0
15.2191 44.5021 -50.4594 0.768 -0.612 -0.191 198 188 42 0
22.2288 39.3836 -47.0587 0.966 -0.211 0.147 191 183 41 0
18.1023 46.8486 -49.2603 0.605 0.561 0.565 38 98 45 0
8.9234 59.4606 -53.9782 0.238 -0.563 -0.792 19 99 51 0
10.3802 58.4569 -53.2741 0.272 -0.709 -0.651 21 101 53 0
7.0391 62.1598 -54.9517 0.018 -0.599 0.801 23 102 54 0
17.0098 58.8076 -50.2907 0.648 -0.734 -0.204 35 117 71 0
15.3426 64.0057 -51.2780 0.901 0.385 -0.200 53 112 82 0
17.3124 85.6634 -51.3579 0.003 -0.390 0.921 185 181 170 0
36.0465 73.6867 -42.3457 -0.047 -0.827 0.560 173 163 153 0
33.3583 81.2788 -43.9023 0.368 -0.770 -0.521 168 160 149 0
37.5433 90.9077 -42.4408 0.985 0.158 0.069 50 50 50 0
37.8234 90.8122 -42.3098 0.906 -0.359 -0.223 247 247 244 0
37.6589 91.9087 -42.4333 0.960 -0.090 -0.266 254 255 255 0
-4.3054 18.9660 -58.3984 -0.071 -0.903 -0.424 228 223 219 0
-6.4874 34.6449 -60.1098 0.181 -0.162 0.970 211 206 209 0
4.1648 29.4741 -55.0336 -0.016 -0.253 0.967 206 203 209 0
13.0128 28.0249 -50.9479 0.862 -0.374 0.343 199 199 201 0
17.2301 36.3680 -49.4155 0.560 -0.566 0.604 235 232 77 0
17.4476 36.4644 -49.3211 0.565 -0.545 0.620 235 231 77 0
17.6198 36.5934 -49.2488 0.838 -0.532 0.121 234 231 76 0
17.7127 36.7805 -49.2152 0.810 -0.582 0.078 233 230 75 0
15.2424 41.2636 -50.5432 0.544 0.658 0.521 221 213 58 0
12.5833 43.8600 -51.8704 0.880 -0.304 0.365 217 210 54 0
15.0305 44.4383 -50.7853 0.759 -0.581 -0.295 202 192 43 0
15.1786 44.5972 -50.7253 0.783 -0.554 -0.282 198 189 42 0
22.1567 39.5003 -47.3215 0.993 -0.096 0.070 192 184 41 0
18.2262 46.8080 -49.4426 0.602 0.571 0.559 37 97 45 0
10.5593 58.3713 -53.4564 0.106 -0.782 -0.615 20 102 54 0
11.2275 59.6717 -53.2125 0.017 -0.410 0.912 28 105 58 0
18.8275 53.7745 -49.4894 0.639 -0.626 0.446 28 108 58 0
17.8369 56.2271 -50.0521 0.625 -0.688 0.370 29 116 64 0
18.0120 56.3634 -49.9788 0.707 -0.403 0.582 31 117 67 0
17.0143 58.8830 -50.5478 0.648 -0.734 -0.204 37 112 70 0
15.7317 60.4638 -51.2030 0.695 -0.397 -0.599 37 110 70 0
15.8583 60.6572 -51.1543 0.669 -0.317 -0.672 39 110 70 0
15.6595 63.1133 -51.3575 0.701 -0.215 -0.679 52 111 81 0
15.4271 63.6768 -51.4889 0.695 -0.523 -0.493 52 111 81 0
14.4748 64.9805 -51.9814 0.907 0.284 -0.310 55 114 84 0
14.5114 65.2752 -51.9783 0.913 0.283 -0.293 57 116 86 0
24.5657 68.1021 -47.5410 0.531 0.367 0.764 173 175 173 0
17.9246 84.9852 -51.3333 0.044 -0.270 0.962 185 181 170 0
23.2231 85.2123 -48.9369 0.915 0.014 -0.404 180 169 166 0
23.1783 85.6599 -48.9778 0.916 0.006 -0.402 179 168 167 0
23.5558 85.5201 -48.7999 0.899 0.180 -0.398 179 168 165 0
22.7423 87.0443 -49.2395 0.096 -0.252 0.963 179 168 164 0
35.7160 74.2844 -42.7601 0.160 -0.888 0.431 172 162 151 0
43.5561 65.1801 -38.7806 0.497 -0.817 -0.292 167 156 150 0
37.1381 90.5593 -42.8617 0.635 -0.623 -0.456 155 138 129 0
37.5377 91.0568 -42.7031 0.985 0.158 0.069 50 50 50 0
-11.2479 28.0446 -62.2433 0.575 0.271 0.772 223 217 217 0
3.0999 29.8637 -55.7850 0.955 0.082 0.284 208 205 210 0
3.4678 29.9135 -55.6196 0.435 -0.817 0.378 208 203 209 0
13.0624 28.0399 -51.1554 0.780 -0.588 0.212 200 200 201 0
7.8858 31.9316 -53.6995 0.982 -0.050 -0.183 199 198 195 0
12.7159 32.1863 -51.5085 0.889 0.308 0.338 224 215 86 0
11.5545 33.4466 -52.0975 0.993 0.070 -0.093 227 220 79 0
11.4442 33.7742 -52.1632 0.995 -0.017 -0.100 228 221 78 0
17.0121 35.5615 -49.7078 0.942 -0.309 0.134 234 234 80 0
16.9831 36.3462 -49.7579 0.611 -0.631 0.479 236 234 83 0
17.1605 36.4727 -49.6830 0.582 -0.607 0.541 236 233 83 0
17.1588 36.7299 -49.6958 0.690 -0.723 0.038 237 233 83 0
17.3795 36.8244 -49.5996 0.664 -0.748 0.017 234 232 81 0
17.7247 36.8262 -49.4423 0.838 -0.542 0.071 234 231 81 0
15.8958 40.5535 -50.4517 0.553 0.628 0.547 223 214 60 0
15.2601 41.3090 -50.7772 0.549 0.659 0.514 222 214 59 0
16.8405 43.5958 -50.1640 0.740 -0.511 -0.438 198 188 43 0
22.1853 39.7933 -47.5474 0.986 0.149 0.074 190 181 43 0
10.3523 58.6375 -53.8306 0.106 -0.782 -0.615 21 102 54 0
14.3553 56.2147 -51.8910 0.446 0.451 0.773 26 104 56 0
14.4357 56.4491 -51.8653 0.186 -0.167 0.968 27 105 57 0
15.3676 56.5050 -51.4429 0.521 -0.123 0.845 28 107 59 0
18.0213 55.8217 -50.2004 0.435 -0.762 0.480 30 118 68 0
17.8521 56.2893 -50.2996 0.568 -0.701 0.431 32 119 70 0
15.5424 62.0179 -51.6225 0.399 -0.093 0.912 45 110 75 0
15.4132 62.4715 -51.7027 0.457 -0.271 0.847 47 111 78 0
15.0532 63.8153 -51.9301 0.701 -0.539 -0.466 55 115 84 0
15.3380 63.8532 -51.8020 0.695 -0.523 -0.493 56 115 85 0
12.6702 68.6248 -53.2432 0.876 0.479 -0.060 74 124 104 0
24.5501 68.5490 -47.8213 0.552 0.343 0.760 173 175 172 0
17.6828 82.7243 -51.6202 0.684 -0.214 -0.697 184 179 173 0
23.1438 85.8271 -49.2754 0.902 -0.017 -0.432 179 169 166 0
44.0855 64.7892 -38.7346 0.698 -0.177 0.694 166 155 148 0
37.1135 90.7408 -43.1351 0.615 -0.651 -0.445 154 138 130 0
-16.5549 -5.2151 -63.3473 0.374 -0.566 -0.735 230 219 217 0
-12.5974 -5.3145 -61.5302 0.518 -0.559 -0.648 232 221 218 0
-11.3026 28.1139 -62.5463 0.791 0.463 0.401 222 216 216 0
14.3280 19.5496 -50.3968 0.380 -0.176 0.908 216 214 215 0
-6.5622 33.3896 -60.6295 0.257 -0.264 0.930 210 207 210 0
3.2262 29.8385 -55.9760 0.952 0.074 0.295 207 205 208 0
3.8811 29.7257 -55.6707 0.428 -0.870 0.245 206 203 207 0
-5.0908 36.4849 -60.1047 -0.151 -0.913 0.380 203 202 207 0
-4.7251 36.5547 -59.9406 -0.144 -0.941 0.308 201 201 206 0
13.1304 28.0438 -51.3541 0.796 -0.566 0.214 200 200 200 0
13.4924 28.7884 -51.2242 0.772 -0.635 -0.030 202 198 193 0
11.0223 36.7062 -52.7364 0.794 0.222 -0.566 234 231 70 0
17.2459 36.2092 -49.8625 0.578 -0.756 0.309 238 236 90 0
17.5820 36.4743 -49.7213 0.636 -0.535 0.556 237 234 91 0
16.1451 40.4210 -50.5693 0.538 0.671 0.511 225 215 64 0
15.5029 44.4614 -51.0579 0.842 -0.448 -0.300 202 191 47 0
16.6285 43.8291 -50.5120 0.771 -0.479 -0.421 198 187 45 0
16.7973 43.9670 -50.4413 0.774 -0.465 -0.429 195 184 43 0
22.3311 39.7331 -47.7034 1.000 0.016 -0.003 192 181 44 0
22.5317 39.8274 -47.6161 0.983 -0.159 -0.096 189 176 45 0
15.5457 56.4141 -51.6137 0.534 -0.246 0.809 24 105 56 0
18.1550 54.8613 -50.3440 0.271 -0.865 0.422 27 113 66 0
14.2199 63.1018 -52.5427 0.992 -0.064 0.109 45 110 76 0
13.2981 67.0380 -53.1543 0.938 0.271 -0.216 65 122 95 0
13.1296 67.5524 -53.2563 0.914 0.369 -0.170 70 123 100 0
12.7977 68.2390 -53.4413 0.892 0.432 -0.133 76 122 101 0
24.6170 68.5642 -48.0444 0.520 0.333 0.787 173 175 172 0
18.0034 83.1907 -51.7771 0.689 0.188 -0.700 185 178 170 0
43.9463 65.4173 -39.0412 0.755 -0.654 -0.049 163 152 147 0
44.4469 64.9633 -38.7901 0.774 -0.476 0.417 163 152 146 0
37.6095 91.6120 -43.2040 0.962 -0.202 -0.186 247 247 244 0
-17.6906 -4.7788 -64.1391 0.284 -0.445 0.849 230 219 217 0
-12.4491 28.7049 -63.3777 0.848 -0.502 0.169 222 216 216 0
-12.3241 28.9203 -63.3308 0.797 0.135 0.589 222 216 216 0
-11.1119 28.6113 -62.7583 0.688 0.119 0.716 220 216 215 0
-3.1946 31.3311 -59.2519 0.066 -0.549 0.833 211 210 211 0
-6.0416 33.4310 -60.6643 0.315 -0.194 0.929 209 207 211 0
-5.6579 33.4972 -60.4911 0.163 -0.308 0.937 209 207 210 0
3.1982 29.9002 -56.2420 0.985 -0.145 0.094 207 205 207 0
3.9172 29.7511 -55.9041 0.428 -0.864 0.266 206 204 207 0
-4.8848 35.8528 -60.2516 -0.226 -0.909 0.350 204 203 207 0
-4.8341 36.1051 -60.2407 -0.183 -0.935 0.303 204 203 207 0
-4.5489 36.2214 -60.1153 -0.157 -0.904 0.397 203 202 207 0
-4.3091 36.3634 -60.0121 -0.132 -0.919 0.372 202 201 206 0
-3.5188 36.1819 -59.6398 -0.180 -0.907 0.380 202 201 206 0
13.5572 28.7943 -51.4246 0.789 -0.612 -0.041 202 199 192 0
10.6931 36.9850 -53.1447 0.793 0.200 -0.575 235 233 70 0
19.8728 37.8794 -48.9680 0.864 -0.489 -0.116 224 215 62 0
19.9444 38.0808 -48.9450 0.867 -0.492 -0.078 223 214 60 0
19.9260 38.3521 -48.9668 0.861 -0.509 0.002 220 211 57 0
21.8895 37.8406 -48.0388 0.001 -0.887 -0.461 211 205 48 0
15.2208 59.9355 -52.1930 0.831 0.176 -0.528 40 110 74 0
14.4008 62.6782 -52.7051 0.968 0.002 0.252 46 110 76 0
14.4300 62.9756 -52.7063 0.986 -0.108 0.130 47 111 80 0
13.6023 64.1354 -53.1440 0.957 0.200 -0.213 49 112 82 0
13.8687 65.1948 -53.0737 0.931 0.084 -0.356 58 118 87 0
13.1574 67.2727 -53.5030 0.940 0.306 -0.151 72 124 99 0
12.9485 67.8301 -53.6265 0.914 0.369 -0.170 76 124 102 0
12.5533 68.5842 -53.8453 0.901 0.404 -0.156 94 136 117 0
17.5118 84.3171 -52.3401 0.626 0.058 -0.778 185 178 170 0
35.5538 66.8163 -43.1828 0.064 -0.989 -0.132 179 169 163 0
36.6117 66.0092 -42.6566 0.054 -0.991 -0.122 179 169 163 0
43.9755 65.4750 -39.2445 0.746 -0.664 -0.052 163 152 148 0
-17.8110 -4.7397 -64.4476 0.343 -0.412 0.844 229 219 216 0
5.1817 0.3907 -54.0913 0.760 0.249 0.600 228 225 218 0
-12.1201 28.8663 -63.5122 0.792 0.125 0.598 223 218 218 0
-2.1560 30.5470 -58.9968 0.152 -0.542 0.827 212 210 211 0
-6.8588 33.6486 -61.3240 0.155 -0.138 0.978 211 208 211 0
3.4341 29.0442 -56.3405 0.981 -0.119 0.156 209 207 210 0
3.4240 30.0764 -56.3971 0.885 -0.463 -0.046 206 204 207 0
-5.5006 36.2589 -60.8284 -0.116 -0.888 0.446 206 204 209 0
-5.4168 36.4938 -60.8016 -0.150 -0.919 0.364 204 203 208 0
-4.8116 36.4256 -60.5187 -0.106 -0.939 0.328 203 202 207 0
-4.2804 36.3982 -60.2721 0.011 -0.885 0.465 203 202 207 0
-3.0413 35.9530 -59.6777 -0.026 -0.795 0.606 203 202 206 0
-1.9280 35.5763 -59.1447 0.748 0.035 0.663 202 201 204 0
19.1631 24.7072 -48.8609 0.929 -0.184 0.321 199 199 200 0
11.5991 33.5684 -52.7989 0.829 0.099 0.550 229 224 81 0
17.9273 35.5678 -49.9781 0.624 -0.770 0.132 243 243 105 0
19.9749 38.1136 -49.1610 0.819 -0.540 -0.195 223 214 60 0
20.0146 38.3400 -49.1541 0.862 -0.507 -0.012 221 212 56 0
20.6991 40.3943 -48.9415 0.715 0.369 0.594 201 191 45 0
22.7551 40.0205 -47.9735 0.960 -0.265 0.093 186 174 45 0
17.9151 54.9380 -50.9589 0.231 -0.971 0.058 30 117 69 0
16.6751 58.2819 -51.6997 0.920 0.217 -0.327 40 112 75 0
14.2926 62.2178 -52.9977 0.958 0.255 -0.132 48 109 78 0
14.4969 62.3403 -52.9096 0.949 -0.002 0.315 48 111 78 0
14.4858 62.6772 -52.9316 0.970 -0.000 0.243 49 113 79 0
13.9855 63.5057 -53.2043 0.957 0.253 -0.141 50 114 83 0
13.1974 64.6284 -53.6246 0.960 0.212 -0.183 52 116 85 0
12.3934 65.7737 -54.0535 0.951 0.191 -0.243 54 116 87 0
12.7377 68.1392 -54.0136 0.919 0.354 -0.171 114 155 137 0
12.3178 68.9207 -54.2468 0.910 0.391 -0.140 142 179 164 0
37.9254 53.5956 -41.6535 0.871 0.378 0.314 178 179 172 0
36.6516 65.7331 -42.8526 -0.039 -0.999 -0.011 179 168 163 0
47.0550 60.5500 -37.7889 0.687 0.153 -0.711 164 153 147 0
50.2428 67.4155 -36.6629 0.584 -0.075 -0.808 149 135 125 0
-9.0339 20.6480 -61.9370 0.056 -0.949 -0.309 229 226 217 0
3.2488 29.1926 -56.6834 0.991 -0.124 0.049 210 208 211 0
-5.7903 36.1936 -61.2333 -0.118 -0.889 0.441 205 204 210 0
-5.2023 36.1381 -60.9579 -0.047 -0.912 0.408 205 204 210 0
-5.1535 36.3928 -60.9483 -0.150 -0.919 0.364 206 203 209 0
-4.5984 36.3530 -60.6890 -0.147 -0.927 0.346 205 203 208 0
-4.1095 36.3498 -60.4622 0.032 -0.861 0.508 203 201 206 0
-3.3058 36.1597 -60.0799 0.476 -0.685 0.552 203 201 205 0
15.8057 31.3553 -50.9745 0.891 -0.210 -0.403 232 228 83 0
20.0947 38.0774 -49.3323 0.881 -0.464 -0.094 220 214 55 0
14.6139 43.1406 -52.1331 0.021 -0.973 -0.231 215 209 49 0
11.3203 46.2914 -53.8218 0.296 -0.951 -0.087 213 207 48 0
20.3506 40.4721 -49.3369 0.657 -0.108 0.746 203 193 47 0
22.7748 40.3225 -48.2056 0.968 -0.194 0.162 183 171 48 0
22.8193 40.5455 -48.1964 0.967 -0.180 0.180 179 167 48 0
16.8377 55.1212 -51.7188 0.665 0.377 0.645 25 114 63 0
18.3276 54.6216 -51.0025 0.276 -0.875 0.398 32 117 71 0
18.5333 54.7271 -50.9126 0.276 -0.875 0.398 34 116 72 0
13.6732 62.2620 -53.5529 0.829 0.559 -0.005 47 107 79 0
13.7865 62.8037 -53.5283 0.865 0.499 0.055 49 110 79 0
13.7535 63.8235 -53.5960 0.406 -0.417 0.813 51 116 85 0
11.7352 69.9688 -54.8477 0.894 0.289 -0.343 160 187 181 0
38.1746 53.0931 -41.7246 0.905 0.233 0.357 176 175 172 0
38.3017 53.2191 -41.6722 0.846 0.322 0.424 176 176 172 0
21.6990 79.5305 -50.7213 0.748 -0.374 0.549 184 177 169 0
38.5305 78.2693 -42.8549 0.485 -0.033 -0.874 158 145 136 0
-10.1418 29.0912 -63.1598 0.833 0.061 0.550 218 217 215 0
-9.9326 29.2617 -63.0714 0.920 0.134 0.369 219 218 216 0
2.7782 29.5001 -57.1687 0.958 -0.017 0.287 210 208 212 0
2.5805 29.8686 -57.2801 0.585 0.135 0.800 209 208 210 0
2.5071 30.1689 -57.3300 0.595 0.131 0.793 207 206 209 0
-4.0737 34.7003 -60.6306 0.175 0.082 0.981 206 205 210 0
-5.0155 36.0814 -61.1415 -0.116 -0.886 0.449 204 203 208 0
-4.6011 36.1238 -60.9509 -0.116 -0.886 0.449 205 203 209 0
-2.7367 35.8765 -60.0702 0.175 -0.712 0.680 203 201 204 0
19.9629 38.2360 -49.6306 0.857 -0.434 -0.276 221 215 56 0
14.2009 43.8028 -52.6046 0.455 -0.782 -0.426 213 209 51 0
20.6055 40.3261 -49.4414 0.855 0.165 0.492 203 194 48 0
12.1112 56.1628 -54.2266 0.700 -0.339 0.628 23 102 54 0
12.6338 56.0014 -53.9750 0.768 -0.560 0.311 24 103 55 0
17.5721 55.4152 -51.6460 0.797 0.359 0.485 35 117 71 0
16.5778 57.2877 -52.2071 0.740 0.136 -0.658 38 111 73 0
19.3614 68.9955 -51.5270 0.837 0.535 -0.118 169 179 178 0
37.4178 54.3758 -42.3558 0.936 0.290 0.197 176 175 173 0
41.1954 70.0608 -41.4221 0.682 0.097 -0.724 159 148 139 0
37.3717 82.0893 -43.8337 0.528 0.009 -0.849 154 142 130 0
-16.5147 -5.3509 -64.5645 0.910 -0.414 0.017 227 220 212 0
-3.6189 3.5277 -59.0156 0.174 -0.976 0.131 228 224 215 0
-10.3102 17.9672 -62.9168 0.904 0.076 0.421 233 226 220 0
-4.7009 18.6509 -60.3326 0.384 -0.886 -0.262 227 224 218 0
-5.8891 27.0472 -61.3384 0.980 0.125 0.155 218 217 215 0
4.5544 26.5469 -56.4320 0.658 -0.459 0.597 214 214 211 0
6.2418 26.3763 -55.6345 0.809 -0.161 0.565 211 211 210 0
6.6229 26.4142 -55.4584 0.871 0.221 0.439 209 208 210 0
6.8838 26.5168 -55.3420 0.372 -0.231 0.899 208 206 209 0
-4.0335 36.1268 -60.9586 -0.098 -0.889 0.447 204 202 206 0
-3.2894 35.9726 -60.6026 -0.031 -0.896 0.443 203 201 204 0
