ply
format ascii 1.0
element vertex 838
property float x
property float y
property float z
property float nx
property float ny
property float nz
property uchar diffuse_red
property uchar diffuse_green
property uchar diffuse_blue
property uchar class
end_header
-10.1559 -8.6950 -36.8779 0.866 -0.390 -0.314 226 214 194 0
-10.0623 -8.5273 -36.8434 0.872 -0.364 -0.326 231 216 195 0
-8.2560 24.8875 -34.4776 0.966 -0.260 0.013 125 81 80 0
-7.5090 25.0220 -34.2703 0.593 -0.799 -0.099 121 73 73 0
-3.2674 24.6414 -33.1579 0.678 -0.617 0.400 120 62 64 0
-3.1348 24.8164 -33.1126 0.678 -0.617 0.400 109 49 52 0
-2.8432 24.9110 -33.0293 0.321 -0.903 0.287 107 47 50 0
0.9759 25.5725 -31.9711 0.741 -0.582 0.335 110 49 52 0
1.1003 25.7449 -31.9281 0.763 -0.566 0.312 113 51 54 0
1.8927 29.4255 -31.5089 0.155 -0.714 -0.683 117 45 55 0
6.3245 30.9573 -30.2378 0.704 -0.695 0.144 129 52 58 0
7.7145 32.7834 -29.7634 0.242 -0.760 0.603 114 40 47 0
7.9434 33.3775 -29.6687 0.513 -0.452 0.730 120 44 50 0
9.0398 34.1442 -29.3324 0.601 -0.698 0.390 122 41 49 0
9.1645 34.3095 -29.2897 0.736 -0.609 0.297 122 41 49 0
8.8994 38.5549 -29.1214 0.030 -0.999 0.017 94 30 34 0
10.2197 37.8690 -28.8071 0.948 0.130 0.290 91 26 31 0
9.9989 38.2841 -28.8427 0.363 -0.932 -0.005 89 24 30 0
11.3384 43.0484 -28.2162 0.578 -0.561 0.592 75 17 26 0
11.4418 43.2349 -28.1780 0.575 -0.568 0.589 75 15 27 0
7.2394 51.0956 -28.8584 0.687 -0.401 -0.606 67 24 28 0
7.7880 50.9293 -28.7212 0.538 -0.568 -0.622 66 25 29 0
7.6254 53.1172 -28.6413 0.582 -0.781 -0.229 73 43 43 0
7.2198 53.7617 -28.7134 0.557 -0.801 0.221 78 49 48 0
21.6265 64.2070 -24.2736 0.796 0.531 0.291 200 187 170 0
38.7770 75.1628 -19.0715 0.963 -0.227 -0.143 165 147 125 0
37.5465 77.4923 -19.2692 0.802 -0.509 -0.314 165 145 124 0
-11.0601 -9.4472 -37.3682 0.778 -0.544 -0.315 255 255 255 0
-10.6287 -9.3363 -37.2460 0.854 -0.410 -0.321 255 255 255 0
-10.5419 -9.1673 -37.2133 0.857 -0.404 -0.319 255 255 255 0
-10.3911 -9.0093 -37.1640 0.865 -0.382 -0.324 135 135 135 0
-10.3041 -8.8403 -37.1313 0.865 -0.382 -0.324 68 64 58 0
-10.2171 -8.6712 -37.0985 0.865 -0.382 -0.324 226 214 194 0
-10.1373 -8.5008 -37.0676 0.866 -0.390 -0.314 231 217 196 0
-6.5523 25.0872 -34.2448 0.234 -0.918 -0.321 116 65 64 0
-4.1095 24.8581 -33.6004 -0.022 -0.991 -0.135 118 62 64 0
-2.8996 24.7359 -33.2818 0.441 -0.832 0.336 106 48 49 0
-2.7198 24.8866 -33.2251 0.319 -0.905 0.283 106 46 48 0
3.3357 26.9539 -31.4820 0.817 -0.399 -0.416 113 42 53 0
1.6113 29.3829 -31.8114 0.192 -0.668 -0.719 115 43 54 0
1.9820 29.4166 -31.7098 0.178 -0.676 -0.715 118 46 56 0
2.5391 29.3415 -31.5641 0.159 -0.724 -0.671 116 46 54 0
5.2403 28.9833 -30.8575 0.655 -0.711 0.255 134 66 69 0
5.2026 29.2470 -30.8530 0.682 -0.700 0.210 137 69 73 0
6.5862 29.3868 -30.4731 0.822 -0.554 0.129 125 54 60 0
5.6329 30.9363 -30.6438 0.262 -0.798 0.544 134 58 63 0
8.7001 33.6720 -29.6674 0.577 -0.681 0.451 128 50 58 0
8.9038 33.7853 -29.6064 0.637 -0.672 0.378 130 50 59 0
8.9760 33.9856 -29.5759 0.613 -0.671 0.417 131 51 60 0
9.0537 34.1824 -29.5441 0.607 -0.680 0.411 126 45 54 0
9.7631 33.9558 -29.3658 0.688 -0.658 0.307 125 44 53 0
9.9562 34.3214 -29.2937 -0.040 -0.835 0.548 126 44 53 0
9.0155 38.0071 -29.3427 0.847 -0.060 -0.528 103 36 43 0
11.6936 43.8987 -28.2964 0.486 -0.678 0.551 73 19 26 0
9.1541 47.5848 -28.7754 0.573 0.511 0.641 68 17 21 0
7.5247 50.9224 -29.0290 0.631 -0.511 -0.584 64 23 25 0
7.9730 52.5913 -28.8161 0.775 -0.614 -0.149 71 43 42 0
7.5006 53.5874 -28.8880 0.285 -0.870 0.403 77 49 48 0
41.3410 65.1089 -19.1488 0.812 0.063 -0.581 176 160 135 0
37.5408 77.6128 -19.4789 0.802 -0.509 -0.314 166 145 124 0
-10.6919 -9.3129 -37.4677 0.838 -0.439 -0.323 255 255 255 0
-10.6060 -9.1435 -37.4353 0.841 -0.432 -0.326 255 255 255 0
-10.4573 -8.9850 -37.3864 0.865 -0.382 -0.324 135 135 135 0
-10.3702 -8.8158 -37.3537 0.865 -0.382 -0.324 68 65 59 0
-10.2960 -8.6442 -37.3243 0.871 -0.373 -0.319 227 215 196 0
-10.2069 -8.4752 -37.2910 0.866 -0.390 -0.314 231 217 197 0
-7.3934 24.5474 -34.7358 0.628 -0.695 0.351 126 82 81 0
-4.0847 24.8836 -33.8222 -0.017 -0.990 -0.137 111 55 58 0
0.5873 25.3783 -32.5311 0.495 -0.759 0.423 113 52 55 0
3.1869 27.7980 -31.6962 0.482 0.113 0.869 116 41 51 0
2.1882 28.8503 -31.9093 0.836 0.382 0.395 114 41 52 0
2.3272 29.0156 -31.8627 0.976 0.214 -0.032 116 43 54 0
1.9909 29.4538 -31.9299 0.976 0.176 -0.128 118 46 56 0
2.3575 29.4887 -31.8288 0.175 -0.792 -0.584 117 47 55 0
3.6704 28.9739 -31.5015 0.043 -0.852 -0.522 122 52 60 0
5.1189 29.3391 -31.0897 0.702 -0.675 0.227 141 75 79 0
5.0672 31.0799 -31.0092 0.117 -0.983 -0.141 133 60 65 0
7.7705 32.5925 -30.1955 0.335 -0.895 0.295 120 51 59 0
8.0371 32.6675 -30.1193 0.413 -0.755 0.509 121 50 60 0
8.2525 32.7749 -30.0552 0.428 -0.775 0.465 123 51 62 0
9.6473 34.3292 -29.5933 0.540 -0.734 -0.412 133 52 60 0
10.5219 34.2337 -29.3618 0.661 -0.744 0.096 125 46 52 0
8.9376 37.8555 -29.5938 0.686 -0.213 -0.696 105 35 43 0
12.0300 42.6208 -28.4981 0.752 -0.625 -0.210 72 15 22 0
9.8245 55.4915 -28.3957 0.899 -0.104 0.425 216 203 187 0
7.5165 59.1190 -28.8232 0.455 -0.319 0.832 214 205 188 0
23.5525 47.5650 -25.1116 0.758 0.299 0.580 217 206 189 0
22.8205 48.8069 -25.2423 0.952 -0.096 0.292 215 203 187 0
18.5784 75.6001 -24.9346 0.822 -0.469 0.324 192 179 160 0
40.6511 67.1900 -19.4188 0.927 0.238 -0.292 173 157 132 0
28.7705 86.1394 -21.6042 0.891 0.098 -0.444 175 157 134 0
37.5351 77.7336 -19.6892 0.802 -0.509 -0.314 166 146 124 0
-10.7831 -9.2847 -37.6972 0.835 -0.436 -0.337 255 255 255 0
-10.6800 -9.1180 -37.6603 0.841 -0.432 -0.326 255 255 255 0
-10.5300 -8.9595 -37.6110 0.865 -0.382 -0.324 135 135 136 0
-10.4429 -8.7900 -37.5783 0.865 -0.382 -0.324 68 65 60 0
-10.3723 -8.6176 -37.5498 0.864 -0.383 -0.328 227 217 198 0
-10.2846 -8.4482 -37.5169 0.864 -0.383 -0.328 232 218 198 0
-9.6282 -8.1967 -37.3248 0.504 -0.843 0.186 231 219 198 0
-12.3051 22.4011 -36.4224 0.956 0.030 -0.291 235 227 208 0
-11.7906 23.1654 -36.2416 0.804 -0.301 0.513 233 222 204 0
-6.3241 25.0511 -34.6530 -0.035 -0.941 0.337 114 64 65 0
-4.0704 24.9144 -34.0467 -0.017 -0.990 -0.137 109 52 58 0
-3.5337 24.8886 -33.9020 -0.017 -0.991 -0.133 105 49 53 0
-1.2504 24.9362 -33.2779 0.468 -0.875 0.125 106 44 50 0
2.0124 28.5031 -32.1995 0.416 -0.882 -0.221 115 39 51 0
3.6369 28.7923 -31.7419 0.242 -0.893 -0.380 120 49 57 0
5.1265 29.1350 -31.3181 0.721 -0.649 0.242 139 75 76 0
5.2590 29.2987 -31.2733 0.721 -0.649 0.242 141 76 80 0
7.1588 31.3061 -30.6491 0.668 -0.577 0.470 142 72 78 0
7.3491 31.4316 -30.5906 0.748 -0.389 0.538 141 72 77 0
7.4101 31.6380 -30.5630 0.750 -0.053 0.659 136 69 73 0
7.6535 31.7294 -30.4919 0.778 -0.393 0.490 135 69 73 0
7.2525 32.2292 -30.5744 0.353 -0.359 0.864 131 64 70 0
7.5348 32.5427 -30.4808 0.306 -0.910 0.281 123 57 61 0
7.9731 38.3279 -30.0531 0.879 0.144 -0.456 107 36 43 0
8.7272 38.0553 -29.8624 0.686 -0.213 -0.696 105 34 42 0
13.0739 40.8130 -28.5321 0.437 -0.811 -0.390 75 18 25 0
7.5487 53.0860 -29.3819 0.814 -0.577 -0.060 72 42 42 0
7.0105 54.4431 -29.4561 0.430 -0.824 0.370 81 55 56 0
23.2975 48.1426 -25.3582 0.972 0.163 0.172 214 205 188 0
22.3876 62.9672 -24.8156 0.278 -0.304 0.911 199 191 172 0
22.6676 62.9592 -24.7398 0.250 -0.349 0.903 197 189 170 0
20.2602 73.6232 -24.8267 0.165 0.256 0.952 193 180 160 0
28.4552 87.1233 -21.8761 0.910 -0.002 -0.414 175 155 137 0
28.2272 87.8582 -21.8990 0.903 0.007 -0.430 174 155 138 0
-10.8003 -9.2692 -37.9077 0.842 -0.427 -0.329 255 255 255 0
-10.7749 -9.0889 -37.8913 0.812 -0.455 -0.366 255 255 255 0
-10.6030 -8.9339 -37.8361 0.865 -0.382 -0.324 136 136 136 0
-10.5158 -8.7643 -37.8034 0.865 -0.382 -0.324 68 64 58 0
-10.4396 -8.5926 -37.7735 0.863 -0.385 -0.326 226 214 197 0
-10.3514 -8.4230 -37.7405 0.863 -0.385 -0.326 229 217 199 0
-6.9461 25.3947 -35.0395 0.528 -0.487 0.696 114 65 64 0
-4.7961 25.0704 -34.4676 -0.150 -0.984 -0.092 111 55 60 0
-3.5171 24.9183 -34.1253 -0.049 -0.993 -0.104 110 52 58 0
-2.0539 25.6299 -33.6874 -0.205 -0.758 0.620 102 40 46 0
2.1080 26.3154 -32.5117 0.525 -0.843 0.118 110 40 49 0
2.3337 26.9113 -32.4188 0.719 -0.311 0.622 112 37 49 0
1.7909 28.6701 -32.4755 0.502 -0.858 -0.111 114 39 51 0
2.5721 28.7151 -32.2592 0.184 0.073 0.980 114 38 50 0
6.4558 30.8087 -31.0861 0.797 -0.604 0.020 150 78 85 0
7.7265 32.7127 -30.6385 0.377 -0.908 0.181 120 54 62 0
7.8816 35.3627 -30.4574 0.722 -0.307 -0.620 140 62 68 0
8.6499 35.0978 -30.2609 0.504 -0.650 -0.569 141 63 68 0
9.6758 40.2899 -29.7084 0.800 -0.062 -0.596 84 21 28 0
9.9916 41.6402 -29.5513 -0.287 -0.954 0.085 80 18 26 0
12.9256 43.3588 -28.6579 0.852 -0.363 0.376 73 21 26 0
13.0464 43.5293 -28.6159 0.847 -0.370 0.382 72 20 24 0
13.0942 43.7585 -28.5909 0.759 -0.471 0.449 69 18 22 0
13.1716 43.9641 -28.5589 0.748 -0.495 0.443 70 17 22 0
7.4434 52.0611 -29.7042 0.631 0.454 0.630 67 30 32 0
7.2226 54.3275 -29.6462 0.718 -0.690 0.093 81 55 56 0
8.7408 57.2192 -29.0792 0.986 -0.108 0.124 214 202 186 0
23.0032 62.6595 -24.8887 0.257 -0.334 0.907 201 191 172 0
50.4036 47.0046 -18.2034 0.850 0.523 -0.062 182 168 147 0
25.0499 86.3138 -23.0913 0.854 0.517 -0.059 177 162 140 0
28.2610 87.1625 -22.1675 0.482 -0.565 -0.670 175 157 136 0
28.2503 87.5601 -22.1496 0.915 0.000 -0.404 174 156 136 0
28.3154 87.8410 -22.1171 0.920 -0.004 -0.393 174 155 137 0
-10.9043 -9.2387 -38.1416 0.846 -0.403 -0.348 255 255 255 0
-10.8736 -9.0591 -38.1239 0.839 -0.440 -0.321 255 255 255 0
-10.6894 -8.9060 -38.0654 0.851 -0.412 -0.325 135 135 136 0
-10.5944 -8.7375 -38.0305 0.851 -0.412 -0.325 70 64 58 0
-10.5187 -8.5655 -38.0009 0.861 -0.386 -0.331 224 212 196 0
-10.4325 -8.3953 -37.9684 0.864 -0.383 -0.328 228 217 199 0
-11.8668 22.2778 -36.7907 0.965 -0.127 -0.229 236 228 209 0
-11.7533 22.9717 -36.7239 0.866 -0.464 0.184 233 225 206 0
-7.5575 25.9834 -35.4135 0.914 0.063 0.401 114 62 64 0
-7.1609 26.0371 -35.3015 0.846 -0.354 0.398 114 60 64 0
-6.8688 26.1415 -35.2157 0.674 -0.479 0.563 111 56 61 0
1.8096 26.0383 -32.8300 0.756 -0.633 0.169 108 40 49 0
1.9314 26.2117 -32.7876 0.661 -0.655 0.367 110 40 49 0
1.9205 26.4573 -32.7780 0.648 -0.656 0.388 110 40 48 0
0.9214 28.2198 -32.9629 0.610 -0.329 -0.721 113 37 50 0
1.8569 28.9196 -32.6692 -0.255 -0.388 0.886 113 40 51 0
6.1918 28.8308 -31.4795 0.272 -0.640 0.719 144 79 84 0
6.4729 30.8423 -31.2989 0.813 -0.582 -0.011 155 87 92 0
7.9977 32.5841 -30.7895 0.700 -0.280 0.657 127 62 70 0
9.2582 33.4910 -30.3958 0.510 -0.509 0.693 140 68 76 0
9.3738 33.6619 -30.3551 0.510 -0.509 0.693 141 68 75 0
7.1353 35.9132 -30.8564 0.944 -0.118 -0.307 153 79 86 0
8.1963 35.4525 -30.5877 0.584 -0.559 -0.588 153 79 86 0
8.7478 37.8848 -30.3111 0.950 0.297 0.098 114 49 54 0
9.7291 37.7055 -30.0499 0.864 0.043 0.501 100 34 42 0
9.7008 40.3251 -29.9234 0.850 -0.075 -0.521 83 19 27 0
13.0468 43.3193 -28.8480 0.823 -0.481 0.304 70 17 23 0
13.2238 43.4447 -28.7928 0.848 -0.375 0.376 71 20 24 0
13.2653 43.6787 -28.7694 0.840 -0.445 0.309 70 20 23 0
13.3198 43.9025 -28.7429 0.845 -0.439 0.305 69 17 22 0
7.4783 54.1739 -29.8256 0.750 -0.659 0.058 82 56 56 0
11.8110 67.9739 -27.9243 0.319 -0.926 -0.200 210 196 183 0
18.4510 65.3435 -26.2298 0.668 -0.715 -0.206 204 191 175 0
18.6582 65.4330 -26.1681 0.859 -0.489 -0.149 203 192 174 0
18.2318 66.2295 -26.2448 0.637 -0.764 0.100 200 191 173 0
38.9773 57.5743 -20.9731 -0.219 -0.632 0.743 191 169 155 0
22.3380 85.4292 -24.1290 0.430 -0.421 0.799 183 168 149 0
27.1615 82.5859 -22.9459 0.720 -0.249 0.647 179 163 142 0
32.5878 83.4989 -21.4041 0.726 -0.611 -0.315 169 151 131 0
34.7248 81.1829 -20.9341 0.177 -0.934 0.310 171 151 128 0
-10.9504 -9.2181 -38.3606 0.843 -0.416 -0.341 255 255 255 0
-10.8969 -9.0423 -38.3369 0.837 -0.433 -0.336 255 255 255 0
-10.7634 -8.8802 -38.2918 0.851 -0.412 -0.325 135 136 136 0
-10.6683 -8.7115 -38.2570 0.851 -0.412 -0.325 70 64 59 0
-10.5869 -8.5403 -38.2258 0.851 -0.417 -0.320 225 213 197 0
-10.5218 -8.3661 -38.1990 0.861 -0.388 -0.328 229 217 200 0
-9.3108 -8.2145 -37.8558 0.232 -0.954 -0.189 234 219 201 0
-12.3633 22.7825 -37.1439 0.960 -0.224 -0.170 235 227 208 0
-12.1021 22.9151 -37.0648 0.826 -0.522 0.213 235 227 208 0
-11.9647 23.1028 -37.0173 0.843 -0.513 0.162 234 226 207 0
-12.2569 23.7357 -37.0665 0.764 -0.581 0.282 233 224 203 0
-10.6350 23.2468 -36.6416 0.947 -0.321 -0.014 232 223 200 0
-7.6217 26.0538 -35.6654 0.969 -0.043 0.242 114 62 66 0
-3.6410 25.0569 -34.6122 -0.201 -0.805 0.559 104 50 56 0
-1.4904 25.1746 -34.0103 0.157 -0.820 0.551 102 41 48 0
1.8858 26.0366 -33.0313 0.749 -0.640 0.169 105 37 45 0
1.7150 26.6091 -33.0498 0.656 -0.711 0.254 109 39 47 0
0.8422 28.3052 -33.2065 0.719 -0.592 0.365 114 38 51 0
1.7312 28.2976 -32.9605 0.535 -0.718 0.445 112 36 47 0
5.2814 28.2065 -31.9811 0.508 -0.337 0.793 136 69 76 0
6.4232 28.7358 -31.6381 0.195 -0.697 0.690 134 69 75 0
7.6749 31.1172 -31.1715 0.881 -0.337 0.333 144 83 85 0
8.5330 33.0246 -30.8378 0.166 -0.970 0.180 137 75 82 0
8.7909 37.9056 -30.5211 0.944 0.311 0.108 112 51 57 0
9.2775 37.8197 -30.3905 0.700 -0.267 0.663 104 42 48 0
9.8170 37.6941 -30.2473 0.704 -0.021 0.710 100 35 43 0
11.8085 42.7534 -29.4411 0.905 -0.402 0.137 71 14 24 0
13.0764 43.3530 -29.0596 0.873 -0.460 0.160 67 14 20 0
13.1562 43.5564 -29.0272 0.874 -0.454 0.175 69 19 23 0
7.6361 52.9144 -30.0868 0.811 0.081 0.579 73 42 40 0
7.3780 53.7300 -30.1173 0.899 0.015 0.438 75 45 45 0
22.4204 49.7310 -26.1494 0.956 -0.292 0.026 215 203 189 0
14.1966 58.0157 -28.0122 0.582 -0.606 -0.542 215 203 189 0
11.1240 68.7858 -28.3225 0.325 -0.759 -0.564 207 194 179 0
18.3971 65.8080 -26.4564 -0.067 -0.746 0.662 202 191 173 0
11.9464 76.4984 -27.7069 0.607 0.611 0.508 198 186 170 0
12.1023 76.6740 -27.6549 0.609 0.597 0.523 197 185 169 0
20.9597 75.7972 -25.2442 0.128 0.219 0.967 194 177 158 0
26.9600 87.1086 -23.0127 0.711 -0.198 -0.675 176 159 137 0
27.6474 87.5841 -22.7983 0.594 -0.579 -0.558 174 159 136 0
32.6055 83.5877 -21.6250 0.761 -0.548 -0.347 170 152 132 0
36.7158 78.8061 -20.7262 0.722 -0.620 0.306 169 148 127 0
-11.0244 -9.1927 -38.5875 0.826 -0.456 -0.332 255 255 255 0
-10.9988 -9.0118 -38.5715 0.849 -0.419 -0.321 255 255 255 0
-10.8376 -8.8543 -38.5188 0.851 -0.412 -0.325 135 135 136 0
-10.7415 -8.6855 -38.4837 0.855 -0.408 -0.321 68 63 59 0
-10.6479 -8.5163 -38.4493 0.855 -0.408 -0.321 225 213 197 0
-10.5542 -8.3470 -38.4148 0.848 -0.408 -0.336 229 215 199 0
-12.6649 23.2033 -37.4497 0.858 -0.388 0.337 235 227 208 0
-10.5679 23.2524 -36.8627 0.945 -0.327 -0.023 231 223 202 0
-15.1792 25.8765 -38.0191 0.683 0.087 0.725 229 219 194 0
-6.4054 25.7394 -35.5798 0.115 -0.977 -0.182 112 60 65 0
-3.6279 24.8450 -34.8495 0.086 -0.984 0.157 106 54 59 0
-1.1194 25.0220 -34.1414 0.223 -0.840 0.494 102 43 49 0
-0.6362 25.0129 -34.0072 0.030 -0.951 0.308 100 41 47 0
8.0252 30.9422 -31.3005 0.670 -0.743 0.010 142 83 84 0
8.4280 32.8921 -31.0922 0.377 -0.834 -0.403 145 85 91 0
8.4734 33.1100 -31.0688 0.397 -0.854 -0.335 141 81 86 0
7.7936 33.8033 -31.2242 0.980 0.157 0.125 148 86 92 0
0.0238 42.1837 -32.9777 0.299 -0.512 -0.805 147 86 92 0
10.9493 38.2170 -30.1271 0.877 0.378 0.296 92 22 33 0
10.9677 38.4609 -30.1100 0.874 0.331 0.356 85 17 28 0
11.8641 42.7665 -29.6481 0.901 -0.413 0.133 73 16 26 0
11.8916 43.0122 -29.6283 0.881 -0.455 0.130 71 15 24 0
10.4821 46.8696 -29.8313 0.919 0.194 -0.343 62 17 17 0
9.8537 47.9438 -29.9536 0.452 0.389 0.803 64 18 21 0
7.8307 52.8144 -30.2778 0.939 -0.037 0.342 71 40 38 0
7.7328 53.1947 -30.2864 0.958 0.082 0.276 73 42 40 0
-3.8211 67.1584 -32.8199 0.689 0.708 0.153 211 199 176 0
18.8259 65.4143 -26.5920 -0.040 -0.806 0.591 204 193 175 0
19.1136 65.4129 -26.5119 -0.043 -0.817 0.575 201 192 173 0
19.1165 65.7298 -26.4955 -0.078 -0.726 0.683 199 191 172 0
19.4966 65.6228 -26.3948 -0.096 -0.830 0.550 198 190 172 0
23.4001 83.4107 -24.4307 0.118 -0.947 0.300 186 167 150 0
22.5007 85.0484 -24.6008 0.268 -0.918 0.294 186 166 151 0
39.2937 63.1937 -20.9952 0.678 -0.245 0.693 182 168 146 0
26.7708 82.6457 -23.5286 0.800 0.462 0.382 181 162 141 0
25.8324 85.8836 -23.6308 0.816 0.460 -0.350 176 162 136 0
37.9659 68.5634 -21.1010 0.835 -0.395 -0.383 177 162 138 0
30.8763 81.6381 -22.4337 0.751 -0.640 -0.164 177 159 137 0
28.0828 87.4143 -22.9281 0.470 -0.576 -0.669 173 161 138 0
36.8916 78.6349 -20.9046 0.455 -0.732 0.507 169 148 127 0
-11.1488 -9.1587 -38.8287 0.827 -0.450 -0.337 255 255 255 0
-11.0405 -8.9918 -38.7903 0.832 -0.445 -0.332 255 255 255 0
-10.9082 -8.8291 -38.7453 0.855 -0.408 -0.321 135 136 136 0
-10.8144 -8.6596 -38.7108 0.855 -0.408 -0.321 68 62 59 0
-10.7207 -8.4902 -38.6764 0.855 -0.408 -0.321 226 211 196 0
-10.6169 -8.3225 -38.6392 0.848 -0.416 -0.329 231 214 198 0
-9.4714 -8.1584 -38.3101 0.232 -0.958 -0.171 236 217 201 0
-12.9045 23.3468 -37.7536 0.878 -0.281 0.388 235 226 208 0
-12.3792 23.3619 -37.6056 0.831 -0.544 0.118 235 226 207 0
-11.9419 23.4150 -37.4804 0.776 -0.592 0.217 234 225 207 0
-11.6866 23.8001 -37.3903 0.805 -0.555 0.207 231 223 204 0
-5.9781 25.5656 -35.7043 0.212 -0.958 -0.194 110 59 62 0
-5.7667 25.7080 -35.6381 -0.069 -0.997 -0.029 109 57 62 0
-4.1207 25.1303 -35.2044 -0.049 -0.998 0.036 107 57 61 0
3.9777 26.8776 -32.8491 0.843 -0.533 0.067 114 38 51 0
1.6616 28.4198 -33.4242 -0.205 -0.649 0.733 113 38 50 0
1.9828 28.4835 -33.3311 -0.168 -0.632 0.757 112 38 50 0
5.4142 28.2127 -32.3819 0.508 -0.149 0.849 121 55 64 0
5.5987 28.3453 -32.3237 0.422 -0.465 0.778 123 58 66 0
5.5088 28.6385 -32.3348 0.239 -0.942 0.237 126 61 68 0
8.0630 30.9631 -31.5065 0.675 -0.738 0.016 137 79 82 0
8.3005 33.2695 -31.3286 0.921 -0.061 -0.386 136 74 80 0
8.0667 33.6715 -31.3748 0.987 0.147 0.070 137 74 79 0
8.7684 33.9573 -31.1643 0.419 -0.256 0.871 144 76 84 0
8.5842 34.3297 -31.1980 0.422 -0.088 0.903 146 78 85 0
8.2679 35.0443 -31.2522 0.225 -0.108 0.968 148 83 89 0
-4.1675 44.2536 -34.2954 0.426 -0.247 -0.870 143 77 86 0
10.1596 37.2965 -30.6131 -0.090 -0.668 0.739 102 38 48 0
10.7045 48.7124 -29.9098 0.149 -0.900 0.409 61 24 29 0
10.0927 49.5096 -30.0430 0.973 -0.033 0.229 63 28 30 0
8.7371 51.5204 -30.3262 0.814 0.397 0.423 65 33 33 0
-3.9784 67.3786 -33.1273 0.689 0.708 0.152 211 199 176 0
2.3878 62.3219 -31.5859 0.557 -0.646 -0.522 211 200 179 0
16.0202 65.6872 -27.6006 0.284 0.084 0.955 207 194 178 0
15.6928 66.3661 -27.6597 0.268 0.101 0.958 206 193 177 0
14.5635 95.1194 -26.5899 -0.072 -0.878 0.474 187 171 151 0
23.4011 84.2635 -24.6350 0.538 -0.832 0.134 183 167 150 0
26.1971 80.6685 -24.0243 0.357 -0.901 0.248 182 167 150 0
29.8663 77.5430 -23.1461 0.707 0.444 0.550 182 164 144 0
31.4345 79.8224 -22.5964 0.935 0.307 -0.178 175 159 138 0
31.2387 81.1980 -22.5849 0.879 -0.476 0.009 174 156 134 0
30.9585 81.9892 -22.6254 0.689 -0.722 -0.066 174 158 135 0
-11.1476 -9.1461 -39.0361 0.842 -0.422 -0.336 255 255 255 0
-11.0914 -8.9701 -39.0120 0.830 -0.460 -0.315 255 255 255 0
-10.9843 -8.8028 -38.9738 0.830 -0.460 -0.315 136 136 136 0
-10.8935 -8.6326 -38.9402 0.864 -0.393 -0.314 70 63 60 0
-10.8038 -8.4622 -38.9069 0.864 -0.393 -0.314 230 213 199 0
-10.6924 -8.2956 -38.8676 0.848 -0.416 -0.329 234 216 201 0
-9.5977 -8.1219 -38.5506 0.235 -0.958 -0.166 237 217 201 0
-12.3069 24.1206 -37.7930 0.976 -0.164 -0.140 233 222 203 0
-12.9246 26.4508 -37.8573 0.041 -0.999 -0.005 148 112 108 0
-5.6986 25.7126 -35.8538 -0.072 -0.997 -0.029 108 56 60 0
-0.2029 24.1492 -34.3774 -0.125 -0.874 0.470 107 48 54 0
0.8801 25.4955 -34.0084 0.935 -0.353 0.039 106 43 54 0
1.9470 25.1676 -33.7229 0.519 -0.567 0.640 108 43 52 0
2.0975 25.5630 -33.6618 0.621 -0.633 0.462 109 41 52 0
2.1799 25.7571 -33.6294 0.464 -0.767 0.442 112 43 53 0
8.1389 33.1731 -31.5984 0.970 -0.140 -0.198 128 68 74 0
9.1515 33.5019 -31.2973 0.860 -0.228 -0.456 132 62 70 0
9.0719 33.8032 -31.3055 0.878 -0.262 -0.400 131 61 69 0
9.0427 34.3217 -31.2893 0.968 0.086 0.237 136 67 75 0
8.9656 34.6239 -31.2968 0.975 0.026 0.219 136 69 75 0
-1.5186 42.5080 -33.8820 0.429 -0.337 -0.838 128 61 70 0
10.5626 41.7497 -30.5100 0.424 -0.622 -0.658 74 14 23 0
11.8717 43.1417 -30.0750 0.811 -0.381 0.444 70 17 23 0
12.1086 43.2232 -30.0043 0.755 -0.598 0.269 68 15 21 0
10.5016 46.9750 -30.2805 0.627 -0.752 0.205 63 17 20 0
10.7063 48.7736 -30.1379 0.144 -0.935 0.324 59 24 26 0
2.4011 62.3853 -31.8382 0.460 -0.846 -0.269 212 200 178 0
2.1516 62.9375 -31.8825 0.941 0.323 0.100 213 201 178 0
2.5704 62.8840 -31.7669 0.975 0.202 0.098 214 202 179 0
1.0350 64.6131 -32.1184 0.940 0.332 -0.078 215 204 182 0
0.7485 65.2085 -32.1711 0.941 0.326 -0.090 216 203 184 0
2.2072 64.2018 -31.8071 0.975 0.204 0.090 216 203 186 0
16.4038 65.3553 -27.7482 0.270 0.037 0.962 205 193 176 0
13.6324 96.1289 -27.0774 -0.059 -0.882 0.467 187 169 152 0
30.1239 77.2759 -23.3154 0.718 0.460 0.523 181 164 144 0
38.6918 67.9949 -21.3366 0.808 -0.497 -0.317 177 159 139 0
31.2349 80.2349 -22.8623 0.935 0.314 -0.168 175 158 137 0
30.9979 80.9540 -22.8953 0.929 0.330 -0.169 178 160 138 0
30.6999 81.7693 -22.9408 0.929 0.330 -0.169 181 163 140 0
28.0797 87.6585 -23.4020 0.589 -0.540 -0.601 178 158 138 0
28.5418 87.7069 -23.2693 0.834 -0.229 0.502 172 156 138 0
36.8865 76.4202 -21.4482 0.268 -0.882 -0.388 169 154 137 0
37.1114 76.4092 -21.3853 0.299 -0.893 -0.338 170 154 135 0
-11.2262 -9.1199 -39.2658 0.842 -0.422 -0.336 255 255 255 0
-11.1640 -8.9446 -39.2400 0.830 -0.460 -0.315 255 255 255 0
-11.0567 -8.7771 -39.2019 0.830 -0.460 -0.315 135 135 136 0
-10.9647 -8.6069 -39.1679 0.864 -0.393 -0.314 71 63 60 0
-10.8426 -8.4421 -39.1256 0.857 -0.407 -0.317 231 213 198 0
-10.7741 -8.2676 -39.0982 0.853 -0.411 -0.323 234 216 201 0
-13.4762 26.4926 -38.2597 0.032 -0.999 -0.014 153 119 116 0
-12.8865 26.4715 -38.0934 0.050 -0.999 -0.006 149 109 110 0
-12.1475 26.3771 -37.8881 0.063 -0.997 0.038 146 104 106 0
-7.7683 25.0302 -36.7078 0.795 -0.560 0.233 132 88 91 0
-7.4677 25.1333 -36.6177 0.666 -0.728 0.164 125 83 85 0
-7.2167 25.2597 -36.5407 0.317 -0.934 0.162 120 76 78 0
-6.7970 25.3027 -36.4196 0.317 -0.935 0.157 116 70 72 0
-6.6048 25.4566 -36.3580 0.229 -0.960 0.164 109 63 66 0
0.1332 24.7294 -34.4798 0.510 -0.855 0.099 100 40 47 0
0.9075 25.2805 -34.2347 0.913 -0.405 0.041 103 40 51 0
0.9000 25.5239 -34.2256 0.935 -0.353 0.039 104 39 50 0
1.0960 25.6595 -34.1637 0.873 -0.468 0.137 105 37 49 0
1.9223 27.8677 -33.8273 0.914 0.405 -0.038 117 39 52 0
8.3408 33.0883 -31.7651 0.957 -0.280 -0.078 125 61 69 0
9.2403 33.7386 -31.4799 0.766 0.336 0.548 124 51 62 0
9.2332 33.9924 -31.4702 0.990 0.002 -0.143 127 54 65 0
9.0373 34.3731 -31.5082 0.921 -0.090 -0.379 130 59 70 0
8.9903 34.6554 -31.5085 0.973 0.028 0.227 130 60 71 0
7.6707 35.7977 -31.8301 0.158 0.280 0.947 129 59 69 0
7.2724 36.3231 -31.9189 0.159 0.277 0.948 124 54 65 0
9.2611 36.7505 -31.3349 0.745 0.478 -0.465 112 43 58 0
12.2458 36.9233 -30.4801 -0.096 -0.888 0.450 90 24 32 0
10.5056 41.8485 -30.7464 0.399 -0.675 -0.621 72 12 22 0
11.0246 43.3249 -30.5310 0.985 0.053 -0.164 71 17 25 0
11.0110 43.6055 -30.5219 0.985 0.053 -0.164 69 16 22 0
12.0008 43.0971 -30.2645 0.815 -0.404 0.416 69 17 21 0
11.6435 44.4602 -30.3030 0.327 -0.499 0.803 67 13 20 0
11.7794 44.6234 -30.2569 0.327 -0.499 0.803 68 15 20 0
10.2497 47.2416 -30.5700 0.932 -0.362 -0.025 64 16 20 0
2.4409 62.4249 -32.0844 0.468 -0.860 -0.201 212 199 178 0
2.5996 62.6071 -32.0310 0.477 -0.855 -0.203 213 200 180 0
2.6022 62.9313 -32.0153 0.912 -0.361 -0.197 214 201 181 0
0.9602 64.7591 -32.3968 0.940 0.332 -0.078 214 202 179 0
0.8407 65.2023 -32.4102 0.939 0.335 -0.081 214 202 180 0
1.9881 64.8129 -32.1026 0.749 -0.635 -0.190 216 203 185 0
11.5114 72.1116 -29.0636 0.856 0.518 0.017 206 193 177 0
20.9100 67.4847 -26.6106 0.649 -0.283 0.707 197 186 165 0
25.2805 69.6936 -25.2686 0.972 0.236 -0.022 195 179 163 0
20.4540 90.2262 -25.6899 0.181 -0.838 -0.515 181 167 144 0
17.7805 98.1846 -26.0810 0.832 0.488 -0.265 176 163 139 0
31.0984 80.9133 -23.0998 0.931 -0.137 -0.339 178 160 136 0
36.9097 76.1473 -21.6711 0.134 -0.986 -0.096 171 154 138 0
37.3597 76.4697 -21.5285 0.370 -0.826 -0.425 170 155 135 0
-11.3217 -9.2766 -39.5091 0.848 -0.435 -0.303 255 255 255 0
-11.3639 -9.0835 -39.5124 0.840 -0.432 -0.329 255 255 255 0
-11.1791 -8.9291 -39.4527 0.836 -0.438 -0.332 255 255 255 0
-11.1259 -8.7520 -39.4295 0.864 -0.393 -0.314 135 135 136 0
-11.0360 -8.5812 -39.3961 0.864 -0.393 -0.314 70 64 59 0
-10.8471 -8.2412 -39.3269 0.858 -0.407 -0.312 233 216 202 0
-10.3947 -8.1360 -39.1930 0.442 -0.895 -0.056 235 216 203 0
-14.0070 26.5226 -38.6589 0.781 0.144 0.607 172 144 134 0
-13.3470 26.4703 -38.4730 0.007 -1.000 0.012 156 119 117 0
-12.7905 26.4648 -38.3144 0.012 -1.000 0.023 150 109 110 0
-10.9279 26.3436 -37.7883 0.744 -0.668 0.029 138 92 96 0
-8.0552 25.2073 -37.0198 0.806 -0.586 0.086 132 87 90 0
-7.5147 25.1943 -36.8662 0.551 -0.825 0.125 126 84 86 0
-7.2773 25.3276 -36.7924 0.540 -0.832 0.127 119 75 77 0
-6.9991 25.6897 -36.6967 0.229 -0.895 0.382 110 64 67 0
-5.5402 25.7108 -36.2794 -0.060 -0.979 -0.197 107 56 60 0
1.0541 25.7210 -34.3971 0.877 -0.464 0.121 105 38 49 0
5.5693 26.8148 -33.0592 0.275 -0.952 -0.138 109 38 51 0
8.3320 32.8925 -31.9963 0.818 0.093 0.568 122 58 68 0
8.3401 33.1354 -31.9831 0.821 0.086 0.565 122 55 66 0
9.0676 35.1550 -31.6843 0.119 0.200 0.973 121 49 62 0
9.5683 39.6919 -31.3365 0.213 0.082 0.974 85 20 29 0
14.1474 37.8564 -30.1126 0.798 -0.270 -0.539 76 14 25 0
14.6782 37.7118 -29.9677 0.916 -0.391 -0.088 77 15 25 0
11.0074 43.3955 -30.7586 0.987 0.096 -0.132 75 18 27 0
10.9671 43.6974 -30.7565 0.985 0.053 -0.164 71 16 23 0
10.8177 44.0862 -30.7816 0.985 0.088 -0.149 69 15 21 0
10.5091 44.6024 -30.8463 0.936 -0.249 -0.249 69 16 22 0
8.9459 48.3685 -31.1224 0.833 -0.521 -0.189 64 17 20 0
0.1410 65.9229 -32.8424 0.863 -0.412 0.293 213 201 181 0
0.2438 66.1657 -32.8021 0.890 -0.432 0.142 214 202 184 0
20.0497 60.3362 -27.4133 0.726 0.602 0.332 209 197 180 0
20.9304 67.2238 -26.8509 0.627 -0.344 0.699 198 187 167 0
21.0289 67.4334 -26.8133 0.543 -0.463 0.701 197 186 165 0
26.6199 68.4183 -25.1733 0.140 -0.908 -0.396 193 179 159 0
32.5650 69.2995 -23.4370 0.231 -0.867 0.443 190 172 156 0
14.3700 96.1689 -27.4162 0.119 -0.759 0.641 186 168 151 0
30.9516 81.2488 -23.3579 0.595 -0.381 -0.708 176 159 138 0
30.1698 84.2839 -23.4439 0.653 -0.608 -0.451 175 155 137 0
29.6465 87.3644 -23.4541 0.631 -0.671 0.390 169 155 138 0
-11.2130 -8.9103 -39.6709 0.859 -0.434 -0.270 255 255 255 0
-11.1917 -8.7274 -39.6567 0.859 -0.394 -0.326 135 135 136 0
-11.1007 -8.5567 -39.6230 0.859 -0.394 -0.326 69 64 59 0
-10.8935 -8.2194 -39.5487 0.857 -0.407 -0.317 232 218 202 0
-21.1722 27.7516 -40.9116 0.291 -0.830 -0.477 235 225 208 0
-13.8460 26.4856 -38.8646 0.778 0.150 0.610 176 148 139 0
-13.3176 26.4952 -38.7125 0.035 -0.996 0.081 157 121 117 0
-12.7622 26.4902 -38.5533 0.027 -0.997 0.066 151 111 111 0
-10.6875 26.2664 -37.9677 0.721 -0.693 -0.015 139 93 96 0
-7.9784 25.2082 -37.2369 0.727 -0.668 0.162 131 88 89 0
-7.3749 25.1643 -37.0656 0.543 -0.815 0.201 126 84 85 0
-6.7716 25.1184 -36.8944 0.112 -0.990 0.083 119 75 76 0
-4.3069 24.8868 -36.1972 0.445 -0.892 0.081 110 58 63 0
-4.1121 25.2795 -36.1240 0.228 -0.761 -0.608 103 50 56 0
0.4822 25.3427 -34.8025 0.817 -0.570 -0.084 102 42 53 0
3.4378 25.4321 -33.9502 0.959 -0.145 0.245 112 40 48 0
4.6090 29.8266 -33.4201 -0.171 -0.807 0.566 119 48 56 0
8.3823 31.4289 -32.2664 0.338 -0.656 0.675 128 68 76 0
8.1107 33.5813 -32.2494 0.304 -0.311 0.900 118 47 62 0
9.5328 34.3865 -31.8056 0.685 -0.167 0.709 121 46 61 0
8.6199 35.5077 -32.0182 0.715 0.555 0.425 116 43 57 0
9.6252 39.1797 -31.5676 -0.061 -0.185 0.981 87 22 30 0
12.4515 38.6614 -30.7793 0.771 -0.384 0.508 76 14 25 0
12.5562 38.8409 -30.7413 0.780 -0.373 0.503 77 15 26 0
13.8084 38.1621 -30.4118 0.898 -0.270 -0.349 78 16 27 0
14.6797 37.7628 -30.1794 0.916 -0.391 -0.088 77 15 26 0
13.0481 41.0661 -30.5019 0.919 -0.272 0.286 73 13 21 0
12.5876 44.6333 -30.4767 0.486 -0.609 0.626 66 15 22 0
3.7764 68.3200 -31.9605 0.622 -0.470 0.626 214 204 188 0
12.5776 74.9267 -29.1427 0.578 -0.608 -0.545 203 188 172 0
21.3786 67.4363 -26.9472 0.619 -0.764 0.182 197 186 164 0
26.1991 68.7177 -25.5070 0.164 -0.906 -0.390 192 178 157 0
15.2005 95.1242 -27.4986 0.158 -0.792 0.589 188 169 152 0
21.0497 88.0516 -26.1319 0.655 -0.731 -0.193 185 167 146 0
19.0137 95.7828 -26.3751 0.848 0.528 -0.035 179 160 144 0
30.7901 85.3039 -23.4573 0.782 -0.418 0.463 169 156 136 0
31.0595 85.2551 -23.3822 0.851 -0.237 0.468 169 157 136 0
37.0311 76.5201 -22.0536 0.715 -0.397 -0.576 168 154 134 0
37.6105 78.7389 -21.7894 0.740 -0.599 -0.305 166 146 126 0
-11.4737 -9.0389 -39.9612 0.809 -0.475 -0.347 255 255 255 0
-11.3028 -8.8818 -39.9051 0.801 -0.515 -0.304 255 255 255 0
-11.2670 -8.7012 -39.8870 0.859 -0.394 -0.326 135 135 136 0
-11.1758 -8.5302 -39.8533 0.859 -0.394 -0.326 69 64 59 0
-10.9659 -8.1930 -39.7782 0.857 -0.407 -0.317 230 218 202 0
-19.3755 26.9748 -40.6900 0.807 0.565 0.170 236 226 209 0
-19.1420 27.1361 -40.6156 0.787 0.532 0.312 237 225 211 0
-22.5876 29.2607 -41.5187 0.988 -0.149 -0.028 234 222 208 0
-19.2116 27.9740 -40.5996 0.549 -0.819 -0.167 232 220 204 0
-13.7332 26.4713 -39.0829 0.784 0.147 0.603 177 154 143 0
-13.2345 26.4948 -38.9379 0.039 -0.993 0.111 156 125 119 0
-12.7611 26.5287 -38.7998 0.039 -0.993 0.111 149 114 111 0
-8.4104 25.4561 -37.5901 0.577 -0.681 0.452 129 86 87 0
-7.4035 25.2165 -37.3097 0.544 -0.797 0.261 125 83 84 0
-5.3224 24.4467 -36.7422 0.662 -0.587 0.465 120 76 77 0
-4.8462 24.4578 -36.6042 0.758 -0.274 0.592 116 69 71 0
-5.2675 24.9110 -36.7063 0.297 -0.847 0.441 111 65 67 0
-1.7598 24.1337 -35.7272 0.760 -0.650 0.016 103 49 56 0
0.8085 25.6898 -34.9187 0.807 -0.108 0.580 101 39 50 0
4.8433 27.3096 -33.6841 0.656 -0.755 -0.004 109 38 48 0
4.9168 27.5072 -33.6544 0.637 -0.771 0.007 109 39 49 0
4.1779 28.1716 -33.8391 0.877 0.090 0.471 109 40 52 0
8.4472 31.6777 -32.4555 0.549 -0.498 0.671 120 58 69 0
8.7200 31.7486 -32.3737 0.979 -0.190 0.077 121 58 69 0
8.7492 33.2099 -32.3023 0.461 -0.140 0.876 117 45 61 0
8.8131 35.4254 -32.1883 0.712 0.553 0.433 117 40 56 0
8.3830 35.9725 -32.2889 0.473 0.504 0.723 113 37 53 0
12.0750 38.4781 -31.1151 0.477 -0.376 0.794 79 16 27 0
12.3520 38.5307 -31.0329 0.500 -0.377 0.780 77 15 26 0
12.6649 38.8126 -30.9304 0.556 -0.394 0.732 77 15 25 0
12.8478 38.9335 -30.8724 0.551 -0.503 0.666 78 16 27 0
12.6831 42.4638 -30.7678 0.873 -0.047 0.485 70 12 20 0
11.5898 44.4063 -30.9996 0.167 -0.791 -0.588 66 17 20 0
12.3795 44.5886 -30.7638 0.608 -0.726 0.321 66 16 22 0
10.3466 47.6267 -31.2197 0.998 0.043 -0.053 61 16 20 0
7.6977 53.3284 -31.7386 0.935 0.276 0.221 69 43 44 0
0.7884 65.8219 -33.1947 0.826 0.036 0.563 209 200 183 0
17.0030 65.3596 -28.5338 0.919 0.383 0.097 206 193 178 0
17.6189 71.6039 -28.0868 0.955 -0.216 0.201 197 186 165 0
21.9695 72.4547 -26.7942 0.479 -0.140 -0.866 195 183 158 0
40.2930 58.4669 -22.1076 0.641 -0.146 0.753 186 170 154 0
16.9429 98.9719 -27.1023 0.811 0.544 0.214 179 159 144 0
31.3500 85.2900 -23.5331 0.738 -0.358 0.572 168 156 132 0
37.6451 79.1513 -21.9804 0.669 -0.646 -0.367 166 145 129 0
40.4280 75.2600 -21.3448 0.358 -0.872 -0.333 105 93 84 0
-11.5435 -9.0140 -40.1905 0.797 -0.517 -0.314 255 255 255 0
-11.4192 -8.8486 -40.1475 0.797 -0.517 -0.314 255 255 255 0
-11.3425 -8.6749 -40.1179 0.859 -0.394 -0.326 135 135 136 0
-11.2534 -8.5033 -40.0848 0.859 -0.399 -0.320 70 64 60 0
-11.1181 -8.3399 -40.0387 0.859 -0.406 -0.312 228 215 198 0
-9.7589 -8.3970 -39.6465 0.969 -0.204 -0.139 230 218 202 0
-9.7264 -8.2171 -39.6294 0.967 -0.188 -0.174 234 219 204 0
-23.3190 29.3608 -41.9947 0.877 -0.269 -0.398 235 223 209 0
-22.8108 29.4043 -41.8453 0.774 -0.512 -0.374 233 221 207 0
-19.2201 28.0177 -40.8611 0.543 -0.823 -0.167 232 220 206 0
-13.8609 25.7924 -39.3988 0.864 -0.043 0.501 231 219 202 0
-13.4122 26.0997 -39.2556 0.853 0.231 0.469 225 209 193 0
-13.6350 26.4638 -39.3050 0.810 0.252 0.530 183 162 149 0
-13.8611 26.8311 -39.3552 0.819 0.220 0.529 158 130 122 0
-12.8111 26.5915 -39.0604 0.131 -0.991 0.027 149 115 111 0
-7.4087 25.5071 -37.5375 0.498 -0.752 0.433 120 76 77 0
-4.8880 24.5161 -36.8474 0.661 -0.439 0.608 116 70 72 0
-1.2979 24.9003 -35.7889 0.788 -0.613 -0.051 95 40 47 0
4.4603 27.5689 -34.0048 0.584 -0.783 -0.214 108 38 47 0
4.6706 27.6893 -33.9387 0.605 -0.794 -0.056 111 40 51 0
4.1010 28.2576 -34.0802 0.865 0.131 0.484 114 42 54 0
8.8377 31.9639 -32.5490 0.726 -0.687 0.020 115 51 62 0
9.4910 35.7719 -32.1991 0.557 0.093 0.825 109 35 52 0
8.9480 36.4009 -32.3303 0.226 0.104 0.969 110 34 51 0
12.5449 38.4403 -31.2001 0.500 -0.377 0.780 78 16 27 0
12.8751 38.4520 -31.1038 0.589 -0.410 0.696 78 15 26 0
10.7641 44.8495 -31.4475 0.402 -0.770 -0.495 65 14 19 0
7.7619 54.2387 -31.9241 0.844 0.199 0.498 88 66 64 0
-1.7649 69.9967 -34.0270 0.864 0.413 0.290 213 201 186 0
-0.6031 69.2510 -33.7210 0.967 -0.093 -0.238 213 201 186 0
18.8598 64.0490 -28.2892 0.718 -0.283 -0.636 204 192 177 0
19.8223 63.3051 -28.0410 0.865 -0.073 -0.497 204 192 177 0
17.9652 75.4191 -28.0705 0.910 0.311 0.274 198 182 167 0
34.7358 63.4580 -23.7047 0.720 0.492 0.489 188 176 151 0
16.8230 93.4870 -27.6419 0.931 -0.265 -0.251 189 170 154 0
17.8032 92.5020 -27.3987 0.787 -0.617 0.006 188 169 153 0
19.2126 95.3298 -26.8706 0.798 0.529 0.290 179 163 144 0
16.9481 99.0935 -27.3697 0.808 0.544 0.224 178 160 144 0
37.3349 76.2569 -22.4116 0.759 -0.628 0.172 169 155 135 0
37.4212 76.8133 -22.3631 0.553 -0.833 0.010 169 153 137 0
37.7829 76.5801 -22.2679 0.415 -0.909 0.036 168 152 135 0
36.6802 79.0619 -22.4836 0.989 -0.145 0.006 167 150 130 0
37.5331 79.0942 -22.2346 0.705 -0.617 -0.351 166 146 132 0
37.6355 79.2819 -22.1970 0.650 -0.658 -0.380 165 145 131 0
40.2482 75.3250 -21.6050 0.359 -0.867 -0.347 164 144 130 0
-11.4552 -8.8293 -40.3676 0.819 -0.487 -0.303 255 255 255 0
-11.4181 -8.6485 -40.3494 0.859 -0.394 -0.326 135 135 136 0
-11.3271 -8.4770 -40.3158 0.859 -0.399 -0.320 69 64 59 0
-9.7885 -8.3783 -39.8624 0.968 -0.183 -0.173 231 219 202 0
-14.7722 24.7007 -39.9597 0.861 -0.033 -0.507 236 227 210 0
-19.1133 28.0081 -41.0915 0.444 -0.861 -0.247 231 219 205 0
-13.8969 25.8475 -39.6571 0.762 -0.253 0.596 230 219 202 0
-13.1309 25.7480 -39.4375 0.848 0.199 0.492 229 216 199 0
-13.5306 26.4534 -39.5253 0.800 0.244 0.548 188 167 154 0
-13.7161 26.8014 -39.5652 0.799 0.282 0.532 159 131 123 0
-13.7907 27.0979 -39.5748 0.819 0.220 0.529 153 119 115 0
-5.2663 24.0048 -37.2127 0.724 -0.683 0.095 129 87 88 0
-5.2259 24.2298 -37.1917 0.744 -0.656 0.127 124 84 84 0
-5.2087 24.4664 -37.1769 0.404 -0.669 0.624 120 77 78 0
-4.7408 24.4814 -37.0397 0.379 -0.718 0.583 117 71 73 0
-3.2187 24.2151 -36.6062 0.238 -0.931 -0.277 111 61 65 0
-1.1280 24.6105 -35.9795 0.797 -0.559 0.227 100 45 54 0
-1.1481 24.8618 -35.9751 0.770 -0.556 0.314 98 44 50 0
2.7374 25.9308 -34.7966 0.533 -0.802 -0.270 110 38 46 0
3.9952 28.3602 -34.3297 0.945 0.305 0.122 117 44 56 0
4.1610 28.5077 -34.2752 -0.291 -0.955 0.051 114 42 53 0
9.2380 31.2638 -32.6796 0.824 -0.425 0.375 115 51 62 0
8.7297 32.0792 -32.7946 0.749 -0.496 0.440 111 45 57 0
9.3437 34.4075 -32.5197 0.701 0.052 0.711 115 37 55 0
8.3723 36.3349 -32.7242 0.470 0.456 0.756 108 33 49 0
9.7715 35.6282 -32.3447 0.340 -0.021 0.940 104 30 47 0
10.0775 36.9423 -32.2014 0.201 -0.171 0.965 101 24 42 0
9.8755 37.8569 -32.2228 0.407 0.158 0.900 92 23 37 0
10.4781 45.1361 -31.7481 0.187 -0.874 -0.450 66 14 20 0
10.3850 45.4861 -31.7609 0.126 -0.721 -0.682 66 15 21 0
1.9875 65.2059 -33.4034 0.862 -0.447 -0.240 210 201 182 0
2.0990 65.4367 -33.3613 0.729 -0.552 -0.404 211 201 183 0
13.8970 58.9779 -30.1816 0.633 -0.758 -0.158 210 201 184 0
20.8802 59.7593 -28.1105 0.715 0.605 0.352 208 195 183 0
18.4698 74.8993 -28.1928 0.987 0.133 0.090 197 181 165 0
18.4655 75.2537 -28.1795 0.988 0.140 0.071 196 180 163 0
35.3409 62.7327 -23.7661 0.701 0.489 0.520 189 177 151 0
40.6141 58.1928 -22.4127 0.598 -0.258 0.759 185 172 153 0
19.3260 95.2876 -27.1059 0.798 0.529 0.290 177 163 142 0
16.9230 99.2601 -27.6445 0.785 0.539 0.305 178 162 144 0
29.4013 84.0677 -24.6246 0.954 0.262 0.148 175 156 141 0
37.4385 77.9471 -22.5291 0.967 -0.212 0.140 166 151 130 0
37.4354 79.3693 -22.4716 0.620 -0.672 -0.405 165 147 132 0
37.6277 79.4097 -22.4138 0.651 -0.650 -0.392 165 146 132 0
-11.5611 -8.7979 -40.6082 0.824 -0.463 -0.328 255 255 255 0
-11.4940 -8.6221 -40.5814 0.859 -0.394 -0.326 135 136 135 0
-11.3872 -8.4531 -40.5433 0.826 -0.459 -0.325 68 65 59 0
-11.2793 -8.2844 -40.5049 0.848 -0.419 -0.326 227 216 198 0
-23.0810 29.6108 -42.4538 0.643 -0.763 -0.067 231 221 207 0
-18.7132 27.8623 -41.2412 0.435 -0.893 -0.113 230 219 204 0
-13.0709 25.7583 -39.6685 0.732 -0.206 0.650 227 215 198 0
-13.1615 26.0590 -39.6831 0.770 -0.086 0.632 227 211 196 0
-13.6096 26.7900 -39.7854 0.818 0.356 0.452 160 131 124 0
-13.7359 27.1112 -39.8097 0.818 0.356 0.452 156 121 117 0
-13.2403 27.1353 -39.6632 0.804 0.362 0.472 153 115 113 0
-5.1672 23.9940 -37.4182 0.598 -0.773 0.211 130 88 89 0
-4.9113 24.1136 -37.3383 0.551 -0.736 0.393 127 84 85 0
-4.4884 24.3948 -37.2029 0.589 -0.656 0.471 118 72 74 0
-1.6800 23.4870 -36.4145 0.452 -0.562 0.693 112 62 66 0
-1.2393 24.2243 -36.2556 0.431 -0.597 0.677 102 48 61 0
3.2369 25.4608 -34.8917 0.723 -0.677 -0.140 109 37 48 0
3.1532 25.7442 -34.9049 0.606 -0.795 0.016 109 38 46 0
4.3855 26.7337 -34.5035 0.461 -0.819 0.343 113 37 45 0
4.4135 28.1613 -34.4381 0.907 -0.159 0.389 117 44 55 0
4.0535 28.6119 -34.5258 0.817 -0.164 0.553 116 43 54 0
4.8751 28.3788 -34.2939 -0.012 -0.722 0.692 116 43 54 0
7.8849 29.0053 -33.3850 0.857 -0.439 0.270 119 48 62 0
9.4194 34.4048 -32.7183 0.656 -0.014 0.755 118 40 55 0
8.6629 35.6749 -32.8896 0.850 -0.163 0.501 113 35 49 0
8.7537 36.1230 -32.8450 0.501 0.409 0.763 111 34 50 0
10.1140 35.4416 -32.4728 0.340 -0.021 0.940 105 30 46 0
12.3471 39.7286 -31.6455 0.684 -0.640 0.349 73 11 22 0
7.6241 52.9962 -32.5014 0.851 -0.502 0.155 67 39 38 0
7.7361 53.1984 -32.4604 0.851 -0.502 0.155 68 42 41 0
7.7604 53.4761 -32.4422 0.984 0.175 0.032 73 47 46 0
1.9422 64.3265 -33.7164 0.516 -0.533 0.670 208 199 182 0
1.6706 65.9150 -33.7326 0.821 -0.478 -0.313 212 200 183 0
12.9919 59.0126 -30.6844 0.748 -0.422 -0.513 210 201 187 0
20.5604 59.5716 -28.4395 0.383 0.224 0.896 210 198 184 0
17.1823 65.4150 -29.1977 0.787 -0.606 0.117 204 192 180 0
26.4595 58.4842 -26.7508 0.153 -0.941 -0.302 203 190 173 0
32.9220 53.9031 -25.0365 0.340 -0.487 0.805 196 187 170 0
19.2899 73.3036 -28.2631 0.990 0.097 0.101 199 183 168 0
17.9192 76.0212 -28.5568 0.642 0.334 0.690 195 179 163 0
19.3620 95.3599 -27.3592 0.799 0.528 0.287 176 163 145 0
29.2925 84.3500 -24.8837 0.874 0.376 0.309 177 158 144 0
36.7643 74.6216 -23.0790 0.285 -0.234 0.930 174 155 140 0
36.8549 74.8222 -23.0444 0.272 -0.253 0.928 175 154 140 0
26.1995 92.6315 -25.4606 0.294 -0.889 0.352 177 158 140 0
36.5895 78.3711 -22.9803 0.358 -0.933 0.026 170 154 138 0
37.4226 78.0856 -22.7471 0.767 -0.443 0.464 166 151 132 0
37.6276 79.5252 -22.6292 0.657 -0.638 -0.401 163 145 130 0
-11.9337 -9.0957 -40.9409 0.819 -0.474 -0.324 255 255 255 0
-11.5700 -8.5956 -40.8140 0.859 -0.394 -0.326 135 135 135 0
-11.4673 -8.4257 -40.7771 0.821 -0.462 -0.337 68 65 59 0
-11.3523 -8.2580 -40.7366 0.845 -0.426 -0.325 226 215 197 0
-18.6989 27.8955 -41.4964 0.492 -0.780 -0.388 230 220 203 0
-14.1115 26.8062 -40.1842 0.911 -0.254 0.326 192 171 159 0
-14.1867 27.1037 -40.1948 0.836 0.293 0.464 157 130 123 0
-13.4108 26.9954 -39.9699 0.979 0.060 0.197 154 121 117 0
-12.9958 27.0574 -39.8449 0.845 0.391 0.365 151 113 112 0
-13.8505 27.7305 -40.0711 0.878 0.077 0.473 143 101 102 0
-4.7921 24.0929 -37.5379 0.470 -0.615 0.633 128 85 86 0
-4.5256 24.4510 -37.4452 0.538 -0.685 0.491 118 72 74 0
-2.9187 23.8993 -36.9922 0.485 -0.625 0.612 115 66 69 0
-3.7327 24.5466 -37.2074 0.540 -0.832 0.124 112 63 66 0
-2.9364 24.3924 -36.9782 0.507 -0.856 0.100 107 57 61 0
-1.0489 24.4058 -36.4203 0.823 -0.454 0.341 99 46 55 0
1.4738 26.4562 -35.5954 0.285 -0.664 0.692 108 38 49 0
3.3681 25.6667 -35.0668 0.608 -0.793 -0.037 107 37 47 0
4.4951 25.7610 -34.7303 0.429 -0.774 0.465 108 37 45 0
4.6154 25.9315 -34.6881 0.468 -0.753 0.462 109 37 45 0
5.1408 27.0648 -34.4888 0.884 -0.384 0.268 110 38 49 0
4.1737 28.5845 -34.7151 0.778 -0.209 -0.593 118 42 54 0
5.0626 28.3119 -34.4632 0.542 -0.838 0.069 117 42 54 0
5.3734 28.8571 -34.3502 0.544 -0.576 0.610 114 41 55 0
6.0018 28.9709 -34.1602 0.271 -0.393 0.879 107 35 48 0
7.8233 29.3263 -33.6084 0.845 -0.447 0.295 114 44 55 0
8.0035 29.4575 -33.5501 0.847 -0.452 0.280 110 39 53 0
8.0754 29.6548 -33.5212 0.132 -0.915 0.382 112 42 55 0
8.4304 29.9192 -33.4060 0.302 -0.906 0.296 111 40 53 0
9.0005 35.2405 -33.0302 0.885 -0.454 0.102 115 37 51 0
8.8185 35.6182 -33.0692 0.863 -0.338 -0.376 112 34 48 0
10.2823 35.3749 -32.6464 0.259 -0.223 0.940 108 32 45 0
10.7420 35.8136 -32.4936 0.163 -0.886 0.433 111 35 45 0
10.9886 35.8939 -32.4176 0.202 -0.888 0.413 131 55 65 0
11.3953 36.1135 -32.2889 0.328 -0.867 0.376 105 29 41 0
12.3930 39.4877 -31.8628 0.349 -0.926 0.146 78 15 25 0
12.4105 39.7347 -31.8480 0.678 -0.652 0.340 77 14 25 0
8.6886 48.0960 -32.6210 -0.252 -0.942 0.222 61 15 24 0
8.9853 49.8592 -32.4646 0.757 0.631 -0.167 62 20 25 0
0.9456 65.3206 -34.2360 0.983 0.181 0.012 207 198 181 0
35.2174 62.4676 -24.2265 0.679 -0.677 -0.283 189 177 155 0
37.1266 74.5057 -23.1934 0.357 -0.290 0.888 174 155 138 0
37.2257 74.6920 -23.1568 0.362 -0.293 0.885 174 155 138 0
37.2032 75.0695 -23.1487 0.143 -0.493 0.858 173 154 137 0
25.5445 94.1960 -25.8459 0.679 -0.448 -0.581 173 155 137 0
-11.8965 -9.0892 -41.1413 0.807 -0.502 -0.313 255 255 255 0
-11.6462 -8.5690 -41.0472 0.859 -0.394 -0.326 136 136 136 0
-11.5481 -8.3980 -41.0116 0.821 -0.462 -0.337 68 65 58 0
-11.4591 -8.2254 -40.9786 0.838 -0.436 -0.328 226 215 197 0
-9.2124 -8.0713 -40.3056 0.728 -0.662 -0.179 232 218 200 0
-13.1575 23.8262 -40.2663 0.745 -0.492 -0.451 236 227 212 0
-10.2229 23.2463 -39.4168 0.554 -0.722 0.415 236 226 211 0
-9.9617 23.3755 -39.3343 0.527 -0.724 0.446 233 224 209 0
-14.2985 26.4111 -40.5070 0.930 -0.273 0.248 229 217 201 0
-14.1763 26.6147 -40.4629 0.922 -0.270 0.277 226 214 198 0
-14.0297 26.8067 -40.4121 0.911 -0.254 0.326 199 181 168 0
-13.9733 27.0416 -40.3865 0.911 -0.254 0.326 157 132 124 0
-13.4203 27.0394 -40.2223 0.985 0.059 0.164 152 121 115 0
-13.1828 27.1868 -40.1462 0.944 0.240 0.226 149 113 111 0
-13.7987 27.7455 -40.3079 0.884 0.066 0.464 143 102 102 0
-5.3825 24.1738 -37.9441 0.487 -0.868 -0.093 132 90 91 0
-4.4179 23.9473 -37.6663 0.395 -0.607 0.690 128 86 87 0
-2.6064 23.5410 -37.1437 0.772 -0.009 0.635 117 72 73 0
-3.6771 24.3131 -37.4324 0.453 -0.829 0.328 115 67 67 0
-3.7467 24.5916 -37.4425 0.320 -0.944 -0.076 113 65 67 0
-0.5635 24.6764 -36.4940 0.800 -0.581 0.149 99 46 53 0
-0.7053 24.9906 -36.5242 0.747 -0.663 -0.044 95 42 50 0
7.8907 29.5698 -33.7976 0.929 -0.337 0.155 108 38 50 0
9.8781 30.9901 -33.1535 0.714 -0.181 0.676 110 42 56 0
9.7676 34.5172 -33.0524 0.811 0.295 0.505 114 33 49 0
9.0371 35.2646 -33.2410 0.885 -0.454 0.102 113 32 49 0
8.8934 35.8712 -33.2606 0.865 -0.345 -0.364 111 30 45 0
9.2619 35.8732 -33.1511 0.807 -0.590 0.005 110 30 43 0
10.5208 35.2595 -32.8005 0.245 -0.245 0.938 109 30 42 0
11.1335 35.8422 -32.5965 0.201 -0.886 0.417 133 57 65 0
10.3515 37.4142 -32.7690 0.791 0.249 0.558 94 23 34 0
10.5830 38.2803 -32.6674 0.759 -0.033 -0.650 84 17 26 0
10.5353 38.5742 -32.6704 0.743 -0.045 -0.668 83 16 25 0
12.4976 39.7229 -32.0441 0.678 -0.652 0.340 78 16 27 0
12.6189 39.8918 -32.0016 0.585 -0.671 0.456 81 21 31 0
11.9785 40.9031 -32.1534 0.852 -0.329 -0.406 73 13 24 0
12.1718 41.2834 -32.0816 0.981 -0.178 -0.075 70 10 22 0
9.0383 47.8736 -32.7620 -0.268 -0.952 0.150 59 16 23 0
10.8470 46.6819 -32.2701 0.103 -0.916 -0.389 61 17 24 0
8.7625 49.8194 -32.7700 0.767 0.523 -0.371 62 21 25 0
5.4533 60.2920 -33.3552 0.708 -0.698 0.107 205 193 178 0
5.6146 60.4639 -33.3007 0.708 -0.698 0.107 205 194 178 0
5.3316 61.0429 -33.3628 0.214 -0.570 0.794 205 196 179 0
-0.5943 68.1881 -34.8514 0.472 -0.022 0.881 210 198 182 0
-0.5833 68.8690 -34.8222 0.619 0.241 0.748 211 199 182 0
-1.2807 69.8738 -34.9912 0.913 0.360 0.192 211 199 183 0
28.2530 57.4775 -26.6913 0.170 -0.903 -0.394 199 186 170 0
33.9552 56.7857 -25.0241 0.731 0.046 -0.680 193 177 162 0
33.9724 57.0524 -25.0089 0.722 0.004 -0.691 195 179 164 0
19.8728 92.4235 -27.8533 0.147 -0.842 0.519 180 168 152 0
20.0931 92.5044 -27.7848 0.147 -0.842 0.519 179 167 151 0
21.1570 92.1487 -27.4824 0.882 0.471 -0.006 179 164 149 0
34.1876 76.0406 -24.2242 0.412 0.286 0.865 178 160 146 0
24.2625 97.1835 -26.3690 0.815 -0.095 -0.572 170 154 136 0
-12.0775 -9.0454 -41.4055 0.813 -0.480 -0.330 255 255 255 0
-11.6291 -8.3704 -41.2467 0.821 -0.462 -0.337 67 64 58 0
-11.5367 -8.1981 -41.2128 0.838 -0.436 -0.328 225 214 195 0
-9.4272 -8.0183 -40.5761 0.752 -0.620 -0.224 231 218 200 0
-12.9729 23.7796 -40.4607 0.906 -0.183 -0.381 235 226 211 0
-10.0100 23.4345 -39.5886 0.564 -0.785 0.254 233 224 209 0
-14.2031 26.4052 -40.7311 0.955 -0.249 0.165 229 217 201 0
-14.1087 26.6219 -40.6949 0.946 -0.287 0.152 227 215 199 0
-13.9520 26.8092 -40.6412 0.941 -0.285 0.183 203 186 173 0
-13.8614 27.0278 -40.6061 0.940 -0.282 0.190 157 132 125 0
-13.7623 27.2425 -40.5686 0.938 -0.304 0.169 151 121 115 0
-12.5010 26.8987 -40.2046 0.648 -0.720 -0.248 149 113 111 0
-3.6802 24.5965 -37.6555 0.461 -0.718 0.521 111 65 66 0
-3.5033 24.7524 -37.5969 0.461 -0.718 0.521 108 61 64 0
-3.2178 24.8534 -37.5079 0.687 -0.566 0.456 107 60 63 0
-3.0403 25.0082 -37.4492 0.303 -0.881 0.362 104 57 61 0
1.7849 25.4051 -35.9936 0.578 -0.084 0.812 103 42 56 0
3.3289 28.4228 -35.4210 0.967 0.238 -0.086 115 42 57 0
4.9853 27.7159 -34.9525 0.958 0.061 -0.281 117 40 56 0
5.8967 28.3923 -34.6553 0.246 -0.969 0.032 116 39 55 0
7.6076 29.5443 -34.1019 0.737 -0.502 -0.452 105 34 45 0
7.7442 29.7030 -34.0552 0.737 -0.502 -0.452 107 37 47 0
10.0245 30.9414 -33.3285 0.715 -0.198 0.671 108 39 55 0
9.0718 35.2900 -33.4524 0.885 -0.457 0.087 112 31 48 0
8.7334 35.7749 -33.5356 0.833 -0.551 0.057 111 30 46 0
11.0016 35.7317 -32.8598 0.269 -0.881 0.389 111 33 43 0
10.4957 37.3627 -32.9507 0.791 0.249 0.558 93 22 35 0
10.1608 38.1184 -33.0228 0.466 -0.133 0.875 87 17 28 0
12.6023 39.6978 -32.2353 0.546 -0.663 0.512 76 14 25 0
12.0663 40.8911 -32.3513 0.648 -0.724 -0.237 72 12 22 0
12.1866 41.3275 -32.2993 0.982 -0.155 -0.110 69 9 21 0
12.4384 41.3983 -32.2215 0.870 -0.481 -0.108 69 9 21 0
11.8704 42.1035 -32.3651 0.381 -0.909 0.171 70 8 21 0
12.0262 42.2497 -32.3131 0.461 -0.882 0.095 69 9 21 0
5.3714 60.4410 -33.6286 0.629 -0.698 0.342 204 192 176 0
-1.0293 68.6760 -35.2360 0.930 0.368 -0.017 209 199 182 0
-2.0651 70.6977 -35.4706 0.881 0.439 0.176 210 198 182 0
17.1753 74.7589 -29.5749 0.869 -0.207 -0.451 196 183 167 0
19.7125 93.1818 -28.1369 -0.000 -0.899 0.438 180 168 152 0
17.6924 98.6355 -28.5387 0.891 0.419 -0.173 178 162 147 0
30.1408 84.5173 -25.3426 0.336 0.279 0.900 177 158 142 0
37.5705 77.4804 -23.3838 0.640 -0.743 0.194 173 153 136 0
39.3886 76.2626 -22.8858 0.320 -0.823 -0.470 165 149 130 0
-11.7103 -8.3426 -41.4824 0.821 -0.462 -0.337 67 64 58 0
-11.6540 -8.1636 -41.4591 0.825 -0.446 -0.345 226 216 195 0
-9.9966 -8.0871 -40.9586 0.948 -0.254 -0.190 230 219 199 0
-9.5440 -7.9832 -40.8190 0.749 -0.627 -0.216 231 219 201 0
-3.9504 -2.4069 -38.9391 0.921 0.163 -0.353 235 227 214 0
-12.9163 24.5551 -40.6636 0.881 -0.340 -0.330 236 224 210 0
-10.0794 23.5032 -39.8495 0.566 -0.791 0.233 234 225 209 0
-14.0583 26.3762 -40.9412 0.996 0.029 0.089 229 217 201 0
-13.9620 26.5918 -40.9045 0.998 -0.002 0.064 227 215 199 0
-13.9504 26.8477 -40.8919 0.998 0.004 0.063 211 195 182 0
-13.8641 27.0686 -40.8580 0.934 0.329 0.140 159 135 128 0
-13.9624 27.3780 -40.8765 0.932 0.334 0.143 151 120 114 0
-12.7006 27.0342 -40.5099 0.630 -0.738 -0.241 148 112 110 0
-12.8312 27.3582 -40.5375 0.273 -0.459 0.846 144 104 104 0
-3.7425 24.6657 -37.9048 0.357 -0.828 0.433 112 66 68 0
-3.3503 24.7139 -37.7853 0.461 -0.718 0.521 110 65 67 0
-3.1115 24.8382 -37.7092 0.709 -0.546 0.446 106 61 63 0
-2.9105 24.9810 -37.6437 0.292 -0.882 0.369 102 57 61 0
1.2680 24.0466 -36.4224 0.260 -0.965 0.036 97 44 52 0
2.0360 25.3102 -36.1465 0.558 -0.126 0.820 102 41 53 0
