ply
format ascii 1.0
element vertex 833
property float x
property float y
property float z
property float nx
property float ny
property float nz
property uchar diffuse_red
property uchar diffuse_green
property uchar diffuse_blue
property uchar class
end_header
-11.3700 29.8939 -53.7067 0.409 -0.866 -0.287 225 217 211 0
-10.8766 29.8973 -53.5216 0.466 -0.806 -0.364 223 214 209 0
-10.4974 29.9623 -53.3821 0.421 -0.852 -0.312 223 212 208 0
-10.3968 30.1813 -53.3542 0.986 -0.145 -0.084 222 211 206 0
-10.1721 30.6067 -53.2890 0.901 -0.373 -0.222 217 206 200 0
-9.0746 33.8814 -53.0247 0.428 0.422 0.800 133 114 111 0
-9.2966 34.2978 -53.1269 0.500 0.398 0.769 127 108 104 0
-6.1133 33.2175 -51.8825 0.279 -0.513 -0.812 119 89 94 0
7.8974 36.2082 -46.7554 0.396 -0.497 0.772 73 35 26 0
7.4482 42.9921 -47.2305 0.589 0.626 0.511 138 117 40 0
6.7462 43.8463 -47.5327 0.625 0.676 0.390 136 117 40 0
16.3210 36.9396 -43.6247 0.713 -0.155 0.683 128 108 38 0
16.2547 37.2588 -43.6640 0.260 -0.917 0.302 123 105 38 0
16.5874 37.2522 -43.5387 0.256 -0.873 0.416 116 99 32 0
14.6799 42.1264 -44.4753 0.168 -0.743 0.648 45 51 19 0
2.1757 63.9610 -50.1576 0.839 0.031 0.543 30 102 54 0
6.0668 62.5808 -48.6339 0.534 -0.778 0.331 37 108 55 0
6.4963 63.1904 -48.5001 0.679 -0.228 0.697 36 108 56 0
11.6574 68.2991 -46.7924 0.945 -0.322 0.052 40 110 58 0
13.3262 67.1340 -46.1130 0.980 -0.146 -0.134 40 109 57 0
15.7530 65.4312 -45.1247 0.910 -0.327 0.256 41 112 61 0
11.8439 77.4148 -47.1340 0.728 0.272 -0.629 73 116 92 0
28.1565 74.2564 -40.8647 0.943 0.327 -0.065 187 180 174 0
41.3556 68.8542 -35.6633 0.822 0.151 0.550 178 169 162 0
45.6266 68.8517 -34.0592 0.030 -0.991 -0.130 176 162 151 0
36.5350 88.7969 -38.3745 0.867 -0.311 -0.389 174 161 147 0
40.9373 82.5707 -36.4399 0.569 -0.685 -0.455 112 102 95 0
40.8321 83.1816 -36.5070 0.761 -0.562 -0.324 51 50 49 0
41.2802 82.7327 -36.3184 0.355 -0.794 -0.494 246 247 245 0
41.4595 82.7974 -36.2540 0.362 -0.785 -0.502 255 254 255 0
41.6409 82.8573 -36.1886 0.354 -0.795 -0.493 255 255 255 0
-11.5103 -8.1979 -52.2585 0.930 -0.269 -0.249 255 255 255 0
-5.0792 24.1522 -51.3302 -0.263 -0.731 0.629 228 223 219 0
-17.9502 32.6818 -56.5813 0.814 0.103 0.572 227 219 215 0
-12.0364 30.0227 -54.2269 0.132 -0.990 -0.044 225 219 213 0
-11.2169 30.1247 -53.9224 0.475 -0.824 -0.308 223 216 210 0
-10.8813 30.2148 -53.8000 0.425 -0.878 -0.221 222 212 208 0
-10.3124 30.4494 -53.5962 0.883 -0.333 -0.330 220 210 206 0
-10.3375 30.7398 -53.6191 0.729 -0.647 -0.224 220 210 205 0
-8.7810 33.7487 -53.1712 0.713 0.383 0.587 164 146 144 0
-9.0381 34.1858 -53.2884 0.621 0.414 0.666 137 120 116 0
-9.2574 34.6021 -53.3905 0.654 0.400 0.643 130 111 108 0
-9.0137 34.7398 -53.3049 0.922 0.343 0.179 127 104 104 0
-6.9577 33.7740 -52.4845 0.319 -0.473 -0.822 124 95 99 0
-4.7284 33.2442 -51.6188 0.113 -0.647 -0.754 114 81 88 0
-4.2111 33.2010 -51.4217 0.070 -0.694 -0.717 115 81 88 0
3.5477 34.4505 -48.5522 0.383 -0.905 -0.185 92 47 51 0
7.7259 42.8241 -47.3636 0.593 0.625 0.507 167 144 46 0
6.8261 43.8372 -47.7500 0.624 0.675 0.393 166 144 47 0
15.8685 37.0922 -44.0260 0.879 -0.300 0.370 165 144 48 0
16.1465 37.1320 -43.9230 0.740 -0.453 0.498 163 141 49 0
16.7032 38.5437 -43.7783 0.492 -0.702 0.516 120 106 36 0
16.7065 38.8102 -43.7894 0.631 -0.426 0.648 105 92 26 0
16.8043 38.9979 -43.7612 0.631 -0.426 0.648 85 74 16 0
2.1392 64.0721 -50.4553 0.821 0.064 0.567 29 101 53 0
10.7094 69.0850 -47.4540 0.735 -0.533 -0.419 39 110 54 0
15.8244 64.3919 -45.3068 0.756 -0.650 -0.080 40 111 57 0
16.4478 64.3741 -45.0708 0.508 -0.845 0.166 42 114 60 0
15.8546 65.3976 -45.3420 0.903 -0.346 0.256 41 114 60 0
10.8455 75.6340 -47.7059 0.549 -0.835 0.040 63 109 84 0
10.5388 77.5467 -47.9102 0.885 0.220 -0.410 66 115 89 0
12.3776 75.7026 -47.1310 0.830 0.416 -0.371 65 114 88 0
11.4144 77.2600 -47.5666 0.831 0.416 -0.370 68 116 88 0
11.8656 77.4841 -47.4067 0.774 0.371 -0.513 77 118 96 0
40.4707 70.4565 -36.2889 0.632 0.446 0.634 178 167 161 0
40.9127 82.7449 -36.6911 0.556 -0.681 -0.477 112 101 94 0
41.0834 82.8281 -36.6306 0.580 -0.677 -0.453 51 50 49 0
41.2579 82.9033 -36.5682 0.349 -0.800 -0.488 246 247 245 0
41.4410 82.9613 -36.5018 0.337 -0.795 -0.505 255 255 255 0
41.2847 83.6758 -36.5939 0.671 -0.608 -0.424 254 255 255 0
-10.4056 29.1679 -53.8326 0.441 -0.892 0.103 224 219 214 0
-10.5264 30.0571 -53.9206 0.404 -0.872 -0.275 223 215 209 0
-10.2225 30.1632 -53.8104 0.404 -0.872 -0.275 223 214 209 0
-8.9846 34.4810 -53.5462 0.926 0.313 0.213 150 131 130 0
-8.0524 34.2006 -53.1796 0.313 -0.482 -0.818 135 113 114 0
-7.6608 34.2453 -53.0333 0.320 -0.471 -0.822 129 102 107 0
-4.8303 33.6276 -51.9312 0.073 -0.681 -0.728 112 81 87 0
0.2319 33.4425 -50.0039 0.431 -0.483 -0.762 101 60 68 0
-0.8608 35.2563 -50.5041 0.517 -0.852 0.084 94 54 62 0
-0.8261 35.5114 -50.5030 0.685 -0.721 -0.106 95 55 62 0
9.4707 35.4183 -46.5961 0.400 -0.463 0.791 77 44 30 0
9.2495 38.2984 -46.8166 0.593 0.619 0.515 145 117 48 0
9.9983 40.2132 -46.6237 0.304 0.347 0.887 185 158 45 0
9.2566 41.0837 -46.9461 0.454 0.496 0.740 185 158 45 0
8.4627 42.0012 -47.2905 0.609 0.575 0.547 183 158 45 0
14.3472 38.1066 -44.8755 0.924 -0.380 0.031 181 159 47 0
14.3490 38.3756 -44.8876 0.916 -0.402 -0.009 180 158 47 0
13.6899 39.1836 -45.1757 0.994 0.071 -0.082 179 156 48 0
17.2128 38.1695 -43.7924 0.707 -0.296 0.643 157 138 45 0
17.2437 38.4115 -43.7922 0.773 -0.157 0.615 153 134 48 0
17.2307 38.6911 -43.8104 0.768 -0.300 0.566 141 124 47 0
16.9298 40.3042 -44.0010 0.037 -0.811 0.584 67 75 31 0
9.0119 54.8659 -47.6929 0.355 -0.303 0.884 24 96 47 0
2.1901 63.3936 -50.6831 0.422 -0.132 0.897 27 101 50 0
15.0526 64.6518 -45.8679 0.973 -0.106 -0.206 37 109 54 0
15.0754 64.9732 -45.8745 0.976 -0.106 -0.191 38 110 56 0
10.9170 75.6419 -47.9568 0.401 -0.890 -0.218 65 111 88 0
12.6928 80.0819 -47.4945 0.477 -0.719 -0.505 183 189 179 0
13.3749 81.2006 -47.2891 0.478 -0.647 0.594 192 189 179 0
32.8211 81.9037 -39.9523 0.115 -0.381 0.917 180 169 165 0
33.0254 81.9639 -39.8777 0.294 -0.266 0.918 179 168 164 0
40.8158 82.6473 -36.9576 0.414 -0.760 -0.501 172 156 143 0
40.8956 82.9050 -36.9396 0.556 -0.681 -0.477 111 101 94 0
41.0608 82.9992 -36.8814 0.556 -0.681 -0.477 51 50 49 0
41.4293 83.1124 -36.7471 0.337 -0.795 -0.505 254 255 255 0
-13.2478 30.4859 -55.2396 0.399 -0.812 -0.426 226 219 214 0
-10.3943 29.2004 -54.0907 0.607 -0.791 0.076 226 219 213 0
-9.9645 29.2371 -53.9289 0.475 -0.879 0.042 226 218 213 0
-9.8314 29.4366 -53.8879 0.482 -0.875 0.042 224 216 210 0
-13.5739 32.3587 -55.4548 0.476 -0.809 -0.346 222 214 208 0
-12.3773 31.9693 -54.9803 0.734 -0.603 -0.313 220 212 206 0
-7.7465 34.6243 -53.3463 0.342 -0.409 -0.846 133 106 111 0
-0.1758 33.7511 -50.4216 0.420 -0.488 -0.765 103 61 70 0
-0.0060 33.9140 -50.3649 0.411 -0.451 -0.793 103 62 71 0
1.6399 34.4679 -49.7652 -0.237 -0.917 0.320 95 53 62 0
3.6993 34.4381 -48.9797 0.584 -0.811 -0.020 95 53 57 0
2.1109 36.0736 -49.6639 0.080 -0.836 -0.542 92 51 53 0
11.2270 35.4945 -46.1652 0.960 0.276 -0.053 96 61 19 0
8.6078 39.1182 -47.3385 0.639 0.669 0.379 179 153 50 0
13.8328 39.1192 -45.3493 0.307 -0.527 0.793 188 165 49 0
17.6256 38.1428 -43.8579 0.794 -0.075 0.603 170 150 48 0
17.5167 38.7711 -43.9299 0.729 -0.348 0.589 152 137 44 0
16.2967 43.4191 -44.6203 0.486 0.335 0.807 37 94 45 0
15.4743 45.3009 -45.0248 0.093 -0.239 0.967 29 94 44 0
7.5174 55.6927 -48.5592 0.448 -0.090 0.890 20 96 43 0
11.8565 52.2471 -46.7398 -0.138 -0.882 0.450 23 97 47 0
6.4405 59.3644 -49.1477 0.781 0.032 0.623 27 101 50 0
10.8470 75.8189 -48.2699 0.410 -0.886 -0.218 64 111 88 0
10.7356 76.3370 -48.3375 0.280 -0.828 0.485 66 110 87 0
12.3151 80.2634 -47.9270 0.465 -0.705 -0.536 175 181 171 0
14.3937 79.9855 -47.1221 0.896 -0.374 -0.238 192 189 179 0
13.7558 81.2096 -47.4244 0.520 -0.414 0.748 192 188 180 0
24.5738 77.4660 -43.1239 0.969 0.248 -0.007 191 183 176 0
25.1084 77.8543 -42.9393 0.212 -0.907 -0.364 190 180 174 0
31.4327 84.7544 -40.8670 0.699 0.441 0.563 179 169 164 0
41.0682 83.1132 -37.1188 0.541 -0.696 -0.473 50 50 50 0
41.4258 83.2481 -36.9892 0.348 -0.785 -0.513 254 255 254 0
41.3060 83.8939 -37.0662 0.675 -0.635 -0.376 254 255 255 0
-8.6569 -3.7660 -52.0471 0.544 -0.684 0.486 233 220 212 0
-9.8985 29.2396 -54.1642 0.472 -0.881 0.036 227 218 213 0
-9.6509 29.3757 -54.0763 0.472 -0.881 0.036 225 216 211 0
-13.8409 32.5497 -55.8366 0.773 -0.607 0.185 221 214 209 0
-9.3454 35.9356 -54.2859 0.083 -0.626 -0.775 134 108 112 0
-0.7087 34.1414 -50.8937 0.504 -0.405 -0.763 104 63 74 0
-0.8142 34.4855 -50.9511 0.526 -0.356 -0.773 105 63 75 0
0.0150 34.2188 -50.6208 0.387 -0.887 0.254 104 62 73 0
0.3549 35.3722 -50.5482 0.422 -0.906 0.019 96 55 64 0
2.6340 36.5904 -49.7372 0.271 -0.484 0.832 94 54 55 0
3.5979 36.7473 -49.3764 0.583 -0.073 0.809 86 50 45 0
2.7181 37.6476 -49.7576 0.701 0.131 0.701 86 50 44 0
5.2876 37.2030 -48.7529 0.872 0.410 0.269 86 49 37 0
8.5358 35.1246 -47.4073 0.758 -0.154 0.634 86 50 36 0
15.2423 36.6845 -44.9201 0.482 -0.516 0.708 193 174 47 0
15.4904 36.7512 -44.8286 0.467 -0.539 0.701 193 174 47 0
17.0519 35.7581 -44.1820 0.904 -0.417 0.099 194 174 48 0
17.7952 38.8567 -44.0519 0.652 -0.650 0.391 156 138 42 0
16.8083 42.7397 -44.6226 0.543 0.354 0.761 38 97 46 0
16.5206 43.2772 -44.7593 0.409 0.223 0.885 37 96 45 0
15.8695 44.4282 -45.0656 0.596 0.353 0.721 34 95 44 0
15.5915 45.2541 -45.2130 0.280 -0.565 0.776 30 94 47 0
15.6937 45.4508 -45.1837 0.691 0.434 0.578 28 95 46 0
14.8316 48.3006 -45.6552 0.858 0.203 0.471 21 95 42 0
6.5303 59.0134 -49.3629 0.924 0.233 0.304 26 99 49 0
6.3832 59.4917 -49.4429 0.883 0.137 0.449 26 100 49 0
2.4215 64.3788 -51.2011 0.208 -0.141 0.968 28 102 46 0
27.7822 74.4600 -42.0042 0.419 -0.631 -0.652 189 178 174 0
26.2436 85.0375 -43.1189 0.861 0.333 -0.384 183 174 167 0
27.9393 85.6538 -42.5011 0.559 0.430 0.709 183 176 165 0
34.9708 77.7622 -39.4194 0.836 0.497 0.232 179 170 162 0
31.8531 84.1687 -40.9304 0.699 0.441 0.563 178 169 162 0
36.0048 78.7490 -39.0730 0.859 0.036 0.511 175 168 159 0
40.7862 82.9587 -37.4540 0.414 -0.760 -0.501 171 154 146 0
41.0373 83.3010 -37.3750 0.560 -0.693 -0.454 50 50 50 0
41.0874 84.0326 -37.3922 0.781 -0.528 -0.334 254 255 255 0
41.2730 84.0883 -37.3240 0.775 -0.537 -0.333 254 255 255 0
-10.7554 -8.5035 -52.8324 0.960 -0.166 -0.223 255 255 255 0
-13.9174 32.6339 -56.1414 0.734 -0.632 0.246 222 214 211 0
-12.2322 34.5385 -55.5910 0.810 -0.469 0.353 205 191 188 0
0.3993 33.4658 -50.6841 0.683 -0.729 0.050 104 64 75 0
0.3902 33.7443 -50.7018 0.283 -0.706 0.649 105 65 76 0
-0.0602 34.3128 -50.9038 0.541 -0.837 0.078 104 64 75 0
-0.4737 35.1371 -51.1046 0.639 -0.769 0.029 101 67 73 0
2.7401 36.2865 -49.9285 0.137 -0.825 0.548 93 54 55 0
2.8298 36.5013 -49.9050 0.172 -0.805 0.568 93 55 54 0
9.2698 33.8439 -47.2958 0.881 -0.373 -0.291 90 51 46 0
8.9688 34.3249 -47.4360 0.893 -0.402 -0.202 90 52 44 0
8.8989 34.6414 -47.4789 0.920 -0.365 -0.143 89 52 44 0
8.3258 35.3241 -47.7338 0.448 -0.679 0.582 89 53 43 0
15.6569 36.9332 -44.9996 0.500 -0.596 0.628 201 180 51 0
13.0765 39.2899 -46.1108 0.908 0.259 0.331 199 178 49 0
13.8115 38.9674 -45.8120 0.893 -0.326 0.309 198 177 48 0
14.1021 39.0038 -45.7022 0.929 -0.024 0.370 198 177 48 0
17.6310 37.7083 -44.2807 0.610 -0.639 0.468 192 171 42 0
16.2399 43.5845 -45.1142 0.647 0.658 0.386 38 99 47 0
16.8528 43.6038 -44.8798 0.483 0.321 0.815 35 98 46 0
15.7414 45.1777 -45.3869 0.351 -0.304 0.886 31 97 46 0
15.5507 45.6400 -45.4836 0.657 0.394 0.643 29 97 48 0
10.1957 53.9496 -47.9638 0.786 0.579 -0.214 20 97 45 0
2.4224 64.4543 -51.4846 0.199 -0.284 0.938 26 103 46 0
2.8739 64.3665 -51.3067 0.193 -0.286 0.939 30 105 48 0
2.6559 64.9360 -51.4194 0.381 0.267 0.885 31 106 49 0
13.6371 66.1385 -47.2623 0.441 -0.830 0.343 34 113 58 0
15.1690 64.7653 -46.6039 0.626 -0.750 0.215 36 116 60 0
14.4379 65.9400 -46.9446 0.348 -0.752 0.560 38 117 62 0
15.4325 65.1631 -46.5229 0.599 -0.782 0.172 40 116 66 0
15.6758 65.2350 -46.4332 0.594 -0.785 0.177 42 116 68 0
15.9042 76.6815 -46.9282 0.932 -0.327 0.157 180 184 179 0
16.9834 76.4495 -46.5018 0.627 -0.084 0.774 186 188 181 0
25.2429 77.4828 -43.3816 0.131 -0.463 0.877 190 179 177 0
24.9078 87.6682 -44.0288 0.886 0.324 -0.331 184 175 168 0
34.4326 79.1627 -39.9370 0.896 0.445 -0.014 180 171 162 0
31.8892 83.8182 -41.1510 0.842 0.491 0.223 178 169 160 0
45.3469 67.0540 -35.1279 0.388 -0.572 -0.723 176 161 156 0
40.7713 83.1151 -37.7032 0.414 -0.760 -0.501 169 154 146 0
41.0247 83.4542 -37.6232 0.573 -0.686 -0.449 50 50 51 0
41.1175 84.1045 -37.6206 0.761 -0.562 -0.324 255 255 255 0
41.2059 84.3494 -37.5991 0.767 -0.539 -0.348 254 255 255 0
-10.9695 -8.4477 -53.1367 0.950 -0.232 -0.208 255 255 255 0
-11.3892 32.6618 -55.4390 0.770 -0.521 -0.368 216 207 203 0
-13.5861 35.6694 -56.4433 0.825 0.093 0.557 203 189 186 0
-0.2245 33.9156 -51.1963 0.282 -0.615 -0.736 106 69 79 0
-0.2878 34.5068 -51.2515 0.771 -0.590 -0.240 105 66 77 0
-0.3363 34.8148 -51.2862 0.798 -0.559 -0.225 102 67 76 0
-0.2600 35.3187 -51.2830 0.481 -0.493 -0.725 102 69 74 0
1.0347 34.7335 -50.7530 -0.003 -0.991 0.134 101 67 72 0
1.6202 34.6168 -50.5210 -0.149 -0.820 0.553 101 67 72 0
2.4753 34.5890 -50.1896 -0.144 -0.794 0.590 100 64 71 0
2.4067 34.9088 -50.2327 0.017 -0.976 0.219 100 64 69 0
2.1111 35.6601 -50.3859 0.239 -0.605 -0.759 98 62 66 0
8.3260 35.3712 -47.9728 0.104 -0.776 0.623 91 58 44 0
12.4828 37.9027 -46.5006 0.859 0.093 0.503 207 187 53 0
15.3483 36.9659 -45.3462 0.751 -0.181 0.635 206 187 51 0
15.2914 37.2788 -45.3844 0.401 -0.806 0.436 205 186 50 0
15.2210 37.6037 -45.4285 0.360 -0.547 0.756 204 184 48 0
13.9037 38.9445 -46.0066 0.889 -0.318 0.330 203 184 47 0
13.8976 39.2231 -46.0235 0.904 -0.306 0.299 203 183 47 0
12.7156 40.4668 -46.5443 0.888 -0.112 0.445 203 184 46 0
17.3553 39.6090 -44.7094 0.400 -0.808 0.432 183 161 48 0
15.7405 44.9488 -45.6105 0.442 0.413 0.796 36 100 47 0
15.8601 45.1293 -45.5737 0.328 -0.294 0.898 35 100 48 0
15.3216 48.2660 -45.9448 0.469 0.237 0.851 24 97 44 0
9.3820 54.7870 -48.5762 0.783 0.586 -0.208 20 98 46 0
4.3061 62.6872 -50.9461 0.788 0.273 -0.551 27 104 48 0
3.1234 64.9075 -51.5180 0.846 0.498 -0.193 30 105 49 0
15.3321 64.6631 -46.7945 0.501 -0.853 -0.145 36 117 63 0
15.7799 64.8509 -46.6315 0.533 -0.816 0.222 40 117 68 0
15.9642 64.9888 -46.5675 0.533 -0.816 0.222 42 115 69 0
12.7695 79.5914 -48.5605 0.822 -0.543 -0.169 171 180 176 0
15.8626 76.4470 -47.2033 0.989 0.052 -0.138 175 180 176 0
17.4611 77.4694 -46.6397 0.160 -0.894 0.418 188 188 180 0
17.9057 77.2728 -46.4579 0.459 -0.708 0.537 190 188 181 0
18.0207 77.5082 -46.4258 0.459 -0.708 0.536 190 187 180 0
25.4337 75.7811 -43.4755 0.076 -0.367 0.927 190 182 175 0
26.1274 76.6904 -43.2552 0.296 -0.377 0.878 189 178 175 0
23.7438 90.0496 -44.8705 0.889 0.322 -0.324 185 176 169 0
36.0669 79.2674 -39.5541 0.881 -0.307 0.361 178 169 160 0
34.8428 82.1709 -40.1776 -0.236 -0.951 0.201 176 166 157 0
38.7893 83.6810 -38.7335 0.957 0.224 0.183 175 162 152 0
40.7564 83.2718 -37.9531 0.414 -0.760 -0.501 169 154 144 0
41.0057 83.6199 -37.8751 0.578 -0.680 -0.450 50 50 50 0
41.1754 83.7067 -37.8141 0.356 -0.790 -0.499 247 247 244 0
41.1142 84.2412 -37.8656 0.761 -0.562 -0.324 255 255 255 0
41.1706 84.5490 -37.8598 0.853 -0.457 -0.251 254 255 255 0
-10.9154 -8.4480 -53.3351 0.953 -0.214 -0.213 255 255 255 0
-32.5018 12.4547 -62.8140 0.924 -0.151 0.352 234 226 223 0
7.4087 16.3925 -47.5551 0.662 -0.749 0.030 229 224 218 0
-10.3640 31.8335 -55.2652 0.987 0.023 -0.156 220 211 206 0
-14.3006 35.5464 -56.9885 0.771 0.359 0.526 209 198 196 0
-9.6492 36.2574 -55.2236 0.940 0.271 0.206 168 150 148 0
-1.1781 35.6943 -51.9104 0.377 -0.496 -0.782 100 68 76 0
0.9331 35.1225 -51.0617 -0.024 -0.980 0.199 100 67 74 0
2.2027 35.0930 -50.5681 -0.024 -1.000 -0.012 100 65 69 0
1.5660 36.3577 -50.8822 0.324 -0.540 -0.777 99 65 66 0
0.6821 37.2461 -51.2720 0.420 -0.307 -0.854 97 63 64 0
0.8983 37.3787 -51.1953 0.422 -0.307 -0.853 96 62 62 0
9.4903 37.5409 -47.8739 0.630 0.094 0.771 198 179 59 0
10.4675 37.6149 -47.4991 0.578 -0.116 0.808 204 187 56 0
15.0949 36.6865 -45.6562 0.818 0.055 0.572 210 193 52 0
14.8563 37.1443 -45.7730 0.733 -0.284 0.618 210 193 52 0
15.2724 37.0774 -45.6082 0.318 -0.793 0.519 208 192 50 0
15.4662 37.1882 -45.5390 0.397 -0.772 0.497 208 191 49 0
13.4793 39.0676 -46.4091 0.916 -0.125 0.380 207 191 47 0
13.6436 39.2083 -46.3528 0.589 -0.413 0.694 207 189 47 0
13.7279 39.4142 -46.3312 0.902 -0.151 0.405 206 188 45 0
3.6095 61.3548 -51.4205 0.769 0.609 -0.195 22 100 48 0
3.5769 61.7320 -51.4532 0.816 0.411 -0.406 24 100 48 0
2.9715 62.6631 -51.7374 0.831 0.461 -0.310 24 101 48 0
13.6002 65.2901 -47.7577 0.341 -0.919 -0.198 35 112 59 0
10.1776 73.5481 -49.5238 0.817 0.534 -0.219 52 109 80 0
12.6397 79.8553 -48.9052 0.922 -0.387 -0.012 169 179 172 0
16.9838 77.0303 -47.0711 0.996 -0.072 -0.058 185 186 179 0
18.0440 77.1903 -46.6688 0.289 -0.681 0.673 187 188 181 0
31.8776 83.6672 -41.6518 0.575 0.340 0.744 178 169 159 0
32.5780 83.3085 -41.3613 0.868 0.473 0.154 177 169 158 0
30.0685 87.9613 -42.5816 0.764 0.456 0.457 175 167 156 0
36.2534 79.0642 -39.7109 0.713 0.068 0.698 176 166 159 0
34.8729 82.2389 -40.4149 -0.234 -0.949 0.212 174 163 157 0
39.3707 82.7256 -38.6976 0.886 -0.424 -0.186 171 160 151 0
41.0854 84.4279 -38.1236 0.768 -0.553 -0.324 255 255 255 0
41.1901 84.6423 -38.0944 0.798 -0.486 -0.357 254 254 255 0
-10.8811 -8.4442 -53.5416 0.970 -0.075 -0.233 255 255 255 0
-11.8826 -8.0412 -53.9533 0.928 -0.287 -0.238 255 255 255 0
3.7807 17.8341 -49.2627 -0.152 -0.983 -0.103 229 224 218 0
-13.8879 35.3486 -57.0933 0.748 0.332 0.574 213 201 199 0
-14.0320 39.0047 -57.3482 0.033 -0.796 -0.604 171 153 150 0
-0.6785 35.6884 -51.9694 -0.211 -0.958 0.196 101 70 76 0
1.7006 34.6537 -50.9870 0.069 -0.994 0.086 102 69 76 0
2.1741 35.1584 -50.8301 -0.047 -0.998 -0.049 102 70 74 0
8.7052 33.5916 -48.2023 0.487 -0.872 -0.040 89 60 54 0
8.6069 34.1920 -48.2733 0.635 -0.137 0.760 94 62 53 0
8.7276 35.1738 -48.2797 0.138 -0.634 0.761 96 69 41 0
9.4832 37.3222 -48.1024 0.665 0.185 0.723 201 180 60 0
9.7065 37.7001 -48.0359 0.619 0.155 0.770 205 185 60 0
9.9948 37.7538 -47.9266 0.396 -0.091 0.914 206 188 59 0
17.1816 35.3289 -44.9970 0.653 -0.734 0.189 214 197 55 0
17.4151 35.6628 -44.9242 0.759 -0.585 0.285 211 195 51 0
17.8082 35.6054 -44.7681 0.645 -0.724 0.246 209 192 50 0
19.1371 34.7836 -44.2060 0.154 -0.772 0.617 209 193 48 0
13.8684 39.3518 -46.5056 0.895 -0.136 0.425 208 192 46 0
14.1030 39.4342 -46.4187 0.948 -0.108 0.299 208 192 46 0
15.0452 38.9325 -46.0246 0.136 -0.962 0.238 208 191 44 0
17.1798 42.0766 -45.3646 0.690 -0.440 0.575 153 152 68 0
17.3246 42.2280 -45.3165 0.678 -0.449 0.582 119 132 55 0
17.3713 42.4664 -45.3112 0.681 -0.429 0.594 79 106 39 0
16.3041 44.8452 -45.8560 0.718 0.499 0.484 39 102 48 0
20.5401 43.4983 -44.1337 0.814 -0.282 0.508 25 98 45 0
15.1810 64.6494 -47.3701 0.481 -0.877 -0.025 36 119 68 0
16.9027 63.0525 -46.6130 0.509 -0.841 0.180 36 119 68 0
17.1053 63.1649 -46.5403 0.640 -0.765 0.077 40 119 70 0
13.6203 79.1070 -48.7639 0.965 -0.217 -0.150 172 180 175 0
25.5035 74.7499 -43.9008 0.589 -0.769 -0.250 189 184 178 0
18.9248 86.5330 -47.1026 0.146 -0.721 0.678 191 182 173 0
19.3860 86.2836 -46.9095 0.116 -0.669 0.734 191 180 176 0
41.2403 60.2934 -36.9884 0.790 -0.490 -0.368 183 173 167 0
34.8545 73.8236 -40.2101 0.197 0.233 0.952 181 172 165 0
29.2966 84.7589 -42.9684 0.594 0.426 0.683 180 171 162 0
36.4404 78.8595 -39.8666 0.712 0.068 0.699 174 163 159 0
34.9491 82.6333 -40.6523 -0.231 -0.932 0.278 177 167 158 0
40.9685 83.9510 -38.3806 0.579 -0.680 -0.450 51 50 50 0
41.0792 84.5710 -38.3713 0.755 -0.568 -0.329 255 255 255 0
41.1752 84.8030 -38.3465 0.798 -0.486 -0.357 255 255 255 0
-10.9515 -8.4184 -53.7902 0.965 -0.127 -0.230 255 255 255 0
-12.1622 -1.9729 -54.6216 0.728 0.231 0.645 233 222 216 0
-11.5233 32.0145 -56.2592 0.653 -0.022 -0.757 222 212 210 0
-13.4938 36.0411 -57.2533 0.546 0.314 0.777 208 198 195 0
-13.6437 37.3147 -57.3826 0.813 0.562 0.152 193 183 182 0
-13.7022 37.6482 -57.4240 0.856 0.501 0.125 190 180 178 0
0.3416 36.1690 -51.8505 0.022 -0.970 0.242 103 71 76 0
0.6213 36.2591 -51.7461 -0.231 -0.970 0.074 103 71 75 0
10.0298 32.9575 -47.8838 0.905 -0.148 0.399 95 66 55 0
9.0166 35.0107 -48.3940 0.109 -0.643 0.758 100 72 39 0
9.3215 35.0561 -48.2773 0.109 -0.648 0.754 121 96 45 0
12.1317 35.1008 -47.1810 0.242 -0.759 0.605 203 183 60 0
10.7053 36.4463 -47.8134 0.782 -0.620 -0.058 206 186 58 0
17.7778 36.2036 -45.0345 0.268 -0.852 0.449 212 198 50 0
19.9209 34.7052 -44.1133 0.763 0.041 0.645 211 195 48 0
14.1502 39.7233 -46.6484 0.212 -0.958 0.191 210 194 46 0
15.4037 38.9611 -46.1159 0.123 -0.952 0.280 211 195 44 0
15.9479 38.7814 -45.8931 0.014 -0.960 0.279 209 193 44 0
17.2164 37.9945 -45.3534 0.142 -0.988 -0.052 208 191 43 0
16.7120 42.2654 -45.7878 0.515 -0.851 0.105 176 161 62 0
17.2509 42.0700 -45.5663 0.457 -0.478 0.750 168 160 66 0
17.3710 42.2433 -45.5289 0.457 -0.478 0.750 147 150 61 0
17.4632 42.4414 -45.5039 0.648 -0.458 0.609 118 133 53 0
17.5885 42.6100 -45.4642 0.648 -0.467 0.602 85 112 40 0
6.2604 62.0281 -50.9721 0.472 -0.258 -0.843 31 107 55 0
17.7985 59.7768 -46.3354 0.555 -0.116 0.824 34 112 59 0
17.2948 63.0306 -46.7131 0.499 -0.828 0.255 42 120 74 0
13.7536 76.3084 -48.8352 0.968 0.240 -0.079 164 178 175 0
17.0148 78.7462 -47.6953 0.735 -0.508 0.449 186 187 180 0
18.3173 77.8041 -47.1337 0.676 -0.008 0.737 186 186 178 0
26.3877 73.9732 -43.7653 0.618 -0.670 -0.411 191 184 176 0
18.5700 86.7391 -47.5311 0.173 -0.985 -0.008 191 182 174 0
18.8296 86.7838 -47.4321 0.173 -0.985 -0.008 191 182 175 0
41.2193 60.4171 -37.2130 0.786 -0.497 -0.367 185 175 169 0
41.4224 60.4289 -37.1342 0.836 -0.370 -0.405 185 174 169 0
30.3581 82.7413 -42.6997 0.720 0.423 0.550 184 174 167 0
36.7113 78.5101 -39.9805 0.692 0.144 0.707 176 165 161 0
36.5782 79.5275 -40.0890 -0.039 -0.992 0.118 177 166 160 0
44.0027 72.4542 -36.7931 0.643 0.378 0.666 173 162 158 0
42.9465 76.3062 -37.4200 0.464 0.234 0.854 170 160 150 0
42.1603 78.1662 -37.8307 0.405 0.309 0.861 170 160 149 0
41.0756 84.7094 -38.6182 0.755 -0.568 -0.329 255 255 255 0
40.3258 86.5953 -39.0161 0.644 -0.688 -0.336 255 255 255 0
-11.9749 -7.9992 -54.4360 0.937 -0.273 -0.219 255 255 255 0
1.4533 18.6166 -50.6711 0.401 -0.580 -0.709 232 225 218 0
1.7476 18.7021 -50.5603 0.298 -0.668 -0.682 230 223 216 0
-14.0453 38.2023 -57.8684 0.074 -0.920 0.385 190 178 178 0
-14.0366 38.4978 -57.8818 0.038 -0.833 -0.553 188 174 176 0
0.4368 36.1512 -52.0643 0.030 -0.970 0.241 106 75 81 0
9.3287 34.8306 -48.4972 0.127 -0.638 0.760 130 102 55 0
12.0272 34.9623 -47.4449 0.558 -0.627 0.544 204 185 56 0
10.4252 36.7074 -48.1730 0.848 -0.521 -0.096 209 191 56 0
15.1958 36.7562 -46.3021 -0.011 -0.894 0.448 220 205 52 0
16.6038 35.8917 -45.7001 0.417 -0.709 0.569 219 204 52 0
17.5126 36.4711 -45.3760 0.313 -0.848 0.427 214 200 51 0
18.3928 36.7996 -45.0490 0.449 -0.827 0.340 211 197 46 0
14.6216 43.3040 -46.8988 0.554 -0.580 -0.597 194 174 57 0
16.3881 42.3257 -46.1496 0.354 -0.829 0.433 186 168 55 0
16.8554 42.1955 -45.9587 -0.060 -0.832 0.551 181 164 56 0
17.3644 42.3057 -45.7650 0.376 -0.629 0.681 165 160 59 0
17.5578 42.4138 -45.6952 0.454 -0.584 0.673 149 152 58 0
17.7622 42.5116 -45.6205 0.576 -0.521 0.630 122 135 49 0
18.9102 41.7618 -45.1271 0.475 -0.048 0.878 92 116 39 0
12.5348 77.5275 -49.6586 0.849 -0.527 -0.026 163 177 175 0
15.3081 82.3076 -48.8404 0.685 0.332 0.649 187 187 179 0
26.3083 74.1865 -44.0597 0.445 -0.693 -0.567 191 184 176 0
18.9421 85.8990 -47.6168 0.539 -0.386 -0.748 191 184 176 0
19.0516 86.1583 -47.5885 0.700 -0.712 -0.059 191 182 175 0
40.9972 60.5250 -37.5162 0.587 -0.380 -0.715 186 177 170 0
41.2132 60.5181 -37.4310 0.643 -0.387 -0.661 186 176 169 0
31.0090 81.8000 -42.6452 0.706 0.481 0.521 182 171 165 0
29.8626 84.0736 -43.2243 0.702 0.472 0.533 182 171 165 0
38.3995 72.7085 -39.2271 0.691 0.530 0.492 178 169 160 0
35.6472 77.6998 -40.5911 0.687 0.518 0.510 177 169 160 0
34.8870 80.5606 -41.0518 0.709 0.371 0.599 176 167 158 0
35.2120 81.6086 -40.9836 0.903 0.143 0.406 175 164 158 0
36.5717 80.0538 -40.3615 0.013 -0.857 0.516 175 165 157 0
36.9688 79.7595 -40.1888 -0.085 -0.931 0.355 176 166 157 0
40.5782 83.7143 -38.9954 0.841 -0.459 -0.285 168 156 144 0
41.0672 84.8574 -38.8682 0.738 -0.585 -0.337 255 255 255 0
-10.4025 30.6227 -56.2727 0.794 0.263 -0.548 225 217 214 0
-10.2900 30.8374 -56.2407 0.794 0.257 -0.551 224 216 212 0
-12.4870 32.6451 -57.2119 0.760 0.089 -0.644 223 214 209 0
-15.9973 36.1209 -58.7977 0.988 -0.078 -0.131 218 211 204 0
-11.3481 33.7033 -56.8239 0.830 -0.514 -0.218 216 209 202 0
-14.8801 38.7578 -58.5096 0.013 -0.920 0.391 193 183 185 0
-14.3458 38.7338 -58.2974 -0.226 -0.893 0.390 188 177 181 0
-12.0113 37.6004 -57.3110 -0.212 -0.756 0.619 185 175 181 0
-9.5072 36.3506 -56.2509 -0.223 -0.799 0.559 182 171 178 0
-5.1547 36.7795 -54.5588 0.445 -0.390 -0.806 128 109 113 0
-4.5354 36.6648 -54.3078 0.440 -0.338 -0.832 125 104 109 0
-4.9628 37.2305 -54.5092 0.390 -0.431 -0.814 126 104 110 0
-5.2186 37.6868 -54.6364 0.274 -0.557 -0.784 128 105 111 0
11.1205 34.8918 -48.0295 0.931 -0.350 0.100 202 183 54 0
11.1238 35.4222 -48.0588 0.448 -0.738 0.505 207 189 53 0
10.3688 36.2577 -48.4050 0.654 -0.331 0.680 209 192 58 0
10.5614 36.3827 -48.3362 0.598 -0.322 0.734 211 195 59 0
10.3811 36.7900 -48.4309 0.680 -0.674 0.288 213 197 59 0
18.1969 36.7494 -45.3455 0.653 -0.633 0.416 213 201 46 0
16.8943 39.7255 -46.0315 0.801 0.031 0.598 203 190 50 0
12.3127 44.2074 -48.0981 0.420 -0.636 -0.648 203 187 49 0
16.6637 41.8600 -46.2459 0.806 -0.324 0.496 190 174 54 0
16.7336 42.0787 -46.2310 0.449 -0.779 0.437 188 172 54 0
16.9514 42.1672 -46.1502 0.449 -0.869 0.210 183 168 54 0
17.1889 42.2376 -46.0606 0.469 -0.846 0.254 178 166 55 0
17.3515 42.3738 -46.0043 0.746 -0.658 -0.101 171 164 56 0
17.5249 42.5000 -45.9432 0.750 -0.636 -0.181 160 157 55 0
17.9711 42.3816 -45.7604 0.716 -0.283 0.638 145 148 53 0
17.6615 44.9325 -46.0301 0.686 0.204 0.698 36 99 46 0
20.0429 43.2960 -44.9960 0.712 -0.701 0.037 33 100 47 0
2.3765 62.8340 -53.0952 0.349 -0.171 0.921 23 99 51 0
2.4102 64.2143 -53.1617 0.323 -0.211 0.922 24 100 53 0
13.0834 69.4265 -49.2530 0.960 0.273 -0.064 55 112 80 0
10.0330 74.8428 -50.7696 0.922 0.138 -0.361 58 116 91 0
15.1952 82.5633 -49.1799 0.996 0.075 -0.053 187 187 179 0
36.7429 66.1363 -39.7296 0.460 0.424 0.780 186 176 169 0
36.4789 66.8882 -39.8773 0.447 0.388 0.806 184 175 168 0
41.3350 61.0768 -37.6255 0.835 -0.352 -0.423 181 170 164 0
40.8147 62.2207 -37.8970 0.836 -0.137 0.532 181 170 163 0
30.6560 83.3039 -43.1239 0.443 0.420 0.792 181 170 166 0
29.9952 84.8000 -43.4712 0.450 0.438 0.778 180 169 165 0
41.1621 84.8042 -39.0664 0.800 -0.473 -0.370 255 255 255 0
-11.5194 33.8462 -57.1703 0.575 -0.803 0.155 217 210 204 0
-11.4498 34.0929 -57.1573 0.601 -0.778 0.183 217 207 205 0
-14.0505 38.5996 -58.4537 -0.222 -0.907 0.359 190 183 188 0
-6.3287 37.5862 -55.3345 0.334 -0.450 -0.828 135 120 123 0
-6.3676 37.9027 -55.3686 0.261 -0.555 -0.789 132 115 118 0
-6.2813 38.1384 -55.3483 0.209 -0.630 -0.748 128 110 113 0
-6.1163 38.3227 -55.2938 0.209 -0.624 -0.753 127 108 112 0
-2.3292 38.1196 -53.7814 0.319 -0.422 -0.849 113 86 92 0
11.5264 34.6374 -48.0863 0.795 -0.543 0.272 208 189 56 0
12.3424 34.2930 -47.7427 0.838 -0.545 0.035 209 191 53 0
13.0213 34.0473 -47.4592 0.974 -0.188 0.127 211 194 55 0
15.9024 33.1611 -46.2654 0.824 -0.417 -0.384 219 204 60 0
16.6835 41.8987 -46.4716 0.602 -0.721 0.343 193 178 54 0
18.4443 40.6312 -45.6991 0.968 -0.135 0.210 189 175 53 0
18.4786 40.8760 -45.7000 0.968 -0.135 0.210 184 172 53 0
17.5485 42.5358 -46.1664 0.757 -0.627 -0.187 166 160 56 0
19.8432 43.2588 -45.2999 0.690 -0.720 0.076 35 100 46 0
20.3711 43.3298 -45.0950 0.717 -0.514 0.470 33 102 48 0
2.2130 63.4189 -53.4747 0.991 0.059 0.117 23 99 51 0
2.2991 63.6892 -53.4566 0.969 -0.033 0.246 23 99 52 0
3.3614 64.4235 -53.0790 0.866 -0.422 0.267 25 101 54 0
3.5707 64.5721 -53.0049 0.799 -0.545 0.255 26 102 55 0
15.4588 61.2354 -48.0979 0.840 -0.532 -0.103 30 109 61 0
12.7258 69.5606 -49.6720 0.704 -0.638 0.314 53 111 81 0
12.6817 69.9770 -49.7141 0.608 -0.701 0.373 57 114 82 0
9.9231 74.6812 -51.0846 0.955 0.271 0.118 62 118 92 0
9.8265 75.1778 -51.1522 0.956 0.261 0.130 62 117 93 0
16.9674 79.5075 -48.5785 0.748 0.549 0.373 186 186 178 0
36.5018 66.9507 -40.0979 0.720 0.216 0.660 186 175 170 0
36.4119 67.7916 -40.1832 0.719 0.266 0.642 182 173 166 0
40.9865 62.0456 -38.0317 0.661 -0.202 0.722 180 170 162 0
31.4624 82.5040 -43.0124 0.448 0.427 0.785 179 168 164 0
30.1712 87.5613 -43.8224 0.747 0.536 0.394 176 169 161 0
35.5778 80.0148 -41.2350 0.860 0.064 0.506 174 165 158 0
46.1564 70.6562 -36.4915 0.827 -0.005 0.562 168 161 144 0
44.8140 73.5463 -37.1939 0.500 0.218 0.838 167 158 143 0
46.6999 70.3695 -36.2592 0.891 -0.453 0.022 168 159 144 0
41.1832 84.8951 -39.3021 0.853 -0.447 -0.268 255 255 255 0
-15.3384 37.0173 -59.1517 0.721 0.116 -0.684 214 204 207 0
-12.0673 36.8378 -57.8393 -0.211 -0.903 0.374 202 194 194 0
-14.1572 38.4098 -58.7655 -0.018 -0.925 0.379 197 191 192 0
-10.0603 38.8525 -57.1619 0.783 -0.444 -0.436 161 151 159 0
-8.0532 39.3438 -56.3927 0.127 -0.633 -0.764 134 119 122 0
-7.3618 39.1878 -56.1082 0.070 -0.680 -0.730 129 113 116 0
-3.2201 38.7721 -54.4351 0.424 -0.390 -0.817 120 94 100 0
-3.0761 38.9651 -54.3894 0.500 -0.307 -0.810 119 93 100 0
-1.0206 38.7123 -53.5563 0.407 -0.315 -0.857 116 90 88 0
9.2889 33.1414 -49.1186 -0.082 -0.857 0.508 117 93 82 0
11.9137 34.3964 -48.1496 0.750 -0.495 0.439 211 193 60 0
12.5377 34.1942 -47.8891 0.965 -0.244 0.091 213 196 58 0
16.0529 33.0927 -46.4240 0.786 -0.565 -0.250 221 207 59 0
15.5932 36.5883 -46.8173 -0.004 -0.886 0.463 224 210 56 0
19.9242 34.3861 -44.9614 0.951 0.158 0.265 222 209 52 0
20.6596 34.5493 -44.6785 0.827 0.094 0.554 216 207 51 0
18.4461 40.4101 -45.9121 0.725 -0.642 0.250 193 179 51 0
17.3637 42.1958 -46.4502 0.746 -0.645 -0.163 180 168 51 0
18.1682 41.7607 -46.1039 0.827 -0.560 0.043 178 166 55 0
18.5534 41.6953 -45.9467 0.668 -0.374 0.644 172 163 55 0
18.6279 41.9068 -45.9298 0.631 -0.421 0.651 166 159 57 0
3.4275 64.4353 -53.3341 0.664 -0.315 -0.678 25 102 51 0
3.6737 64.5472 -53.2429 0.665 -0.319 -0.675 25 102 52 0
3.5064 65.4276 -53.3624 0.812 -0.079 -0.578 27 104 51 0
15.6609 60.0860 -48.2043 0.966 0.020 -0.259 31 110 62 0
13.8762 62.3523 -49.0509 0.700 -0.711 0.074 30 110 61 0
15.1693 61.6288 -48.4928 0.755 -0.652 0.068 31 111 62 0
14.3577 62.8565 -48.8896 0.769 -0.563 0.303 31 112 63 0
12.5862 69.8083 -50.0129 0.876 -0.455 0.157 55 112 83 0
13.4195 69.2122 -49.6454 0.653 -0.293 0.699 57 113 83 0
10.1894 73.6999 -51.2008 0.946 0.278 0.165 60 114 88 0
9.9242 74.7719 -51.3709 0.961 0.256 0.104 63 117 93 0
25.6629 84.9247 -45.7189 0.704 -0.706 -0.074 184 173 167 0
25.7742 85.1658 -45.6891 0.614 -0.784 0.087 182 171 165 0
40.8209 62.3993 -38.3317 0.993 -0.054 -0.101 183 173 165 0
31.8620 84.0024 -43.1966 0.812 0.495 0.308 177 170 159 0
35.7027 79.9184 -41.4225 0.635 0.043 0.772 173 164 156 0
45.7426 69.3453 -36.7912 0.479 0.322 0.817 171 161 150 0
46.2643 70.9355 -36.6792 0.828 -0.015 0.560 168 158 144 0
-10.3340 -8.4929 -54.6416 0.976 0.034 -0.216 255 255 255 0
-12.7597 37.0076 -58.4020 -0.148 -0.930 0.336 206 200 200 0
-10.2985 38.4553 -57.5071 0.640 -0.699 -0.318 179 168 176 0
-8.2027 40.0873 -56.7696 0.169 -0.565 -0.807 132 117 120 0
-3.8830 39.2706 -54.9931 0.518 -0.285 -0.807 127 103 109 0
-3.5795 39.3570 -54.8771 0.502 -0.309 -0.808 125 101 107 0
-1.7188 39.2450 -54.1266 0.410 -0.378 -0.830 127 102 100 0
-1.5450 39.4150 -54.0676 0.434 -0.360 -0.826 125 101 98 0
11.5319 34.4631 -48.5375 0.908 -0.415 0.062 213 193 63 0
12.4690 36.4211 -48.2831 0.999 -0.002 -0.034 224 211 54 0
20.7767 34.5017 -44.8451 0.827 0.094 0.554 218 209 50 0
18.9062 40.6092 -45.9673 0.979 -0.120 0.164 186 175 48 0
18.2278 41.4860 -46.2922 0.941 -0.337 -0.025 183 172 51 0
18.3046 41.6956 -46.2744 0.898 -0.419 0.136 180 169 51 0
18.4594 41.8358 -46.2211 0.596 -0.801 0.061 177 164 51 0
18.7227 42.1571 -46.1356 0.821 -0.377 0.429 165 155 54 0
18.6414 44.7775 -46.3288 0.210 -0.500 0.840 37 100 47 0
3.2354 65.0593 -53.7300 0.740 -0.013 -0.672 27 104 52 0
3.2768 65.3763 -53.7329 0.743 -0.005 -0.669 28 106 52 0
14.1870 61.7535 -49.1503 0.725 -0.235 -0.647 29 111 63 0
14.3353 61.9336 -49.1021 0.735 -0.235 -0.636 29 111 63 0
15.1045 61.4385 -48.7643 0.764 -0.424 0.487 29 111 62 0
15.7992 61.0197 -48.4610 0.615 -0.786 0.069 32 113 65 0
15.7654 61.3943 -48.4975 0.826 -0.552 0.111 33 115 66 0
12.3270 70.1941 -50.4114 0.546 -0.676 0.494 58 113 84 0
13.7266 68.9440 -49.7754 0.640 -0.290 0.712 58 113 84 0
13.7524 74.8676 -50.1284 0.501 -0.274 0.821 162 179 173 0
16.4715 80.7710 -49.4038 0.749 0.565 0.345 186 185 180 0
25.7105 85.3820 -45.9941 0.679 -0.727 -0.106 181 170 164 0
26.2993 84.8771 -45.7278 0.365 -0.862 0.351 181 170 163 0
46.3398 70.9075 -36.8616 0.838 -0.043 0.543 170 158 146 0
-12.2521 -7.8840 -55.6696 0.905 -0.361 -0.226 255 255 255 0
-33.7100 -0.7582 -64.7281 -0.290 -0.788 0.543 228 217 211 0
-4.6419 40.4272 -55.6345 0.658 0.133 -0.741 119 99 104 0
17.9806 30.9586 -45.9622 0.476 -0.797 0.372 224 210 60 0
13.3184 35.0177 -48.0873 0.983 -0.083 -0.165 223 213 58 0
22.7776 33.3938 -44.1889 0.025 -0.896 0.443 221 209 50 0
12.5474 42.7931 -48.8827 0.017 -0.940 -0.341 219 206 53 0
18.6337 40.9056 -46.3218 0.966 -0.254 0.048 189 179 46 0
18.3397 41.4428 -46.4734 0.956 -0.293 0.018 188 176 48 0
18.3460 41.7151 -46.4879 0.898 -0.419 0.136 186 173 49 0
18.4345 41.9146 -46.4648 0.898 -0.414 0.151 181 166 46 0
18.7838 42.1590 -46.3398 0.927 -0.109 0.358 170 156 50 0
15.4392 60.8150 -48.8484 0.893 -0.431 -0.128 31 114 66 0
15.4368 61.1549 -48.8706 0.679 -0.458 0.573 31 115 66 0
15.8380 61.0551 -48.7033 0.596 -0.802 0.041 33 116 69 0
15.8854 61.3410 -48.7022 0.757 -0.638 0.143 34 118 68 0
12.6294 69.9330 -50.5461 0.783 0.034 0.621 61 115 87 0
12.5126 70.4354 -50.6244 0.986 -0.002 0.169 61 115 87 0
10.3065 74.8908 -51.7884 0.889 0.379 -0.257 78 123 104 0
25.3297 85.6758 -46.4323 0.279 -0.928 -0.247 181 170 164 0
24.3806 87.5744 -46.9319 0.228 -0.928 -0.294 182 171 165 0
36.9258 73.8344 -41.0376 0.626 0.416 0.660 178 168 161 0
36.8650 74.3116 -41.0918 0.665 0.471 0.580 178 168 162 0
40.8501 85.0987 -40.1664 0.657 -0.628 -0.417 51 50 51 0
-12.2979 -7.8630 -55.9138 0.904 -0.360 -0.232 255 255 255 0
-21.6838 -4.8114 -59.8918 0.958 0.118 -0.263 226 213 207 0
-36.6237 -0.5528 -66.1856 -0.256 -0.759 0.598 228 218 209 0
-19.4296 -3.4073 -59.0725 -0.313 -0.759 0.570 229 220 213 0
-18.6710 27.3644 -60.7258 0.889 -0.318 0.329 229 224 218 0
-20.6648 29.2098 -61.6471 0.738 0.046 0.673 230 225 218 0
-20.4612 29.3944 -61.5767 0.733 0.018 0.680 229 224 218 0
-11.9239 29.9960 -58.1734 0.986 0.009 -0.167 224 220 219 0
-10.7092 29.8829 -57.6765 0.390 -0.638 -0.664 223 217 217 0
-10.0016 38.3617 -57.9311 0.299 -0.760 0.578 185 182 185 0
-7.9240 40.9028 -57.2554 0.277 -0.504 -0.818 145 133 137 0
-7.6061 40.9914 -57.1329 0.282 -0.487 -0.827 137 125 129 0
14.1747 33.1097 -47.8506 0.174 -0.627 0.760 223 207 63 0
15.6387 33.0357 -47.2557 0.940 -0.298 0.164 224 215 59 0
15.2014 38.9506 -47.8086 0.569 -0.419 0.708 224 213 46 0
22.2236 33.6527 -44.6404 0.915 0.178 0.362 223 211 46 0
12.5253 42.8678 -49.1368 0.060 -0.987 -0.149 220 207 50 0
18.9430 40.6874 -46.4108 0.996 -0.087 0.031 192 180 46 0
18.3969 41.7261 -46.6971 0.579 -0.813 -0.060 188 175 46 0
18.5176 41.8969 -46.6593 0.587 -0.808 -0.049 184 169 45 0
18.7163 42.2770 -46.6034 0.668 -0.744 -0.018 174 159 48 0
18.8751 43.8234 -46.6378 0.752 -0.032 0.659 69 102 37 0
18.8365 44.1436 -46.6738 0.720 -0.087 0.688 52 97 40 0
15.1320 60.8878 -49.2332 0.771 -0.629 -0.103 29 112 61 0
15.4116 60.9223 -49.1227 0.896 -0.424 -0.135 32 116 66 0
15.6565 60.9935 -49.0285 0.771 -0.631 0.080 32 116 67 0
15.7858 61.1900 -48.9889 0.785 -0.616 0.071 33 117 68 0
15.9341 61.3658 -48.9403 0.765 -0.615 0.189 35 118 70 0
16.0035 61.9679 -48.9507 0.832 0.376 -0.408 42 120 75 0
12.7480 70.2509 -50.7904 0.985 0.008 0.171 64 116 90 0
16.6266 80.7715 -49.8967 0.759 0.562 0.328 183 184 177 0
36.8283 59.7564 -40.4148 0.566 0.199 0.800 188 181 173 0
45.6257 64.9222 -37.1973 0.724 0.368 0.584 172 162 157 0
41.0378 85.2878 -40.3434 0.596 -0.657 -0.462 247 246 245 0
-11.1559 -8.2868 -55.6486 0.942 -0.237 -0.237 255 255 255 0
-12.3526 -7.8400 -56.1621 0.904 -0.360 -0.232 255 255 255 0
-34.3125 -1.0642 -65.4922 -0.311 -0.741 0.594 228 218 211 0
-32.6253 10.6417 -65.5680 0.581 -0.509 0.635 232 223 216 0
-20.4754 28.8661 -61.8306 0.957 -0.236 0.171 229 225 216 0
-20.4140 29.1216 -61.8223 0.957 -0.236 0.171 230 225 217 0
-20.5234 29.4639 -61.8888 0.874 0.040 0.484 229 224 218 0
-13.4044 30.2837 -59.0597 0.928 -0.349 -0.129 221 220 218 0
-10.7985 30.2498 -58.0024 -0.025 -0.998 -0.049 224 218 218 0
-9.6525 36.4211 -57.9386 -0.277 -0.946 0.169 202 197 200 0
-7.2564 42.0159 -57.3312 0.637 0.051 -0.769 132 117 122 0
-6.7375 42.8777 -57.1770 0.559 0.062 -0.827 118 103 98 0
14.4598 32.9425 -47.9508 0.193 -0.641 0.743 224 209 65 0
15.3068 33.3351 -47.6333 0.957 -0.287 -0.037 224 217 61 0
15.0876 35.5961 -47.8687 0.923 -0.115 -0.366 226 218 58 0
15.0160 35.9175 -47.9185 0.937 0.049 -0.345 227 219 59 0
12.5249 43.2117 -49.4000 0.248 -0.940 -0.232 219 206 50 0
6.6548 49.1223 -52.1598 0.283 -0.796 0.536 214 201 50 0
18.4413 40.3598 -46.8198 0.408 -0.754 -0.515 205 190 51 0
18.6793 40.4256 -46.7277 0.408 -0.754 -0.515 200 187 49 0
18.8044 40.5903 -46.6877 0.973 -0.052 0.223 196 184 45 0
18.8208 40.8512 -46.6980 0.973 -0.052 0.223 194 182 46 0
18.7193 41.2176 -46.7628 0.954 0.027 0.298 192 179 47 0
18.9272 41.3093 -46.6846 0.878 -0.181 0.443 189 176 45 0
18.7102 41.7811 -46.8030 0.675 -0.590 0.444 185 171 45 0
18.8621 41.9234 -46.7508 0.689 -0.580 0.435 181 166 46 0
18.7388 42.3138 -46.8260 0.633 -0.774 0.001 175 161 47 0
19.1646 43.0500 -46.7013 0.779 0.023 0.626 136 136 46 0
19.0413 43.4455 -46.7769 0.769 -0.034 0.638 119 127 44 0
19.0413 43.7289 -46.7953 0.722 -0.086 0.687 87 111 39 0
19.0022 44.0493 -46.8319 0.712 -0.081 0.697 57 95 33 0
15.1953 60.8968 -49.4655 0.769 -0.631 -0.102 33 115 64 0
16.3535 60.3115 -48.9586 0.994 0.035 -0.107 35 118 69 0
16.3379 60.6641 -48.9878 0.994 0.035 -0.107 36 118 69 0
37.0973 65.8280 -40.9178 0.503 -0.864 -0.028 186 177 170 0
24.3938 87.7930 -47.4851 0.772 -0.551 -0.316 181 172 165 0
28.0173 82.5329 -45.6771 0.764 0.453 0.459 181 172 165 0
37.6294 71.7765 -41.0881 0.680 0.476 0.558 178 168 160 0
37.8121 72.5860 -41.0666 0.965 -0.257 0.056 179 168 163 0
45.5799 64.7599 -37.4143 0.712 0.417 0.566 172 161 159 0
45.1052 65.9373 -37.6828 0.720 0.419 0.553 172 161 159 0
41.0208 85.4541 -40.6018 0.596 -0.657 -0.462 247 247 245 0
-11.2912 -8.2472 -55.9286 0.951 -0.210 -0.229 255 255 255 0
-12.4074 -7.8170 -56.4109 0.904 -0.360 -0.232 255 255 255 0
-36.5433 -0.7819 -66.6890 -0.289 -0.755 0.588 226 216 207 0
-32.6071 -1.2032 -65.0607 -0.277 -0.790 0.547 226 217 210 0
-18.8986 -3.7174 -59.3208 -0.331 -0.738 0.588 226 217 209 0
-32.3476 10.5761 -65.7326 0.479 -0.537 0.694 234 223 217 0
-17.3155 25.6604 -60.6162 0.685 -0.230 0.692 231 228 221 0
-18.7457 27.4747 -61.3174 0.863 -0.300 0.406 230 225 219 0
-20.6094 28.9709 -62.1740 0.970 -0.173 0.172 228 224 215 0
-20.5627 29.2343 -62.1724 0.970 -0.173 0.172 229 224 216 0
-17.8429 28.1474 -60.9947 0.801 -0.082 0.593 231 224 218 0
-16.4515 27.7228 -60.4010 0.882 0.174 0.439 230 225 219 0
-17.3283 28.4492 -60.8054 0.755 -0.063 0.653 228 223 217 0
-14.6824 38.0557 -60.3636 0.716 0.209 -0.666 209 203 207 0
-13.6541 39.5473 -60.0440 0.649 0.540 0.536 200 192 202 0
-10.6943 40.1005 -58.8770 0.145 0.172 0.974 190 187 192 0
14.1661 33.7290 -48.3482 0.922 -0.282 0.265 225 216 66 0
15.2008 33.4629 -47.9099 0.994 -0.077 0.079 225 221 62 0
19.0034 40.4700 -46.8263 0.969 -0.000 0.247 198 186 45 0
18.7188 40.9973 -46.9768 0.977 0.091 -0.193 196 184 45 0
18.8490 41.1583 -46.9345 0.981 0.151 -0.124 194 181 46 0
18.8164 41.7425 -46.9863 0.694 -0.717 0.068 189 173 44 0
19.3597 41.5324 -46.7515 0.877 -0.373 0.304 184 169 45 0
18.8848 42.2392 -46.9912 0.630 -0.727 0.273 179 165 48 0
19.1557 42.2737 -46.8834 0.633 -0.688 0.354 175 162 48 0
19.2849 42.4362 -46.8416 0.636 -0.685 0.357 169 157 48 0
19.2285 42.7682 -46.8864 0.790 -0.392 0.471 161 153 50 0
19.3386 44.0809 -46.9283 0.301 -0.499 0.813 50 96 37 0
13.4053 66.4166 -50.8150 0.890 0.210 -0.405 53 112 80 0
14.7994 65.5535 -50.1912 0.937 0.069 0.343 52 111 81 0
28.2946 82.2123 -45.8036 0.766 0.454 0.455 180 171 164 0
42.1721 63.7543 -38.9426 0.304 0.325 0.896 179 170 162 0
42.0010 64.3746 -39.0531 0.381 0.414 0.827 180 170 161 0
45.7081 65.3310 -37.6089 0.722 0.344 0.600 173 161 161 0
-11.3456 -8.2246 -56.1753 0.951 -0.210 -0.229 255 255 255 0
-12.4671 -7.7929 -56.6622 0.909 -0.363 -0.204 255 255 255 0
-21.1375 -4.4668 -60.4262 0.998 0.048 -0.044 224 214 207 0
-35.8438 -0.9251 -66.6693 -0.314 -0.764 0.564 223 212 205 0
-16.8879 -4.1763 -58.7104 -0.362 -0.712 0.602 225 218 210 0
-29.2096 4.3939 -64.3176 0.707 0.060 0.705 233 224 215 0
-30.1830 9.1455 -65.0342 0.800 -0.294 -0.524 233 221 219 0
-30.2177 9.4104 -65.0662 0.786 -0.330 -0.522 232 220 218 0
-30.1052 9.6294 -65.0350 0.786 -0.330 -0.522 232 221 217 0
-31.6750 10.3847 -65.7267 0.537 -0.494 0.684 233 223 218 0
-19.2926 27.5007 -61.8202 0.814 -0.344 0.468 231 224 220 0
-8.9377 43.8881 -58.6926 0.720 0.211 -0.661 165 154 155 0
12.4307 33.2442 -49.2520 0.947 -0.265 0.181 217 206 76 0
13.8039 33.2676 -48.6928 0.943 -0.324 -0.078 225 215 67 0
14.0961 33.5684 -48.5937 0.949 -0.134 -0.285 226 217 67 0
14.2592 33.7057 -48.5363 0.950 -0.160 -0.270 225 218 64 0
18.8236 34.2878 -46.7116 0.773 -0.533 0.345 230 222 60 0
19.5312 33.9735 -46.4015 0.788 -0.336 0.516 228 220 59 0
6.8034 48.8076 -52.5953 0.489 -0.812 0.317 219 207 51 0
18.8619 41.7583 -47.1977 0.683 -0.726 0.082 192 174 44 0
18.9469 41.9607 -47.1766 0.696 -0.710 0.111 186 170 43 0
19.1924 42.2978 -47.0990 0.407 -0.913 -0.007 177 163 47 0
19.3994 42.3895 -47.0207 0.407 -0.913 -0.007 170 159 46 0
19.5019 43.9882 -47.0862 0.452 -0.471 0.757 58 98 35 0
18.9995 52.4971 -47.8629 0.705 -0.466 -0.535 31 106 52 0
16.3831 59.4314 -49.3971 0.766 -0.620 0.170 35 116 68 0
16.0389 60.1376 -49.5851 0.832 -0.503 0.234 35 117 70 0
16.1556 60.3462 -49.5515 0.832 -0.503 0.234 37 119 73 0
13.0378 66.1998 -51.2178 0.844 0.467 -0.263 51 110 77 0
14.8950 65.5284 -50.4143 0.940 0.171 0.295 55 114 82 0
22.9340 65.4330 -47.1252 0.417 0.401 0.816 168 179 178 0
39.1780 65.9082 -40.5240 0.534 -0.817 -0.217 182 171 167 0
37.3797 73.5194 -41.7696 0.831 -0.498 -0.248 175 165 158 0
33.2558 83.6050 -44.1310 0.900 -0.129 0.416 173 164 154 0
32.0585 86.0682 -44.7854 0.879 0.246 0.410 173 163 152 0
28.1812 93.1535 -46.8446 0.763 0.478 0.436 174 164 152 0
27.9923 100.3881 -47.4077 0.709 0.088 0.699 167 156 150 0
-18.4734 -5.2609 -59.5241 0.132 -0.982 -0.138 222 211 206 0
-29.5708 4.2705 -64.7264 0.836 -0.045 0.547 232 223 216 0
-29.3093 4.4405 -64.6308 0.697 0.050 0.715 231 222 213 0
-30.5412 5.0293 -65.1762 0.502 0.095 0.860 233 224 215 0
-30.6536 9.3148 -65.5152 0.900 -0.250 -0.358 231 220 218 0
-30.6005 9.5532 -65.5097 0.896 -0.247 -0.369 231 220 218 0
-30.8741 9.8954 -65.6453 0.753 -0.370 -0.544 232 221 218 0
-31.6097 10.3866 -65.9805 0.547 -0.493 0.677 233 224 219 0
-19.3205 27.2695 -62.0948 0.581 -0.542 0.607 232 225 221 0
-19.2057 27.4944 -62.0630 0.811 -0.336 0.479 233 225 222 0
-17.2196 31.8995 -61.5496 0.981 0.190 -0.045 225 219 219 0
-13.2683 31.1768 -59.8799 0.132 -0.766 -0.629 221 215 215 0
-12.7590 38.7819 -60.1908 0.594 0.513 0.620 201 200 204 0
-4.2146 36.0143 -56.4977 0.316 -0.939 0.135 196 191 195 0
-4.6865 36.6064 -56.7317 0.585 -0.531 0.614 195 191 195 0
-9.6422 44.4269 -59.2984 0.721 0.213 -0.659 187 177 178 0
13.6770 32.3728 -48.9117 0.618 -0.749 0.237 219 210 74 0
13.9477 32.9473 -48.8400 0.928 -0.213 -0.307 225 215 68 0
14.0004 33.1671 -48.8334 0.928 -0.213 -0.307 228 218 69 0
14.1029 33.3500 -48.8038 0.934 -0.180 -0.308 229 219 69 0
16.0193 34.4864 -48.0956 0.669 -0.717 -0.196 231 226 60 0
19.0598 34.1461 -46.8255 0.787 -0.543 0.293 231 223 61 0
19.1663 34.3175 -46.7935 0.787 -0.543 0.293 230 222 61 0
19.8163 34.0473 -46.5085 0.735 -0.538 0.413 230 222 61 0
19.9227 34.2172 -46.4765 0.735 -0.538 0.413 229 221 61 0
6.9278 48.7619 -52.7995 0.631 -0.591 0.503 220 207 51 0
7.1219 48.9040 -52.7297 0.614 -0.599 0.514 217 206 51 0
19.2769 42.5587 -47.3114 0.650 -0.725 -0.230 173 162 46 0
19.5617 44.5625 -47.3316 0.822 -0.309 0.478 47 100 45 0
17.3009 47.8698 -48.4847 0.233 -0.965 0.116 35 97 46 0
17.5402 47.9388 -48.3913 0.233 -0.965 0.116 33 98 46 0
17.8774 47.9129 -48.2513 -0.019 -0.995 0.097 30 98 47 0
15.2255 51.6949 -49.5973 0.401 -0.573 0.714 26 101 50 0
17.7961 52.2440 -48.5806 0.045 -0.467 0.883 31 106 53 0
18.4216 51.9193 -48.3019 0.363 -0.700 0.614 31 105 54 0
19.0313 51.6071 -48.0306 0.520 -0.820 -0.239 31 105 54 0
19.3252 52.2303 -47.9526 0.602 -0.772 -0.203 29 106 51 0
12.5148 66.8671 -51.7458 0.846 0.468 -0.253 53 112 80 0
12.5460 67.1909 -51.7551 0.839 0.342 -0.424 52 111 79 0
11.5111 70.9220 -52.4345 0.940 0.337 0.054 69 120 99 0
26.5265 69.7043 -46.1937 0.848 0.097 -0.521 185 187 175 0
39.1962 65.9783 -40.7434 0.534 -0.817 -0.217 181 170 166 0
37.8820 72.7947 -41.7482 0.787 -0.083 0.611 178 168 159 0
37.5257 73.7620 -41.9604 0.807 -0.539 -0.241 178 168 158 0
33.5721 82.3679 -44.1698 0.906 0.344 0.246 173 165 154 0
33.2107 83.8036 -44.4162 0.912 -0.225 0.344 173 163 153 0
31.7728 87.1065 -45.2316 0.846 0.355 0.398 172 162 152 0
35.2942 87.7054 -43.8284 0.426 -0.873 -0.239 169 158 152 0
36.2404 87.2582 -43.4099 0.010 -0.896 -0.444 167 156 150 0
36.5982 90.5005 -43.4847 0.337 -0.777 -0.532 167 155 141 0
40.4932 85.1858 -41.5242 0.927 -0.334 -0.170 164 152 138 0
41.2310 86.2960 -41.2975 0.754 -0.533 -0.384 255 255 255 0
-1.9725 -6.9260 -52.8522 0.254 -0.852 0.457 229 220 213 0
-1.4063 -6.6964 -52.6350 0.127 -0.786 0.605 230 221 215 0
-28.6158 4.2658 -64.6027 0.612 -0.017 0.791 230 221 212 0
-31.8151 9.4437 -66.2802 0.610 -0.418 -0.673 231 221 218 0
-17.3704 32.0216 -61.9010 0.979 0.200 -0.044 223 217 217 0
-13.1929 30.0459 -60.0432 0.919 0.279 0.280 223 217 217 0
-9.8704 30.1697 -58.6835 0.047 -0.999 -0.015 223 217 217 0
-11.7817 38.5214 -60.0512 0.583 0.519 0.625 200 200 204 0
-9.1003 38.6200 -58.9538 0.687 -0.703 0.183 197 192 196 0
-6.8194 37.4506 -57.9332 0.778 -0.602 0.181 197 192 196 0
-8.5651 39.4685 -58.7924 0.334 -0.800 0.499 194 192 195 0
-6.3932 38.6418 -57.8405 0.727 0.530 0.436 192 190 193 0
-6.1859 39.6891 -57.8279 0.884 -0.467 0.001 191 188 191 0
-5.9969 39.8601 -57.7619 0.527 -0.801 0.284 191 188 191 0
13.9892 32.1886 -48.9978 0.831 -0.400 0.386 221 212 70 0
15.1873 32.3251 -48.5139 0.803 -0.359 0.475 229 219 70 0
14.5264 34.6444 -48.9473 0.790 0.205 -0.578 231 225 66 0
16.8130 34.1733 -47.9728 0.435 -0.894 -0.109 232 227 63 0
15.7318 38.5020 -48.7190 0.377 -0.801 0.465 228 220 59 0
15.1674 39.5183 -49.0221 0.220 -0.680 0.699 226 218 57 0
20.2673 37.1066 -46.7541 0.924 -0.361 0.123 222 209 53 0
7.6732 48.1830 -52.7107 0.754 -0.512 0.412 220 208 51 0
7.7927 48.3871 -52.6757 0.754 -0.512 0.412 218 207 53 0
19.1788 39.6596 -47.3799 0.926 0.287 0.246 213 199 50 0
19.0211 42.5684 -47.6471 0.515 -0.738 -0.436 180 168 48 0
20.0643 44.4353 -47.3472 0.922 -0.355 0.158 43 98 47 0
19.7997 45.2596 -47.5135 0.542 -0.413 0.732 39 97 46 0
17.3330 47.9022 -48.7130 0.226 -0.968 0.111 36 98 46 0
17.6457 47.9010 -48.5842 0.150 -0.981 0.126 34 98 46 0
17.9368 47.9191 -48.4655 -0.011 -0.997 0.079 32 99 48 0
18.1829 51.3043 -48.5995 0.841 0.451 0.299 27 104 53 0
18.1465 51.6487 -48.6384 0.861 0.430 0.273 29 106 52 0
17.8648 52.2427 -48.7957 0.334 -0.893 -0.302 31 107 54 0
18.6496 51.7557 -48.4387 0.660 -0.747 -0.078 32 106 55 0
14.8858 57.5327 -50.3903 0.552 0.085 0.829 30 109 52 0
12.6811 68.2055 -52.0402 0.916 0.365 -0.166 62 116 90 0
17.4403 81.4059 -50.9978 0.951 0.165 -0.263 185 185 179 0
25.4162 71.6847 -47.0374 0.806 0.013 -0.591 187 186 178 0
37.4400 71.0384 -42.0407 0.604 -0.321 -0.729 179 168 164 0
