ply
format ascii 1.0
element vertex 830
property float x
property float y
property float z
property float nx
property float ny
property float nz
property uchar diffuse_red
property uchar diffuse_green
property uchar diffuse_blue
property uchar class
end_header
10.6212 60.6123 -17.2209 0.963 0.261 -0.060 214 203 187 0
23.0922 53.6398 -15.6140 0.401 -0.665 0.630 207 196 174 0
23.4715 54.4198 -15.4988 0.239 -0.912 0.333 207 196 171 0
30.6078 52.4587 -14.4437 -0.055 -0.870 0.490 201 188 160 0
35.2245 62.4799 -13.0064 0.470 -0.639 -0.609 189 167 138 0
35.5526 64.3574 -12.8264 0.761 0.130 -0.636 186 166 134 0
39.5316 68.2579 -11.9043 0.809 -0.395 -0.434 157 135 96 0
39.8366 73.3118 -11.5157 0.496 -0.841 -0.214 254 255 255 0
-43.5341 10.2772 -29.8441 0.164 -0.468 0.868 231 215 181 0
-42.7926 10.2865 -29.7191 0.151 -0.449 0.881 230 214 180 0
-22.7135 5.6442 -26.6575 0.764 -0.412 0.497 235 218 188 0
-22.6280 5.8352 -26.6306 0.764 -0.412 0.497 234 217 187 0
-26.3144 12.4810 -26.8116 0.731 -0.671 -0.120 241 227 200 0
-21.1982 31.1633 -24.7250 0.636 0.051 0.770 235 225 194 0
-17.9929 29.8963 -24.2709 0.711 -0.227 0.665 233 223 192 0
-13.2991 29.3285 -23.5212 0.744 -0.668 -0.018 215 188 161 0
-13.2932 29.5906 -23.5029 0.826 -0.562 0.031 179 148 123 0
-13.3343 29.8812 -23.4907 0.897 -0.443 0.007 155 123 98 0
-10.3117 30.4517 -22.9463 0.330 -0.690 0.644 146 90 79 0
-9.9014 30.7295 -22.8593 0.330 -0.690 0.644 151 92 78 0
-9.5251 31.0272 -22.7766 0.423 -0.740 0.522 150 90 77 0
-7.4212 31.0264 -22.4239 0.468 -0.154 0.870 146 80 68 0
-6.5570 31.5292 -22.2459 0.732 0.074 0.677 138 74 62 0
-6.5454 32.0522 -22.2095 0.731 0.107 0.674 142 75 67 0
-6.6274 32.3721 -22.2023 0.790 -0.310 0.528 139 73 64 0
-6.7260 32.7039 -22.1970 0.459 -0.847 0.267 133 67 58 0
-6.6232 32.9042 -22.1666 0.444 -0.863 0.240 128 62 53 0
-6.5329 33.1129 -22.1377 0.467 -0.876 0.119 123 57 48 0
-3.0292 44.3602 -20.8105 0.578 -0.604 0.548 130 56 50 0
-1.6225 45.0016 -20.5324 0.661 -0.414 0.626 129 53 49 0
-1.0108 46.2834 -20.3455 0.925 -0.121 0.361 127 55 53 0
-1.1041 47.5653 -20.2769 0.764 -0.531 0.366 124 60 51 0
-0.9816 47.7646 -20.2432 0.764 -0.531 0.366 124 62 53 0
-2.5836 54.1642 -20.0910 0.254 -0.616 0.745 205 178 156 0
-2.2945 54.2266 -20.0384 0.464 -0.578 0.672 222 200 179 0
-2.1318 54.4023 -19.9995 0.464 -0.578 0.672 223 204 185 0
-2.3790 54.9497 -20.0050 0.364 -0.294 0.884 220 204 187 0
-1.7763 54.7259 -19.9186 0.244 -0.622 0.744 220 205 190 0
-1.7847 55.0574 -19.8982 0.183 -0.752 0.633 220 206 195 0
20.2361 46.5176 -16.7673 -0.009 -0.646 0.763 218 209 193 0
9.9533 62.0961 -17.4670 0.841 0.441 0.313 215 206 188 0
29.6147 52.6100 -14.7940 -0.083 -0.828 0.554 205 191 164 0
33.9019 63.6100 -13.3517 0.590 -0.093 0.802 192 173 143 0
35.2899 62.1228 -13.2168 0.388 -0.815 -0.429 190 169 140 0
35.1197 62.7292 -13.2054 0.446 -0.679 -0.583 189 168 139 0
35.4504 64.9576 -13.0034 0.958 -0.110 -0.266 186 165 134 0
-15.2560 -8.0322 -26.5021 0.669 -0.697 -0.259 69 64 55 0
-15.0668 -7.8954 -26.4613 0.607 -0.754 -0.252 221 206 178 0
-16.8363 -6.8933 -26.6957 0.630 -0.723 -0.284 225 207 178 0
-16.8484 -6.7022 -26.6854 0.674 -0.739 0.015 226 209 181 0
-24.0561 -4.4605 -27.7596 0.868 -0.212 -0.449 226 209 180 0
-42.6809 10.2651 -29.9573 0.130 -0.356 0.925 231 215 181 0
-21.6981 31.1990 -25.0540 0.613 -0.605 0.508 236 224 193 0
-20.2187 30.6425 -24.8398 0.600 -0.443 0.667 235 223 191 0
-13.4389 29.1769 -23.7878 0.768 -0.641 -0.003 213 186 163 0
-13.3785 29.4069 -23.7627 0.767 -0.641 0.014 173 138 117 0
-13.2938 29.6230 -23.7344 0.794 -0.605 0.056 154 115 96 0
-13.2077 29.8384 -23.7059 0.766 -0.641 0.045 151 109 91 0
-10.0556 30.3274 -23.1411 0.467 -0.817 0.339 147 89 78 0
-6.9645 31.0331 -22.5726 0.263 -0.884 0.386 158 89 78 0
-6.7092 31.1334 -22.5229 0.250 -0.887 0.389 152 83 73 0
-6.1096 31.0112 -22.4294 0.689 -0.684 -0.238 149 80 70 0
-4.6023 39.5312 -21.6233 0.560 -0.369 0.742 142 63 53 0
-4.3438 42.7918 -21.3687 0.681 -0.197 0.705 158 83 74 0
-2.8745 44.2833 -21.0236 0.520 -0.612 0.596 134 57 52 0
-1.5635 44.4102 -20.7937 0.723 -0.588 0.363 146 67 63 0
-1.5560 44.6990 -20.7737 0.775 -0.523 0.354 137 59 55 0
-1.4371 44.8978 -20.7408 0.775 -0.523 0.354 134 56 52 0
-0.7802 47.6439 -20.4520 0.755 -0.532 0.383 124 60 51 0
-1.1328 51.3383 -20.2727 0.662 0.324 0.676 139 94 75 0
-1.0842 51.6092 -20.2469 0.463 0.216 0.859 145 103 82 0
-2.0701 54.0801 -20.2538 0.248 -0.808 0.534 197 168 148 0
-2.0469 54.3814 -20.2304 0.250 -0.646 0.722 217 192 174 0
-1.8354 54.5127 -20.1862 0.250 -0.646 0.722 224 202 185 0
-1.6595 54.9997 -20.1249 0.160 -0.717 0.678 221 205 192 0
-1.8518 55.5008 -20.1250 0.361 -0.527 0.770 220 207 193 0
-1.5827 55.5793 -20.0744 0.243 -0.755 0.609 219 208 194 0
13.7907 52.1915 -17.6932 0.386 -0.895 0.221 219 212 195 0
14.1677 52.1025 -17.6352 0.606 -0.720 -0.337 219 212 194 0
20.0813 46.7383 -16.9819 -0.042 -0.733 0.679 217 210 193 0
10.1636 72.9726 -16.9624 0.797 0.074 0.599 206 191 168 0
9.7414 73.8740 -16.9755 0.670 -0.717 0.192 207 192 170 0
10.2408 73.6273 -16.9070 0.646 -0.502 0.575 206 191 170 0
35.7487 48.9695 -14.1875 0.545 0.410 0.731 193 179 151 0
35.1234 61.7915 -13.4638 0.503 -0.470 0.725 190 171 141 0
35.1053 62.1573 -13.4432 0.388 -0.828 -0.406 189 169 141 0
35.3406 62.1272 -13.4054 0.349 -0.838 -0.419 189 168 141 0
42.5711 63.0106 -12.1252 0.100 -0.733 -0.672 159 135 97 0
39.8035 68.6948 -12.2257 0.448 -0.854 -0.263 157 133 95 0
40.5371 72.2004 -11.8748 0.398 -0.831 -0.389 254 255 254 0
-15.3130 -8.0111 -26.7064 0.669 -0.697 -0.259 69 63 55 0
-15.1248 -7.8738 -26.6655 0.607 -0.754 -0.252 220 206 177 0
-16.8385 -6.6971 -26.8831 0.674 -0.739 0.015 225 208 178 0
-29.2192 6.5345 -28.1537 0.892 -0.429 -0.142 231 215 179 0
-11.7574 23.8711 -24.0718 0.095 -0.883 0.460 236 227 196 0
-21.9520 31.0952 -25.3516 -0.071 -0.991 0.115 238 223 194 0
-13.5747 29.0228 -24.0542 0.905 -0.388 -0.176 216 190 167 0
-13.5488 29.2730 -24.0339 0.801 -0.566 -0.196 175 143 123 0
-13.3822 29.4410 -23.9947 0.760 -0.648 0.050 154 117 99 0
-13.2328 29.6190 -23.9579 0.760 -0.648 0.050 149 110 93 0
-13.7060 30.1661 -24.0039 -0.129 -0.760 0.638 146 106 90 0
-9.8129 30.2114 -23.3368 0.315 -0.763 0.565 148 89 79 0
-9.6216 30.3581 -23.2948 0.312 -0.770 0.556 152 91 81 0
-6.5521 31.0668 -22.7260 0.394 -0.795 0.462 148 75 68 0
-4.6017 36.4935 -22.0481 0.273 -0.933 0.234 131 60 50 0
-4.3957 36.6234 -22.0047 0.576 -0.809 0.116 134 62 53 0
-4.9468 38.9755 -21.9491 0.930 -0.238 0.281 138 62 54 0
-3.0797 41.5730 -21.4653 0.774 -0.632 0.050 155 78 69 0
-2.8286 41.9564 -21.3981 0.404 -0.671 0.621 158 83 72 0
-2.3850 42.1899 -21.3076 0.408 -0.505 0.761 168 94 85 0
-1.3124 44.5483 -20.9746 0.658 -0.708 0.256 137 58 53 0
-1.3603 44.8825 -20.9615 0.772 -0.524 0.360 136 59 54 0
-1.2151 45.9521 -20.8687 0.509 -0.850 0.139 129 54 51 0
-1.1792 46.2214 -20.8454 0.437 -0.862 0.258 126 51 48 0
0.3017 47.0764 -20.5384 0.660 -0.272 0.700 120 57 48 0
0.2748 47.4004 -20.5224 0.719 -0.201 0.666 119 56 47 0
-0.7631 52.3229 -20.3863 0.336 0.150 0.930 151 113 94 0
-1.7054 54.1284 -20.4323 0.108 -0.990 -0.090 190 159 139 0
-1.2737 54.0587 -20.3630 0.112 -0.987 -0.119 220 192 173 0
-0.9528 54.0881 -20.3064 0.112 -0.987 -0.119 226 201 182 0
-1.3744 54.7956 -20.3333 0.156 -0.720 0.676 223 204 186 0
-1.5773 55.3060 -20.3355 0.321 -0.563 0.762 223 206 188 0
-1.2079 55.2914 -20.2734 0.182 -0.771 0.610 222 207 189 0
13.7683 52.2745 -17.9102 0.454 -0.889 -0.059 218 211 193 0
14.2337 52.0926 -17.8424 0.771 -0.377 -0.514 218 211 192 0
14.2166 52.4181 -17.8246 0.712 -0.446 -0.543 216 209 191 0
1.2729 73.0579 -18.7201 0.957 0.286 -0.043 215 204 185 0
1.3571 73.3403 -18.6877 0.960 0.277 -0.044 215 204 186 0
20.7857 58.5382 -16.3145 -0.003 -0.873 0.488 207 195 171 0
10.3460 72.8269 -17.1868 0.797 0.074 0.599 208 193 170 0
10.3272 73.2250 -17.1647 0.765 0.026 0.643 208 193 170 0
10.3528 73.5690 -17.1384 0.648 -0.494 0.581 208 193 170 0
21.1005 76.9408 -15.0903 0.160 0.150 0.976 192 173 147 0
14.2385 87.4585 -15.5920 0.159 0.149 0.976 191 172 145 0
35.8026 57.5382 -13.8161 0.594 0.332 0.733 192 170 146 0
35.1186 62.2205 -13.6350 0.624 -0.453 0.637 189 168 141 0
34.7742 63.1007 -13.6377 0.073 -0.920 -0.384 189 168 141 0
34.9331 63.1927 -13.6048 0.077 -0.922 -0.378 189 168 141 0
41.7665 63.8438 -12.3975 0.676 -0.022 -0.736 159 135 97 0
40.4847 72.4037 -12.0717 0.568 -0.787 -0.241 254 255 254 0
-15.3701 -7.9899 -26.9111 0.669 -0.697 -0.259 70 63 56 0
-15.1828 -7.8522 -26.8702 0.607 -0.754 -0.252 220 205 177 0
-15.2865 -7.2717 -26.8518 0.867 -0.410 -0.284 225 206 179 0
-16.6900 -6.7273 -27.0592 0.870 -0.377 0.316 224 207 178 0
-18.5412 -5.8711 -27.3242 0.678 -0.721 0.144 226 209 179 0
-16.0511 2.9676 -26.3431 0.202 -0.944 -0.263 234 218 185 0
-24.0787 30.3523 -26.0122 0.949 -0.243 0.200 236 227 197 0
-25.2711 31.2827 -26.1593 0.986 -0.068 0.150 236 227 197 0
-16.4934 28.8688 -24.7997 0.514 -0.326 0.794 236 219 192 0
-16.3004 29.0268 -24.7567 0.752 -0.624 0.214 235 218 191 0
-15.0787 29.3959 -24.5234 0.798 -0.458 -0.393 225 207 182 0
-15.0572 29.6512 -24.5037 0.863 -0.439 -0.251 205 182 159 0
-14.9308 29.8459 -24.4698 0.845 -0.466 -0.263 174 145 124 0
-14.7715 30.0214 -24.4314 0.623 -0.769 0.144 154 118 100 0
-14.1066 29.8992 -24.3246 0.002 -0.762 0.648 149 109 94 0
-13.6559 29.9010 -24.2469 -0.126 -0.751 0.649 147 106 92 0
-11.7055 30.0704 -23.9007 0.098 -0.705 0.702 150 98 87 0
-7.1141 29.8826 -23.1224 0.308 -0.701 0.643 137 68 60 0
-6.8184 30.2195 -23.0505 0.410 -0.828 0.383 138 65 59 0
-5.4170 33.5520 -22.6009 0.521 -0.743 0.420 126 62 52 0
-4.3466 36.6279 -22.2244 0.588 -0.801 0.111 133 60 51 0
-3.0488 41.5932 -21.6906 0.774 -0.632 0.050 157 79 69 0
-0.5785 50.9556 -20.6802 0.641 0.304 0.705 128 80 66 0
-0.0408 51.7302 -20.5392 0.337 0.136 0.932 136 98 80 0
-1.4295 53.9345 -20.6404 0.369 -0.228 0.901 164 130 110 0
-1.3662 54.1987 -20.6129 0.294 -0.947 0.132 180 149 128 0
-0.9684 54.1585 -20.5470 0.113 -0.986 -0.122 217 189 168 0
0.0114 53.9036 -20.3943 0.201 -0.955 -0.217 225 204 182 0
0.2238 54.0286 -20.3500 0.538 -0.816 -0.211 221 205 183 0
14.4243 52.5664 -17.9978 0.449 -0.894 0.004 217 210 192 0
22.1395 56.6274 -16.4163 0.709 -0.690 -0.147 207 195 171 0
21.1787 58.1258 -16.4880 0.920 -0.387 0.067 208 196 172 0
21.3858 58.1951 -16.4480 0.894 -0.448 -0.011 208 195 172 0
10.5350 73.4226 -17.3630 0.794 0.048 0.606 208 193 169 0
30.3581 51.8459 -15.3010 -0.088 -0.365 0.927 202 190 165 0
27.4426 64.5390 -15.0091 0.981 0.122 -0.152 195 175 150 0
15.8192 84.8091 -15.7418 -0.012 -0.641 0.767 192 175 149 0
16.1388 84.7531 -15.6903 0.037 -0.628 0.778 191 174 146 0
34.3596 60.7872 -14.0534 0.390 0.180 0.903 190 169 144 0
35.2130 62.1566 -13.8209 0.605 -0.484 0.633 189 168 141 0
34.5952 63.4671 -13.8453 0.087 -0.964 -0.253 189 168 141 0
40.5340 72.4151 -12.2639 0.365 -0.854 -0.371 254 255 254 0
-15.4274 -7.9686 -27.1161 0.669 -0.697 -0.259 70 63 56 0
-15.2453 -7.8295 -27.0760 0.595 -0.770 -0.229 220 204 178 0
-15.3434 -7.2497 -27.0574 0.867 -0.410 -0.284 225 207 179 0
-16.6567 -6.7282 -27.2533 0.847 -0.530 0.044 225 208 179 0
-2.4724 -0.7449 -24.4240 -0.051 -0.825 -0.563 235 220 190 0
-7.5567 9.3846 -24.6840 -0.347 -0.927 0.145 234 222 198 0
-16.3377 28.2779 -25.0470 0.385 -0.883 0.268 232 220 194 0
-15.6907 28.4443 -24.9245 0.853 -0.484 0.195 232 219 194 0
-15.6339 28.6782 -24.9003 0.839 -0.420 0.346 232 218 193 0
-15.3635 28.7902 -24.8465 0.838 -0.439 0.324 230 217 191 0
-15.1062 29.7115 -24.7452 0.813 -0.582 -0.007 164 140 117 0
-14.9687 29.9000 -24.7098 0.600 -0.783 0.163 150 120 100 0
-14.7592 30.0463 -24.6645 0.609 -0.771 0.187 151 113 96 0
-13.6722 29.6755 -24.4986 -0.039 -0.649 0.760 149 105 92 0
-13.3843 29.7727 -24.4427 -0.046 -0.681 0.731 149 103 91 0
-4.8930 33.2356 -22.7563 0.330 -0.795 0.509 127 63 53 0
-4.7356 33.6660 -22.7025 0.592 -0.667 0.452 125 61 51 0
-4.1678 36.5402 -22.4274 0.612 -0.779 0.132 132 59 49 0
-4.1116 36.7764 -22.4031 0.583 -0.807 0.096 134 61 51 0
-3.3870 37.0860 -22.2583 0.572 -0.805 0.157 129 57 45 0
-3.6959 40.6928 -22.0903 0.703 -0.683 0.198 158 81 66 0
-3.5352 40.8579 -22.0523 0.703 -0.687 0.185 163 85 73 0
-3.4034 41.0448 -22.0180 0.710 -0.681 0.180 165 87 76 0
-2.0597 42.0252 -21.7245 0.737 -0.363 0.571 174 102 90 0
-1.4986 45.6853 -21.4023 0.971 -0.205 0.124 135 57 57 0
-0.5300 46.3766 -21.1917 0.933 -0.342 -0.114 129 51 48 0
-1.0222 53.6212 -20.8320 0.384 -0.196 0.902 144 108 89 0
-0.9849 53.9080 -20.8079 0.449 -0.171 0.877 155 123 104 0
-0.8824 54.1361 -20.7761 0.239 -0.963 0.122 177 148 127 0
-0.5426 54.1471 -20.7164 0.047 -0.993 -0.110 212 186 164 0
-0.0064 53.9763 -20.6339 0.003 -0.997 -0.083 226 202 181 0
0.3789 53.9420 -20.5691 -0.008 -1.000 0.013 222 203 181 0
-1.3376 59.8449 -20.5043 0.224 -0.948 -0.225 221 213 194 0
14.3661 52.6883 -18.2188 0.467 -0.884 -0.024 217 210 192 0
12.7296 59.9268 -18.0580 0.562 -0.301 0.770 216 205 183 0
22.0983 56.7461 -16.6276 0.725 -0.687 -0.054 208 196 172 0
22.2852 56.8363 -16.5896 0.702 -0.700 -0.131 207 195 171 0
21.4852 58.1424 -16.6482 0.932 -0.352 0.086 206 195 170 0
10.4998 73.5486 -17.6080 0.671 0.220 0.708 208 194 168 0
30.2952 50.1993 -15.6073 -0.073 -0.467 0.881 205 191 165 0
22.0296 65.5081 -16.1011 0.366 0.253 0.896 202 189 162 0
27.3052 65.5119 -15.1853 0.871 -0.435 -0.227 195 175 150 0
39.9020 73.7158 -12.4952 0.546 -0.741 -0.391 254 255 255 0
-15.4847 -7.9473 -27.3217 0.669 -0.697 -0.259 70 62 55 0
-15.2979 -7.8092 -27.2806 0.595 -0.770 -0.229 220 204 176 0
-16.7054 28.7831 -25.3183 0.467 -0.829 -0.308 227 220 197 0
-15.4232 28.3232 -25.1216 0.886 -0.368 0.281 225 218 198 0
-15.4085 28.5806 -25.1035 0.871 -0.388 0.302 225 216 199 0
-15.3706 28.8254 -25.0821 0.840 -0.433 0.328 225 214 194 0
-15.3299 29.0690 -25.0603 0.799 -0.495 0.342 221 209 186 0
-15.1304 29.7575 -24.9838 0.607 -0.795 0.001 147 117 97 0
-14.9428 29.9169 -24.9414 0.578 -0.814 -0.054 149 114 95 0
-14.6105 29.9912 -24.8787 0.524 -0.846 0.094 148 109 92 0
-13.2584 29.4638 -24.6739 -0.025 -0.647 0.762 148 104 88 0
-6.9072 29.5585 -23.5567 0.373 -0.651 0.661 137 69 62 0
-6.8092 29.7578 -23.5275 0.463 -0.595 0.657 136 67 63 0
-6.6528 29.9204 -23.4903 0.463 -0.595 0.657 137 66 64 0
-3.2840 36.7754 -22.4870 0.544 -0.837 0.059 134 62 49 0
-3.4145 37.1459 -22.4874 0.702 -0.707 -0.086 131 59 45 0
-3.2670 37.3163 -22.4513 0.727 -0.686 0.010 130 58 44 0
-3.3770 40.7811 -22.2615 0.777 -0.483 0.405 167 91 71 0
-3.2323 40.9580 -22.2255 0.696 -0.513 0.503 169 92 75 0
0.4113 45.0448 -21.3411 0.447 -0.595 0.668 130 52 50 0
0.7933 50.1581 -20.9656 0.991 0.040 0.131 114 67 57 0
0.6109 50.6304 -20.9690 0.989 0.043 0.143 115 72 59 0
-0.7195 54.0436 -20.9959 0.464 -0.184 0.867 148 117 97 0
-0.5142 54.1775 -20.9519 0.362 -0.917 0.166 169 143 121 0
-0.1573 54.1714 -20.8898 0.444 -0.895 -0.037 200 175 154 0
0.2538 54.1139 -20.8213 0.295 -0.948 -0.122 221 199 179 0
0.8986 54.1586 -20.7057 0.192 -0.981 0.003 220 207 186 0
13.6611 52.8757 -18.5496 0.606 -0.457 -0.651 218 211 192 0
22.3252 56.8558 -16.7930 0.676 -0.650 -0.347 207 195 171 0
22.4742 56.9924 -16.7587 0.676 -0.650 -0.347 206 194 170 0
24.2109 55.4783 -16.5462 -0.005 -0.949 -0.316 206 193 170 0
29.5992 50.5556 -15.9003 -0.010 -0.202 0.979 207 192 168 0
23.5981 63.4864 -16.1700 0.366 0.253 0.896 204 190 161 0
37.0386 62.4784 -13.8786 0.379 -0.870 -0.315 187 168 138 0
37.6698 75.2700 -12.9961 0.230 -0.829 -0.509 153 129 91 0
37.9337 75.1729 -12.9558 0.691 -0.600 -0.402 155 132 91 0
39.9028 73.8204 -12.6928 0.546 -0.741 -0.391 254 255 255 0
-16.4956 -6.3769 -27.6040 0.096 -0.914 -0.394 228 208 181 0
-15.1076 13.8234 -26.1617 -0.137 -0.969 -0.207 235 225 197 0
-18.6172 28.0040 -25.9405 -0.073 -0.845 0.530 231 221 204 0
-17.0794 27.4238 -25.7036 0.178 -0.817 0.549 231 221 204 0
-16.4056 27.3158 -25.5910 0.309 -0.325 0.894 231 221 204 0
-19.8665 30.3270 -26.0233 -0.231 -0.916 0.328 226 219 200 0
-15.4103 28.3467 -25.3543 0.709 -0.652 -0.268 225 218 199 0
-15.4918 28.6591 -25.3501 0.762 -0.620 0.188 224 216 197 0
-15.4488 28.9013 -25.3282 0.755 -0.622 0.208 226 213 194 0
-15.0936 29.7679 -25.2141 0.562 -0.825 -0.061 149 114 97 0
-14.8081 29.8702 -25.1577 0.457 -0.889 -0.011 148 110 94 0
-14.5083 29.9633 -25.0993 0.468 -0.883 -0.022 147 105 90 0
-12.7517 29.1972 -24.8347 -0.008 -0.646 0.764 147 101 87 0
-11.8322 29.1826 -24.6733 -0.091 -0.891 0.445 146 95 84 0
-6.5183 28.5717 -23.7717 0.586 -0.189 0.788 143 77 69 0
-6.7702 28.9864 -23.7915 0.396 -0.614 0.682 143 77 69 0
-6.4971 29.3349 -23.7227 0.694 -0.354 0.627 132 66 58 0
-6.5888 31.2281 -23.6267 0.521 -0.840 0.152 130 60 58 0
-3.3093 40.7730 -22.4821 0.675 -0.550 0.491 169 94 71 0
-3.1064 40.9055 -22.4385 0.701 -0.513 0.495 171 95 74 0
0.3031 44.8873 -21.6007 0.456 -0.606 0.651 130 52 50 0
1.0824 49.6459 -21.1811 0.976 0.151 0.155 109 62 53 0
1.0634 49.9711 -21.1652 0.976 0.148 0.157 109 63 53 0
-0.5948 54.3078 -21.2008 0.393 -0.920 -0.012 150 122 103 0
-0.2984 54.3578 -21.1455 0.441 -0.897 -0.032 168 142 124 0
0.1584 54.2587 -21.0708 0.484 -0.853 -0.197 207 183 165 0
0.4804 54.2824 -21.0126 0.488 -0.849 -0.202 221 202 183 0
0.7896 54.3168 -20.9559 0.525 -0.822 -0.220 220 204 183 0
1.0954 54.3533 -20.8998 0.547 -0.775 -0.317 220 207 185 0
13.5071 52.7880 -18.8022 0.636 -0.373 -0.676 219 212 193 0
13.6960 52.8990 -18.7622 0.553 -0.465 -0.691 218 211 192 0
13.9593 52.9309 -18.7139 0.409 -0.813 -0.413 218 211 192 0
14.3872 52.7865 -18.6469 0.273 -0.866 0.420 216 209 190 0
22.2770 56.6641 -17.0247 0.631 -0.775 -0.038 209 197 173 0
22.2474 57.0204 -17.0088 0.616 -0.739 -0.273 207 195 171 0
22.4174 57.1315 -16.9722 0.611 -0.743 -0.274 207 195 171 0
22.5333 57.3093 -16.9412 0.657 -0.754 0.023 207 195 171 0
37.6608 75.3924 -13.1996 0.230 -0.829 -0.509 153 129 91 0
44.4914 65.5849 -12.5755 0.526 -0.770 -0.362 255 255 255 0
-17.1730 27.5053 -25.9535 0.234 -0.502 0.832 230 221 207 0
-15.9853 27.1127 -25.7649 0.319 -0.312 0.895 229 220 205 0
-15.5947 28.7488 -25.6002 0.735 -0.634 -0.240 224 213 193 0
-15.5498 28.9904 -25.5782 0.546 -0.829 0.122 220 202 184 0
-15.5035 29.2316 -25.5559 0.508 -0.860 0.054 177 153 136 0
-15.4452 29.4663 -25.5319 0.525 -0.850 0.032 148 117 101 0
-15.3002 29.6510 -25.4953 0.763 -0.608 0.217 147 109 94 0
-15.0788 29.7912 -25.4478 0.576 -0.817 -0.010 146 105 93 0
-11.4562 28.9911 -24.8497 -0.096 -0.885 0.455 143 90 79 0
-6.5482 28.8811 -23.9827 0.391 -0.617 0.683 134 67 59 0
-6.3503 29.5359 -23.9094 0.532 -0.260 0.806 130 61 57 0
-3.4357 37.2414 -22.9423 0.672 -0.701 0.237 133 61 46 0
-3.8079 42.0633 -22.7280 0.823 -0.565 0.067 163 86 66 0
-3.6499 42.2326 -22.6900 0.820 -0.568 0.068 167 90 72 0
-3.2779 42.2363 -22.6236 0.612 -0.734 0.295 171 93 78 0
-0.4234 44.3540 -21.9924 0.571 -0.467 0.676 138 57 56 0
0.3376 44.9066 -21.8249 0.832 -0.399 0.385 138 60 58 0
0.5171 45.0529 -21.7844 0.817 -0.451 0.359 137 59 57 0
0.3770 50.6339 -21.4846 0.812 0.348 0.468 108 60 53 0
-0.4072 53.8706 -21.4358 0.800 -0.519 0.301 125 90 79 0
-0.5209 54.2965 -21.4312 0.535 -0.844 -0.043 133 101 88 0
-0.2947 54.4111 -21.3843 0.548 -0.835 -0.048 143 113 98 0
-0.0313 54.4907 -21.3328 0.544 -0.835 -0.083 168 141 124 0
0.4302 54.3858 -21.2568 0.471 -0.871 -0.138 209 185 168 0
0.7924 54.3712 -21.1932 0.516 -0.825 -0.229 220 201 182 0
1.0605 54.4431 -21.1413 0.538 -0.783 -0.312 220 204 183 0
26.0104 44.5749 -17.2756 0.978 0.178 -0.107 215 204 186 0
12.5722 61.3138 -18.6930 0.519 0.145 0.842 214 202 184 0
22.0654 57.3132 -17.2364 0.624 -0.754 -0.206 207 195 171 0
22.6767 57.8454 -17.0967 -0.252 -0.888 0.384 205 193 169 0
22.6206 58.2394 -17.0837 -0.285 -0.938 0.199 205 192 169 0
22.9377 58.1660 -17.0315 -0.289 -0.940 0.180 205 192 169 0
27.8121 67.4939 -15.6214 -0.123 -0.919 0.374 190 175 146 0
35.1856 59.1920 -14.7923 0.209 -0.794 -0.571 189 169 142 0
36.5480 57.7683 -14.6327 0.518 0.253 0.817 188 169 142 0
40.4228 70.0105 -13.2308 0.494 -0.216 -0.842 155 131 93 0
37.7153 75.3978 -13.3991 0.311 -0.848 -0.429 155 131 92 0
38.0864 75.4939 -13.3275 0.307 -0.849 -0.430 152 129 88 0
44.5152 65.6383 -12.7570 0.502 -0.824 -0.264 255 255 255 0
-16.8422 15.5741 -26.8138 -0.110 -0.830 -0.547 238 226 199 0
-15.3944 24.9951 -26.0161 0.957 -0.184 -0.224 233 225 211 0
-12.8961 23.9022 -25.6302 0.857 -0.032 -0.514 231 223 209 0
-16.9416 26.6150 -26.2012 0.549 -0.813 0.196 230 223 209 0
-21.7829 31.1915 -26.8085 -0.303 -0.940 0.158 227 219 201 0
-15.7523 28.6027 -25.8743 0.608 -0.726 -0.322 225 214 195 0
-15.6933 28.8362 -25.8504 0.699 -0.654 -0.290 213 197 179 0
-15.7528 29.1380 -25.8438 0.662 -0.727 -0.185 186 162 146 0
-15.7021 29.3773 -25.8211 0.603 -0.796 -0.049 151 119 106 0
-15.5178 29.5398 -25.7787 0.603 -0.797 -0.035 146 108 96 0
-15.2530 29.6554 -25.7246 0.757 -0.618 0.214 147 103 93 0
-15.1307 29.8534 -25.6914 0.701 -0.671 0.243 143 98 90 0
-14.7956 29.9270 -25.6270 0.523 -0.822 0.224 141 95 87 0
-3.6820 39.1437 -23.1067 0.852 -0.378 0.362 143 72 52 0
-0.4099 44.3901 -22.2200 0.771 -0.500 0.394 140 60 59 0
0.3052 44.6861 -22.0748 0.683 -0.727 0.065 139 60 58 0
0.4926 44.8259 -22.0332 0.870 -0.462 -0.171 140 62 59 0
0.6230 45.0127 -21.9991 0.782 -0.596 -0.182 140 61 59 0
0.8917 45.0840 -21.9469 0.782 -0.617 -0.082 137 59 57 0
0.9096 49.5956 -21.6860 0.450 0.224 0.865 110 56 53 0
0.8157 50.6078 -21.6451 0.787 -0.597 0.153 111 61 57 0
0.6357 51.0807 -21.6504 0.588 -0.750 0.302 110 63 57 0
1.2826 50.8123 -21.5496 0.704 -0.606 0.370 109 62 57 0
1.4597 50.9644 -21.5092 0.680 -0.561 0.472 111 66 61 0
-0.0755 53.6233 -21.6328 0.827 -0.404 0.390 120 83 74 0
-0.2117 54.3914 -21.6134 0.767 -0.564 0.305 129 95 84 0
-0.0204 54.5375 -21.5707 0.818 -0.498 0.288 138 106 93 0
0.1498 54.7031 -21.5307 0.818 -0.500 0.284 165 138 123 0
-1.1636 60.6047 -21.4294 0.233 -0.847 -0.477 223 211 197 0
-1.2322 61.0137 -21.4183 0.636 -0.487 -0.598 223 211 197 0
26.0295 44.6101 -17.4636 0.988 -0.099 0.122 214 204 186 0
13.1588 60.7132 -18.8534 0.694 -0.026 0.720 214 201 184 0
37.8668 62.4125 -14.3231 0.869 -0.394 -0.297 187 166 139 0
40.5758 68.3494 -13.4980 0.652 0.154 -0.742 157 135 96 0
44.5508 65.6693 -12.9379 0.456 -0.830 -0.322 255 255 255 0
-18.5408 -2.6896 -28.3693 0.690 -0.280 -0.668 226 210 177 0
-34.4086 3.2170 -30.9089 -0.014 -0.262 0.965 229 212 182 0
-34.7857 4.2517 -30.9192 -0.187 -0.280 0.942 230 212 180 0
-18.6662 16.1752 -27.3353 -0.112 -0.832 -0.544 237 225 199 0
-16.9133 26.3659 -26.4474 0.552 -0.792 0.261 230 222 209 0
-16.8732 26.6070 -26.4266 0.549 -0.813 0.196 231 223 210 0
-16.6241 26.7340 -26.3745 0.428 -0.899 0.095 229 221 208 0
-18.2821 28.1780 -26.5935 0.884 -0.322 0.339 228 220 207 0
-20.8076 30.3990 -26.9260 -0.216 -0.733 0.645 228 221 203 0
-19.7435 30.3525 -26.7361 -0.338 -0.873 0.351 227 218 197 0
-15.9528 28.7478 -26.1402 0.590 -0.724 -0.357 219 205 184 0
-16.0794 29.0879 -26.1441 0.703 -0.588 -0.400 179 157 139 0
-15.9120 29.2607 -26.1041 0.703 -0.588 -0.400 153 122 109 0
-15.7757 29.4513 -26.0688 0.662 -0.610 -0.437 145 108 98 0
-15.5958 29.6167 -26.0270 0.662 -0.610 -0.437 142 100 92 0
-15.1993 29.6561 -25.9530 0.750 -0.627 0.212 143 97 90 0
-14.7522 29.6647 -25.8717 0.529 -0.771 0.355 138 91 86 0
-3.1498 34.6493 -23.4936 0.586 -0.713 0.384 125 60 42 0
-3.0836 40.4449 -23.1570 0.823 -0.449 0.347 158 92 57 0
-2.7503 40.4780 -23.0948 0.762 -0.159 0.628 164 97 63 0
-0.3756 44.7044 -22.4285 0.283 -0.620 0.732 147 66 63 0
0.1428 44.8682 -22.3256 0.745 -0.625 -0.235 141 61 58 0
0.4004 44.9503 -22.2744 0.775 -0.584 -0.243 142 62 58 0
0.7157 44.9835 -22.2155 0.853 -0.521 0.039 140 61 58 0
0.9025 45.1232 -22.1739 0.786 -0.615 -0.057 136 57 53 0
0.9653 45.3667 -22.1489 0.854 -0.426 0.299 132 54 52 0
1.0741 45.8691 -22.1010 0.902 -0.424 0.083 132 59 55 0
1.1686 47.5889 -21.9876 0.732 -0.506 0.456 117 53 52 0
0.6841 48.6174 -22.0177 -0.193 -0.643 0.741 114 53 52 0
0.9939 50.8135 -21.8386 0.677 -0.580 0.453 106 57 53 0
-0.0188 53.9484 -21.8462 0.912 -0.393 -0.115 120 82 73 0
0.0149 54.5620 -21.8057 0.927 -0.326 -0.188 129 94 84 0
0.1051 54.8018 -21.7760 0.927 -0.326 -0.188 143 112 100 0
0.4545 54.8004 -21.7129 0.876 -0.411 0.252 168 141 126 0
2.6986 54.3010 -21.3349 0.290 -0.866 -0.407 219 207 193 0
-1.6099 61.4468 -21.7140 0.304 -0.795 -0.524 221 211 198 0
12.5127 61.1823 -19.1741 0.483 -0.617 0.621 214 203 185 0
13.3106 60.6084 -19.0619 0.691 -0.012 0.723 213 202 184 0
51.9959 26.7139 -13.9623 0.771 0.531 0.351 201 187 160 0
40.1804 67.3372 -13.8243 0.853 0.384 -0.353 162 138 103 0
44.5622 65.7465 -13.1207 0.456 -0.830 -0.322 255 255 255 0
-18.9139 -6.2965 -28.8435 0.989 0.034 -0.144 230 208 178 0
-20.6447 -5.4654 -29.1135 0.929 -0.090 0.358 229 211 180 0
-20.7932 -2.6424 -28.9855 0.923 0.309 0.231 227 210 178 0
-8.9155 13.8349 -25.9143 0.164 -0.743 -0.649 237 227 205 0
-17.2264 26.5652 -26.7308 0.538 -0.843 0.002 230 222 208 0
-17.3019 26.8703 -26.7278 0.591 -0.806 0.028 231 223 209 0
-20.1854 30.0823 -27.0773 -0.216 -0.733 0.645 228 221 202 0
-15.9717 28.5221 -26.3945 0.741 -0.594 -0.314 226 212 191 0
-16.1706 28.9028 -26.4099 0.599 -0.752 -0.277 199 181 162 0
-3.0594 34.6241 -23.7045 0.699 -0.706 0.116 121 58 41 0
-2.9028 34.7852 -23.6671 0.699 -0.706 0.116 124 61 41 0
-3.3552 38.7032 -23.5344 0.802 -0.575 0.164 136 68 50 0
-2.7154 40.2091 -23.3350 0.544 -0.395 0.740 158 94 58 0
-4.6231 41.9454 -23.5876 0.949 0.012 -0.315 164 99 63 0
-0.2170 44.6216 -22.6370 0.419 -0.494 0.762 147 66 62 0
0.1946 44.8732 -22.5481 0.818 -0.523 0.240 143 63 59 0
0.3121 45.0717 -22.5158 0.818 -0.523 0.240 137 57 53 0
0.5374 45.1804 -22.4687 0.713 -0.567 0.413 137 57 53 0
0.7965 45.2603 -22.4171 0.488 -0.769 0.412 133 54 49 0
0.9546 45.4242 -22.3792 0.485 -0.766 0.422 132 53 49 0
1.1102 45.5902 -22.3418 0.476 -0.772 0.421 133 55 52 0
1.2749 47.5476 -22.2042 0.732 -0.506 0.456 119 54 53 0
2.7778 50.5001 -21.7680 0.957 -0.195 0.213 108 66 57 0
1.9158 52.2262 -21.8304 0.771 0.288 0.569 117 79 71 0
0.0154 54.6185 -22.0455 0.921 -0.335 -0.200 124 88 79 0
0.0832 54.8794 -22.0188 0.927 -0.326 -0.188 131 98 88 0
0.3654 54.9410 -21.9640 0.911 -0.347 0.225 144 114 103 0
0.6441 55.0048 -21.9097 0.844 -0.533 0.061 171 143 130 0
2.7437 54.3160 -21.5646 0.277 -0.870 -0.408 219 204 191 0
1.0310 57.2566 -21.7154 0.303 -0.871 0.386 217 209 194 0
12.3844 61.0601 -19.4359 0.307 -0.418 0.855 213 203 185 0
12.8587 60.8572 -19.3606 0.545 -0.381 0.747 212 202 184 0
27.1653 50.6299 -17.3132 0.220 -0.909 -0.353 207 194 176 0
37.0158 60.9097 -14.9521 0.889 0.342 0.305 189 168 144 0
44.5720 65.8269 -13.3039 0.465 -0.829 -0.311 255 255 255 0
-18.9014 -6.2919 -29.0458 0.994 0.090 -0.055 229 209 181 0
-22.6869 -2.1001 -29.5161 0.963 0.262 0.066 228 211 181 0
-24.7954 -0.6688 -29.8267 0.972 -0.182 -0.151 228 212 179 0
-12.4799 14.3629 -26.7532 0.778 0.327 0.537 234 224 199 0
-9.5759 13.9380 -26.2422 0.890 0.373 0.263 236 226 204 0
-16.9812 26.4611 -26.9295 0.533 -0.801 0.272 232 223 208 0
-16.5737 26.5021 -26.8524 0.501 -0.823 0.270 232 223 208 0
-8.4393 27.8377 -25.2850 0.152 -0.764 0.627 138 78 71 0
-2.9773 34.6048 -23.9165 0.713 -0.691 0.118 118 55 41 0
-4.7062 42.0527 -23.8334 0.949 0.012 -0.315 160 97 61 0
0.5915 44.8875 -22.7068 0.676 -0.641 0.363 141 61 57 0
0.8232 44.9902 -22.6586 0.689 -0.598 0.410 137 58 53 0
1.0581 45.0896 -22.6101 0.484 -0.746 0.457 133 54 49 0
0.2903 55.0687 -22.2141 0.862 -0.454 0.225 133 102 91 0
0.4525 55.2420 -22.1749 0.862 -0.458 0.218 143 114 102 0
0.7016 55.3335 -22.1242 0.903 -0.376 0.207 169 143 130 0
1.8907 56.4883 -21.8434 0.548 -0.707 0.447 217 209 194 0
1.4097 57.2819 -21.8891 0.420 -0.820 0.389 218 211 195 0
38.5677 62.2024 -14.7927 0.171 -0.952 -0.253 188 166 142 0
38.9896 61.8438 -14.7344 0.170 -0.937 -0.306 188 167 142 0
22.3789 90.7601 -16.2316 0.255 0.008 0.967 186 167 138 0
38.6372 71.4270 -14.2833 0.763 0.225 -0.606 160 138 101 0
38.0973 75.9026 -14.1416 0.312 -0.864 -0.394 152 129 90 0
38.2685 75.9776 -14.1061 0.290 -0.875 -0.388 99 85 65 0
44.5853 65.9009 -13.4872 0.459 -0.835 -0.305 255 255 255 0
-19.1280 -6.2264 -29.2893 0.965 0.002 0.261 229 209 181 0
-15.9836 25.9475 -27.0096 0.477 -0.855 0.205 233 224 207 0
-16.5599 26.5238 -27.0860 0.528 -0.810 0.254 233 224 207 0
-16.7958 26.9167 -27.1090 0.489 -0.842 0.226 231 222 205 0
-18.2778 28.8057 -27.2841 0.339 -0.337 0.878 227 219 199 0
-18.0337 29.2103 -27.2175 -0.146 -0.815 0.560 229 216 194 0
-6.5410 27.2380 -25.1916 0.906 -0.320 0.276 126 63 58 0
-6.4387 27.4314 -25.1624 0.820 -0.335 0.465 124 60 56 0
-6.5373 27.7476 -25.1640 0.705 -0.396 0.589 127 63 59 0
-6.6784 28.0909 -25.1721 0.758 -0.444 0.478 129 64 61 0
-6.1118 28.2571 -25.0583 0.720 -0.581 0.379 133 63 63 0
-2.1224 32.9750 -24.0701 0.638 -0.568 0.520 109 44 38 0
-1.9925 33.1512 -24.0367 0.638 -0.568 0.520 114 49 42 0
-2.7148 34.4590 -24.1016 0.742 -0.663 0.100 114 50 37 0
-2.5169 34.5905 -24.0580 0.815 -0.109 0.569 118 53 37 0
-3.8602 38.3119 -24.1107 0.551 -0.656 0.516 135 74 47 0
-4.7046 42.0956 -24.0676 0.932 0.019 -0.361 159 100 62 0
-5.2309 42.7903 -24.1285 0.591 -0.745 -0.309 162 103 66 0
-0.9486 43.8387 -23.2796 0.864 -0.504 0.020 143 60 58 0
0.6514 44.8857 -22.9278 0.675 -0.638 0.370 145 64 60 0
0.9680 44.9175 -22.8675 0.716 -0.492 0.494 143 62 58 0
2.6377 46.1708 -22.4919 0.208 -0.894 0.396 120 48 44 0
2.3189 49.1704 -22.3928 0.739 0.180 0.649 105 46 46 0
2.1467 49.6316 -22.4004 0.745 0.184 0.641 103 47 48 0
1.0091 50.9613 -22.5411 0.958 0.069 0.277 103 49 50 0
0.4827 55.2716 -22.4113 0.860 -0.459 0.224 127 98 87 0
0.8723 55.5566 -22.3241 0.891 -0.447 0.073 178 153 141 0
3.1825 54.6566 -21.9434 0.370 -0.689 -0.623 218 205 191 0
2.1552 56.9497 -22.0128 0.486 -0.720 0.495 217 210 192 0
2.3956 57.0453 -21.9632 0.383 -0.877 0.291 218 211 194 0
8.6183 65.8325 -20.3465 0.255 -0.672 -0.696 212 203 186 0
9.2098 65.5095 -20.2539 0.114 -0.779 -0.616 213 205 186 0
17.8136 83.1646 -17.7282 0.154 -0.882 -0.445 194 178 153 0
38.4145 54.3577 -15.4296 -0.077 -0.931 -0.357 192 173 148 0
40.4616 54.3204 -15.0522 0.838 0.517 0.176 189 169 145 0
37.9044 63.0436 -15.0660 0.649 -0.262 -0.715 188 167 140 0
37.9450 63.3217 -15.0438 0.637 -0.266 -0.724 188 167 140 0
37.9339 75.9201 -14.3814 0.532 -0.772 -0.349 153 129 91 0
-19.1197 -6.2207 -29.4931 0.963 0.036 0.266 228 210 182 0
-14.9814 -4.8235 -28.6479 0.098 -0.849 0.519 230 213 183 0
-20.8510 -2.7990 -29.6398 0.971 -0.238 0.019 230 213 183 0
-25.4351 -0.8862 -30.3974 0.912 -0.318 0.257 230 213 183 0
-46.8715 7.9739 -33.9442 -0.158 -0.957 -0.242 231 215 181 0
-9.5921 13.9881 -26.6695 0.788 0.463 0.406 237 227 207 0
-17.1289 29.0016 -27.3019 -0.182 -0.776 0.604 196 175 154 0
-16.5864 28.9638 -27.2026 -0.180 -0.785 0.593 154 128 108 0
-6.5640 27.0283 -25.4303 0.630 -0.224 0.744 127 64 59 0
-6.5050 27.2477 -25.4079 0.649 -0.207 0.732 130 66 62 0
-6.4705 27.7387 -25.3761 0.668 -0.089 0.739 135 71 67 0
-6.5976 28.0735 -25.3826 0.735 -0.159 0.659 136 70 68 0
-6.0603 28.2576 -25.2727 0.614 -0.647 0.452 130 59 58 0
-1.6378 32.9426 -24.2045 0.957 -0.210 0.201 109 44 38 0
-2.6340 34.4404 -24.3133 0.571 -0.636 0.519 109 45 34 0
-3.3302 37.1285 -24.3045 0.599 -0.234 0.766 133 75 44 0
-3.3022 37.9452 -24.2571 0.717 -0.413 0.561 134 76 46 0
-4.6974 41.5510 -24.3314 0.936 0.035 -0.350 149 92 54 0
-4.6607 41.8145 -24.3110 0.935 0.023 -0.353 153 97 57 0
-4.6053 42.0642 -24.2877 0.932 0.024 -0.363 157 102 61 0
-0.0379 44.0275 -23.3331 0.666 -0.741 0.089 147 62 58 0
3.5617 44.8340 -22.6190 0.504 -0.818 0.278 132 58 52 0
3.6317 45.0679 -22.5938 0.457 -0.877 0.151 127 52 46 0
1.9010 50.2141 -22.6513 0.781 0.391 0.486 105 49 50 0
3.4057 51.3321 -22.3125 0.613 0.263 0.745 107 65 61 0
3.0131 54.8772 -22.2027 0.363 -0.697 -0.619 218 201 189 0
2.3036 55.8826 -22.2833 0.277 -0.811 -0.515 219 205 191 0
2.4552 56.0631 -22.2457 0.530 -0.727 0.435 217 207 193 0
24.1685 46.9897 -18.6581 0.849 0.233 -0.474 214 206 187 0
8.9528 66.2306 -20.5067 0.234 -0.845 -0.481 214 203 185 0
31.7277 46.9222 -17.2495 0.181 -0.574 0.799 207 196 173 0
21.5732 63.3529 -18.2978 0.942 0.129 -0.310 204 188 165 0
21.5424 63.7364 -18.2837 0.939 0.181 -0.293 204 189 166 0
38.0224 63.2819 -15.2286 0.697 -0.307 -0.648 189 168 141 0
39.8614 70.1515 -14.5302 0.841 -0.117 -0.528 158 136 100 0
40.1486 69.9993 -14.4844 0.833 -0.103 -0.544 158 136 99 0
39.9493 70.7414 -14.4833 0.559 -0.703 -0.440 158 135 98 0
37.8273 75.8306 -14.6169 0.705 -0.649 -0.285 155 131 94 0
37.9594 75.9800 -14.5845 0.744 -0.615 -0.262 155 129 93 0
-18.9843 -6.2474 -29.6748 0.961 0.025 0.275 228 210 183 0
-15.2142 -4.9416 -28.8989 0.140 -0.843 0.519 229 214 185 0
-15.6004 -4.6435 -28.9566 0.326 -0.798 0.507 230 213 185 0
-31.3602 21.4448 -30.6050 -0.078 -0.851 -0.520 235 223 199 0
-14.7056 15.4436 -27.7725 0.860 0.397 0.322 236 225 203 0
-17.2869 27.2456 -27.6618 0.589 -0.767 -0.254 233 222 201 0
-13.6836 28.4020 -26.9249 -0.105 -0.716 0.690 134 86 82 0
-10.0718 26.8312 -26.3243 0.760 -0.631 -0.154 131 81 80 0
-10.0611 27.0831 -26.3095 0.406 -0.869 0.283 131 80 77 0
-10.1265 27.3803 -26.3068 0.222 -0.969 0.110 127 73 71 0
-8.3768 27.1214 -25.9904 0.098 -0.917 0.387 125 66 65 0
-6.2357 26.8614 -25.6004 0.606 -0.668 0.432 130 66 62 0
-6.0832 27.0235 -25.5635 0.606 -0.668 0.432 134 68 65 0
-6.0365 27.2499 -25.5433 0.888 0.060 0.455 129 63 59 0
-6.1583 27.5798 -25.5496 0.907 0.088 0.411 131 65 61 0
-5.8772 28.1767 -25.4664 0.640 -0.622 0.452 131 57 56 0
-3.1163 37.8501 -24.4575 0.707 -0.422 0.568 132 77 46 0
-4.4733 41.7161 -24.5176 0.581 -0.470 -0.665 154 100 58 0
-4.6510 42.4361 -24.5146 0.884 -0.102 -0.456 158 105 61 0
0.2867 43.8092 -23.5155 0.709 -0.705 -0.018 152 67 61 0
-0.2695 45.1525 -23.5523 0.867 -0.495 0.065 153 71 60 0
-0.0820 45.2948 -23.5098 0.519 -0.854 0.035 151 71 60 0
3.7228 45.0386 -22.8064 0.539 -0.570 0.620 130 53 47 0
3.9857 47.1863 -22.6483 0.517 -0.835 0.187 109 44 44 0
3.0790 49.2087 -22.7167 0.647 -0.758 -0.089 106 48 47 0
3.2566 49.3555 -22.6759 0.647 -0.758 -0.089 104 48 47 0
3.8541 49.7352 -22.5442 0.587 0.166 0.792 101 52 48 0
3.6556 51.1561 -22.5097 0.803 0.196 0.563 107 64 60 0
27.6880 43.6349 -18.3649 0.703 -0.377 -0.603 213 205 184 0
27.6692 43.9336 -18.3534 0.602 -0.528 -0.599 214 206 186 0
27.6818 44.1975 -18.3377 0.554 -0.639 -0.534 214 206 187 0
22.0824 63.1071 -18.4359 0.970 -0.222 0.094 203 188 167 0
26.5069 57.6445 -17.8790 0.314 0.007 0.950 203 189 168 0
24.0379 74.8481 -17.4741 0.392 0.158 0.906 196 179 153 0
22.8145 77.4671 -17.5720 0.620 0.313 0.720 196 178 154 0
33.3590 69.9987 -15.9642 0.756 -0.306 0.578 190 168 143 0
37.8410 75.9126 -14.8213 0.718 -0.613 -0.330 155 132 96 0
37.9463 76.1124 -14.7914 0.735 -0.624 -0.264 155 131 95 0
-26.5425 8.8099 -30.5701 -0.151 -0.444 0.883 238 227 201 0
-25.9656 8.8344 -30.4594 -0.151 -0.444 0.883 239 227 202 0
-20.8498 10.1514 -29.4234 -0.274 -0.957 -0.098 237 225 201 0
-33.9462 21.8057 -31.3323 0.436 -0.874 -0.213 236 224 200 0
-14.0869 15.1824 -27.8912 0.736 0.406 0.542 236 225 203 0
-15.2035 28.5072 -27.4440 -0.130 -0.768 0.627 143 100 91 0
-10.1034 26.8803 -26.5566 0.475 -0.689 0.548 128 77 75 0
-10.0983 27.1357 -26.5430 0.367 -0.797 0.480 128 75 75 0
-8.2130 27.0551 -26.1892 0.098 -0.917 0.387 124 64 63 0
-7.9310 27.1438 -26.1313 0.502 -0.864 -0.043 126 66 66 0
-6.0754 26.7958 -25.7964 0.763 -0.592 0.259 133 67 63 0
-5.9512 26.9748 -25.7639 0.695 -0.612 0.376 136 68 65 0
-5.7504 28.1306 -25.6687 0.629 -0.631 0.454 131 54 52 0
-3.2368 29.3734 -25.1302 0.214 -0.888 0.408 132 41 38 0
-2.3008 34.0134 -24.7231 0.497 -0.550 0.671 108 48 38 0
-0.1930 45.1374 -23.7728 0.864 -0.501 0.054 154 73 60 0
4.3686 47.1978 -22.8052 0.725 -0.688 -0.011 107 42 43 0
4.0315 49.3202 -22.7642 0.608 0.472 0.638 102 53 49 0
4.1700 49.5006 -22.7290 0.587 0.166 0.792 101 52 48 0
1.1888 58.0711 -22.8708 0.930 -0.209 0.304 218 208 191 0
27.5426 44.4138 -18.5452 0.339 -0.785 -0.519 214 206 185 0
27.6734 44.5438 -18.5139 0.420 -0.743 -0.521 214 205 185 0
38.6849 55.1171 -15.9012 -0.004 -0.906 -0.424 193 175 151 0
34.4278 69.8005 -15.9828 0.860 0.305 -0.410 188 167 140 0
34.6664 69.7711 -15.9390 0.829 0.038 -0.559 189 168 141 0
37.8508 76.0020 -15.0265 0.713 -0.605 -0.353 155 134 97 0
-17.4708 -6.4267 -29.8058 0.974 0.149 0.172 225 209 179 0
-16.2092 -5.0358 -29.4972 0.028 -0.874 0.485 231 214 186 0
-29.1907 12.4321 -31.1351 -0.239 -0.950 0.199 238 226 202 0
-20.9823 10.2204 -29.6721 -0.269 -0.957 -0.107 238 226 202 0
-28.6652 18.4798 -30.7420 -0.265 -0.787 0.557 236 224 199 0
-13.7909 15.0687 -28.0623 0.729 0.397 0.558 235 225 204 0
-14.5633 15.8936 -28.1701 0.768 0.365 0.526 237 226 203 0
-14.7057 16.1963 -28.1827 0.826 0.421 0.373 238 227 205 0
-9.9669 26.8314 -26.7619 0.467 -0.686 0.557 122 72 70 0
-8.3405 27.1620 -26.4349 0.236 -0.942 0.238 126 66 65 0
-7.9763 27.2021 -26.3633 0.251 -0.915 0.315 126 66 64 0
-2.3524 29.6058 -25.1714 0.177 -0.749 0.639 132 41 40 0
-4.1174 42.1166 -24.9039 0.192 -0.885 0.423 158 105 63 0
-4.1915 42.4663 -24.9011 0.231 -0.845 0.483 159 106 65 0
-0.9232 40.8089 -24.3562 0.562 -0.797 0.220 166 110 71 0
-1.4463 42.0824 -24.3946 0.807 -0.569 0.160 163 98 68 0
-1.4704 42.3919 -24.3843 0.836 -0.510 0.202 155 85 61 0
-0.2259 45.2129 -24.0098 0.865 -0.499 0.061 156 78 60 0
4.2060 49.5214 -22.9538 0.664 0.247 0.706 98 49 45 0
0.9875 55.3554 -23.2872 0.552 -0.263 0.792 106 77 68 0
0.9585 55.7093 -23.2756 0.574 -0.256 0.778 115 85 78 0
1.1019 55.9006 -23.2389 0.325 -0.567 0.757 129 100 94 0
1.3694 57.9564 -23.0883 0.925 -0.232 0.300 217 208 190 0
27.5359 44.4788 -18.7357 0.453 -0.718 -0.529 213 205 184 0
27.7015 44.5691 -18.6997 0.418 -0.733 -0.537 213 204 184 0
26.9034 47.4911 -18.7110 0.359 -0.742 0.566 213 202 179 0
27.0114 47.6539 -18.6825 0.431 -0.725 0.537 212 202 177 0
27.1801 47.7448 -18.6458 0.428 -0.724 0.541 213 202 179 0
27.1336 50.7546 -18.5091 -0.155 -0.786 0.598 211 199 176 0
38.9076 55.4841 -16.0285 0.025 -0.955 -0.295 189 171 147 0
34.4301 69.5226 -16.2058 0.894 0.331 -0.302 189 168 141 0
37.8403 76.1294 -15.2340 0.716 -0.617 -0.327 157 135 98 0
44.4690 66.6241 -14.4260 0.450 -0.835 -0.315 255 255 255 0
-16.0644 -7.3436 -29.7818 0.840 -0.463 -0.283 225 209 183 0
-15.8871 -7.2009 -29.7408 0.680 -0.717 -0.151 227 208 180 0
-19.9944 -5.5763 -30.4557 0.689 -0.497 -0.527 227 211 183 0
-5.3926 5.3823 -27.1233 -0.275 -0.952 -0.132 231 220 198 0
-27.5736 18.0318 -30.8005 0.747 -0.659 -0.090 236 224 200 0
-8.4014 27.2294 -26.6704 0.092 -0.996 -0.001 122 62 61 0
-6.9901 27.1551 -26.4019 0.337 -0.747 0.573 126 62 58 0
-6.8117 27.3036 -26.3605 0.335 -0.755 0.563 131 64 61 0
-2.7352 29.3738 -25.4769 0.218 -0.903 0.370 134 40 40 0
-1.7125 29.7351 -25.2627 0.326 -0.795 0.511 134 43 42 0
-3.3943 39.0239 -25.1478 0.958 -0.287 -0.027 135 81 45 0
-0.1328 45.1839 -24.2280 0.755 -0.571 0.323 160 85 61 0
3.3298 44.9342 -23.5724 0.584 -0.811 -0.018 129 48 41 0
4.7118 45.8036 -23.2649 0.545 -0.513 0.663 122 48 46 0
3.5770 51.3943 -23.2193 0.932 0.290 -0.216 95 53 49 0
0.6954 56.0171 -23.5562 0.325 -0.576 0.750 107 76 72 0
1.1611 55.9033 -23.4718 0.278 -0.518 0.809 118 88 83 0
1.3103 56.4176 -23.4188 0.517 -0.837 0.177 148 124 115 0
1.9021 56.5073 -23.3005 0.292 -0.875 -0.386 213 198 184 0
1.3655 58.0213 -23.3323 0.653 -0.509 0.561 216 206 189 0
1.5714 58.1543 -23.2863 0.621 -0.568 0.540 216 208 191 0
2.1392 57.9317 -23.1874 0.552 -0.736 0.392 217 209 192 0
27.3975 44.6947 -18.9449 0.394 -0.551 -0.736 211 203 184 0
27.8652 44.4385 -18.8668 0.303 -0.808 -0.505 212 204 185 0
28.1147 44.7113 -18.8059 0.354 -0.651 -0.671 212 204 185 0
27.0828 47.3405 -18.8805 0.398 -0.737 0.547 213 202 181 0
28.3363 53.5789 -18.3440 0.533 0.397 0.747 207 192 171 0
24.8467 59.0547 -18.7577 0.607 0.443 0.659 206 190 170 0
24.7981 75.1330 -18.0070 0.425 0.046 0.904 197 177 152 0
24.6465 75.7502 -18.0070 0.425 0.015 0.905 197 177 152 0
24.8807 75.7797 -17.9605 0.360 0.008 0.933 198 177 152 0
24.8063 76.2825 -17.9511 0.169 -0.180 0.969 197 176 152 0
44.4815 66.7009 -14.6118 0.450 -0.835 -0.315 255 255 255 0
-16.2715 -7.6591 -30.0374 0.650 -0.717 -0.252 68 61 55 0
-16.0005 -7.3523 -29.9706 0.728 -0.632 -0.266 225 210 183 0
-15.9063 -7.1885 -29.9447 0.688 -0.716 -0.117 229 211 182 0
-31.7335 -1.2385 -32.7440 -0.022 -0.976 -0.219 229 213 184 0
-27.5919 -1.9269 -31.9714 -0.145 -0.983 -0.115 228 214 185 0
-19.6066 -3.4991 -30.4931 -0.110 -0.947 -0.303 231 215 186 0
-40.0062 4.2715 -34.0964 -0.204 -0.977 -0.058 240 223 194 0
-37.9174 3.8966 -33.7080 -0.147 -0.949 -0.281 243 225 195 0
-27.6567 18.0896 -31.0597 0.717 -0.517 -0.467 235 223 201 0
-23.4365 30.7487 -29.6555 -0.393 -0.827 0.403 232 222 198 0
-17.0536 28.5750 -28.5161 0.931 0.287 0.224 149 122 107 0
-7.6665 27.0795 -26.7620 0.365 -0.927 -0.084 124 63 62 0
-6.7303 27.2860 -26.5706 0.201 -0.937 0.286 121 53 53 0
-2.7124 29.3930 -25.6929 0.321 -0.874 0.364 134 39 42 0
-1.6018 29.6964 -25.4632 0.316 -0.809 0.496 136 45 42 0
0.0003 31.9903 -25.0461 0.526 -0.482 0.701 101 35 33 0
-1.4249 34.0502 -25.2278 0.906 -0.145 0.397 103 42 34 0
-4.3097 38.8887 -25.5647 0.823 -0.083 -0.563 128 82 46 0
-3.6407 38.6810 -25.4443 0.729 -0.674 0.120 132 84 48 0
-3.2111 39.2137 -25.3363 0.805 -0.582 0.113 131 82 42 0
-3.0580 39.3838 -25.2987 0.839 -0.538 0.076 134 86 44 0
-2.5431 40.1370 -25.1639 0.588 -0.651 -0.480 140 95 47 0
-0.8088 43.4178 -24.6756 0.551 -0.834 -0.003 155 80 68 0
2.5344 45.0714 -23.9499 0.515 -0.856 0.048 129 45 35 0
2.5476 53.6784 -23.5499 0.739 -0.382 0.555 95 63 59 0
1.2977 56.4893 -23.6629 0.575 -0.803 0.157 134 107 101 0
2.1880 56.9500 -23.4687 0.732 -0.638 -0.238 215 203 187 0
1.9424 58.1863 -23.4593 0.628 -0.580 0.519 216 207 193 0
2.7931 57.6828 -23.3173 0.795 -0.599 0.096 218 209 194 0
27.9865 44.6367 -19.0265 0.318 -0.768 -0.556 214 206 187 0
28.8961 44.7019 -18.8468 0.781 -0.278 -0.558 215 204 185 0
27.0807 61.1261 -18.4410 0.412 0.133 0.902 202 189 164 0
25.1053 75.9183 -18.1416 0.725 0.078 0.685 195 177 151 0
26.5093 80.4445 -17.6599 0.872 0.360 -0.332 193 172 149 0
-16.3295 -7.6375 -30.2487 0.650 -0.717 -0.252 69 62 56 0
-16.0970 -7.5081 -30.1974 0.479 -0.852 -0.211 223 207 181 0
-16.0585 -7.3303 -30.1818 0.728 -0.632 -0.266 226 210 182 0
-15.9958 -7.1583 -30.1618 0.704 -0.701 -0.112 229 211 181 0
-20.7811 -5.3569 -31.0172 0.632 -0.612 -0.476 229 212 184 0
-37.9015 3.9041 -33.9504 -0.151 -0.944 -0.295 242 222 194 0
-7.2589 26.8671 -26.9181 0.521 -0.831 -0.193 124 62 61 0
-1.2365 32.8866 -25.4681 0.424 -0.865 0.268 104 37 34 0
-1.9201 36.0732 -25.4582 0.798 -0.062 0.600 119 67 40 0
-3.5983 38.6914 -25.6686 0.771 -0.624 0.126 128 82 45 0
0.1817 45.3176 -24.6302 0.321 -0.776 0.543 163 92 60 0
2.3581 45.2703 -24.2063 0.415 -0.866 0.281 131 47 38 0
2.0669 45.8160 -24.2387 0.366 -0.858 0.360 125 41 33 0
2.3940 45.8344 -24.1739 0.755 -0.348 0.556 121 39 32 0
4.0012 46.8283 -23.8145 0.514 -0.856 0.052 111 39 33 0
3.7080 48.6016 -23.7920 0.175 -0.982 0.072 99 38 38 0
2.3900 52.6065 -23.8694 0.855 0.452 0.254 90 48 47 0
2.5755 54.6756 -23.7398 0.746 -0.296 0.597 107 77 75 0
1.5311 56.3253 -23.8698 0.852 -0.269 0.449 119 91 87 0
1.4393 56.7431 -23.8690 0.291 -0.849 -0.441 148 124 117 0
2.8764 57.6620 -23.5463 0.757 -0.652 0.032 217 208 193 0
2.4958 58.3713 -23.5888 0.950 -0.263 -0.171 218 209 194 0
13.7086 86.1409 -20.1425 0.698 -0.675 -0.239 199 185 159 0
13.7272 86.5376 -20.1210 0.866 -0.407 -0.291 197 183 157 0
38.0393 76.4803 -15.8161 0.642 -0.720 -0.264 160 131 99 0
38.5028 76.8057 -15.7107 0.439 -0.817 -0.373 50 48 49 0
38.6838 76.8629 -15.6727 0.480 -0.790 -0.381 246 246 246 0
-16.3876 -7.6158 -30.4605 0.650 -0.717 -0.252 68 61 54 0
-16.1525 -7.4869 -30.4085 0.479 -0.852 -0.211 222 207 178 0
-16.1038 -7.3114 -30.3912 0.716 -0.647 -0.262 226 211 180 0
-16.0810 -7.1292 -30.3786 0.724 -0.686 -0.067 229 211 179 0
-17.3810 -6.4184 -30.6037 0.898 -0.177 -0.404 228 212 184 0
-25.3319 -3.5570 -32.0459 -0.065 -0.900 -0.431 231 215 185 0
-28.8932 -1.9814 -32.6789 -0.090 -0.927 -0.363 230 215 186 0
-26.7178 -2.3554 -32.2663 -0.093 -0.931 -0.354 229 214 185 0
-5.7901 26.2723 -26.8803 0.150 -0.944 0.294 121 54 54 0
-4.3997 26.4409 -26.5987 0.361 -0.715 0.598 121 48 49 0
-4.1899 26.5648 -26.5519 0.318 -0.728 0.607 121 46 48 0
-2.2962 27.9120 -26.1192 0.432 -0.795 0.425 139 51 53 0
-2.1989 28.1040 -26.0915 0.416 -0.803 0.427 136 48 50 0
-1.9697 28.4661 -26.0304 0.867 -0.438 0.238 130 40 42 0
-1.8781 28.6621 -26.0037 0.867 -0.438 0.238 130 37 40 0
-1.1778 32.6176 -25.6917 0.554 -0.755 -0.349 107 38 36 0
-1.2465 32.9308 -25.6915 0.440 -0.892 0.106 104 39 34 0
-0.6157 33.0222 -25.5630 0.746 -0.016 0.666 103 39 32 0
-0.5551 33.2456 -25.5413 0.704 -0.061 0.707 103 40 31 0
-4.2176 39.1891 -26.0021 0.707 -0.456 0.540 123 79 42 0
-4.1261 39.4069 -25.9745 0.764 -0.186 0.619 122 78 39 0
-2.6432 40.2993 -25.6428 0.667 -0.474 -0.575 135 91 44 0
-2.4216 40.4175 -25.5939 0.673 -0.467 -0.574 135 91 45 0
-2.1960 40.5323 -25.5444 0.705 -0.466 -0.534 140 96 50 0
-1.8125 41.1004 -25.4438 0.947 -0.135 -0.291 151 108 60 0
0.7215 44.9165 -24.7762 0.584 -0.635 0.505 156 88 56 0
2.4245 45.2629 -24.4252 0.417 -0.602 0.681 128 47 37 0
2.3163 45.6524 -24.4294 0.254 -0.802 0.541 124 43 34 0
2.5547 45.7462 -24.3782 0.711 -0.353 0.608 121 42 35 0
3.0428 45.6243 -24.2873 0.935 0.098 0.342 121 41 36 0
4.2707 46.6414 -24.0005 0.707 -0.662 0.247 114 40 40 0
4.2288 46.9782 -23.9939 0.430 -0.902 0.043 110 38 37 0
4.6789 47.1787 -23.8963 0.601 -0.799 0.027 106 41 39 0
4.6361 47.5180 -23.8898 0.132 -0.833 0.537 103 41 40 0
3.5911 49.3727 -24.0144 -0.337 -0.935 0.115 93 39 40 0
2.5631 54.7457 -23.9808 0.800 -0.382 0.462 101 70 68 0
1.7394 56.5143 -24.0654 0.949 -0.296 0.105 130 103 98 0
1.8432 56.7440 -24.0349 0.946 -0.303 0.117 151 130 120 0
2.1572 58.4331 -23.8987 0.662 -0.610 0.436 217 207 191 0
2.9642 57.9696 -23.7599 0.763 -0.644 -0.048 217 208 192 0
4.2701 57.3359 -23.5303 0.791 0.106 0.603 218 209 194 0
9.0493 53.1998 -22.7697 -0.172 -0.930 0.325 218 209 195 0
24.0057 85.5889 -18.3958 0.862 0.373 -0.344 192 172 145 0
27.3886 87.1419 -17.6604 0.970 -0.193 -0.149 192 168 145 0
38.0617 76.5473 -16.0215 0.644 -0.718 -0.262 159 132 99 0
38.5092 76.9037 -15.9176 0.439 -0.817 -0.373 50 48 49 0
-16.1614 -7.2894 -30.6032 0.716 -0.647 -0.262 226 211 179 0
-16.0805 -7.1217 -30.5799 0.655 -0.753 -0.063 230 212 180 0
-15.8764 -6.9853 -30.5335 0.749 -0.661 0.042 230 212 183 0
-30.8307 -2.5294 -33.3137 0.013 -0.887 -0.461 229 213 185 0
-28.3599 -2.9615 -32.8413 -0.063 -0.901 -0.430 230 214 186 0
-29.6994 -1.7555 -33.0558 -0.098 -0.931 -0.352 232 217 188 0
-23.6165 -2.7731 -31.8908 -0.076 -0.928 -0.366 236 222 193 0
-3.8005 -2.3085 -27.9335 0.291 -0.044 0.956 240 223 196 0
-2.8614 -2.2530 -27.7446 0.788 0.216 0.577 240 224 197 0
-3.5378 -1.8412 -27.8613 0.781 0.280 0.559 238 222 197 0
-3.0461 -1.8221 -27.7628 0.842 0.476 0.254 240 224 199 0
-13.9106 14.0647 -29.2403 0.828 -0.434 -0.354 234 225 200 0
-5.8755 26.3546 -27.1168 0.164 -0.947 0.276 121 56 54 0
-4.0910 26.2837 -26.7653 0.484 -0.760 0.435 127 56 57 0
-3.9843 26.4702 -26.7361 0.489 -0.740 0.462 127 55 55 0
-1.8101 28.3964 -26.2215 0.754 -0.566 0.334 131 42 42 0
-0.8387 32.6843 -25.8446 0.516 -0.773 -0.369 109 44 38 0
-0.3705 32.6228 -25.7542 0.504 -0.799 0.328 107 44 37 0
0.8580 32.0262 -25.5357 0.799 -0.566 0.203 106 43 36 0
-3.8565 38.6810 -26.1871 0.561 0.375 0.738 118 75 38 0
-3.4809 38.6882 -26.1122 0.302 -0.660 0.688 120 77 39 0
-4.1794 39.4885 -26.2166 0.674 -0.340 0.656 119 75 37 0
1.1996 44.5664 -24.9301 0.353 -0.729 0.586 152 85 52 0
2.4893 45.2569 -24.6443 0.437 -0.576 0.691 143 64 55 0
2.4204 45.6128 -24.6427 0.091 -0.829 0.552 140 62 52 0
2.8859 45.5116 -24.5545 0.331 -0.016 0.944 131 53 46 0
3.1239 45.6042 -24.5033 0.935 0.098 0.342 128 51 45 0
5.2237 44.6713 -24.1261 0.226 -0.736 0.638 120 45 41 0
5.4339 44.7812 -24.0796 0.221 -0.762 0.608 119 44 43 0
4.2101 47.0461 -24.2256 0.073 -0.607 0.791 114 43 44 0
4.4962 47.0926 -24.1668 0.247 -0.413 0.877 108 41 40 0
4.7016 47.2101 -24.1209 0.269 -0.355 0.895 103 41 40 0
4.3847 48.4023 -24.1328 0.552 0.086 0.829 94 42 39 0
4.2731 48.8082 -24.1376 0.700 0.165 0.694 93 41 42 0
4.8144 48.6221 -24.0380 0.718 -0.211 0.663 91 40 42 0
2.7731 54.6041 -24.1871 0.946 -0.171 0.275 96 65 63 0
2.9572 55.0763 -24.1303 0.735 0.235 0.636 108 78 73 0
2.5423 55.8010 -24.1816 0.734 0.035 0.678 117 89 84 0
2.5071 56.1627 -24.1731 0.758 0.021 0.651 137 113 106 0
1.9863 56.9965 -24.2408 0.832 -0.544 -0.114 173 153 141 0
