ply
format ascii 1.0
element vertex 818
property float x
property float y
property float z
property float nx
property float ny
property float nz
property uchar diffuse_red
property uchar diffuse_green
property uchar diffuse_blue
property uchar class
end_header
21.7012 49.7960 -61.2298 0.155 -0.986 -0.059 158 160 154 0
24.2787 48.5866 -59.8174 0.382 -0.863 -0.331 160 163 156 0
26.0805 46.5927 -58.5997 0.762 -0.207 0.613 158 160 155 0
25.6557 47.4851 -58.9716 0.467 -0.562 0.683 157 159 154 0
25.6581 47.8240 -59.0385 0.828 -0.278 0.488 157 159 154 0
26.8042 49.0634 -58.7671 0.562 -0.782 -0.269 158 159 151 0
27.3518 48.6698 -58.4396 0.506 -0.831 -0.230 157 158 151 0
22.6083 56.5976 -62.1829 0.847 0.175 -0.501 157 157 148 0
24.4728 60.5098 -62.1218 0.882 0.375 -0.286 155 149 141 0
36.6723 44.5402 -53.3814 -0.076 -0.957 0.282 158 149 142 0
36.4999 45.4717 -53.6466 0.709 -0.536 0.458 157 149 140 0
35.3268 47.5971 -54.6054 0.757 -0.605 0.246 158 149 140 0
34.3882 49.3793 -55.3889 0.406 -0.182 0.896 158 149 141 0
25.2539 64.9965 -62.6676 0.352 -0.544 0.762 155 148 140 0
28.0694 62.6330 -60.9157 0.272 -0.841 0.468 154 148 137 0
39.5942 45.7208 -52.2924 0.668 0.122 0.734 156 146 137 0
39.4337 46.6660 -52.5549 0.418 -0.110 0.902 153 143 131 0
36.2316 57.9291 -56.2679 0.418 -0.770 0.483 151 141 131 0
37.4342 57.7982 -55.6959 0.224 -0.519 0.825 152 140 129 0
42.9869 49.7996 -51.5712 0.862 0.400 0.310 152 140 126 0
-33.3127 -2.0762 -76.0526 0.821 -0.455 -0.346 255 255 255 0
-33.1436 -1.8951 -76.0122 0.806 -0.488 -0.335 255 255 255 0
-33.0303 -1.6969 -76.0006 0.782 -0.530 -0.329 133 133 134 0
-32.8909 -1.5066 -75.9755 0.782 -0.530 -0.329 71 67 68 0
-31.2387 -1.7881 -75.1661 0.267 -0.943 -0.198 229 218 218 0
3.4393 18.7277 -63.5162 0.930 -0.264 0.254 219 218 216 0
3.8074 18.7355 -63.3502 0.861 -0.310 0.404 218 217 215 0
-7.3539 27.8547 -70.2763 0.204 -0.732 -0.650 218 217 215 0
-2.9425 29.3649 -68.5721 0.789 0.196 -0.582 213 211 212 0
9.9302 33.2730 -63.4985 0.697 -0.021 0.716 208 211 202 0
9.8787 33.6126 -63.5906 0.643 -0.005 0.766 210 212 201 0
6.7933 36.9728 -65.6748 0.753 -0.348 0.559 210 212 200 0
7.0422 37.0562 -65.5783 0.139 -0.561 0.816 210 212 199 0
7.6116 36.8491 -65.2771 -0.298 -0.952 0.063 210 212 199 0
11.1735 34.2157 -63.1227 0.413 -0.838 -0.356 211 213 199 0
16.9636 33.1651 -60.2732 0.776 -0.607 0.171 207 210 177 0
17.1789 33.2459 -60.1915 0.643 -0.608 0.467 205 208 174 0
17.1337 33.5800 -60.2796 0.737 -0.567 0.368 204 205 169 0
17.4865 34.1086 -60.2257 0.925 -0.351 0.142 197 197 156 0
17.0782 38.1153 -61.2211 0.280 -0.942 -0.187 187 185 109 0
17.2000 38.2962 -61.2022 0.324 -0.932 -0.163 187 186 109 0
16.5528 39.2785 -61.6955 0.648 -0.211 0.732 187 186 108 0
16.6352 39.5041 -61.7035 0.648 -0.211 0.732 185 184 105 0
16.7723 39.6725 -61.6751 0.949 -0.139 0.284 184 182 103 0
14.9244 43.2278 -63.2350 0.075 -0.772 -0.631 179 172 102 0
15.6045 42.8233 -62.8436 0.042 -0.812 -0.582 177 170 103 0
19.1522 41.8411 -61.0293 0.560 -0.578 -0.593 150 145 108 0
19.3354 41.9568 -60.9692 0.560 -0.578 -0.593 152 148 111 0
19.5008 42.0920 -60.9212 0.577 -0.563 -0.593 157 153 117 0
19.7561 42.1258 -60.8117 0.606 -0.751 -0.262 160 156 121 0
22.5916 43.6921 -59.8367 0.633 -0.335 -0.698 166 168 154 0
22.3941 44.2558 -60.0405 0.603 -0.562 -0.566 165 167 153 0
23.0695 44.1000 -59.7014 0.687 -0.430 -0.586 165 167 153 0
22.9718 44.5471 -59.8362 0.642 -0.621 -0.450 166 167 153 0
23.7757 45.5512 -59.6729 0.168 -0.522 -0.836 163 165 152 0
24.5335 44.9417 -59.2046 0.169 -0.533 -0.829 161 163 151 0
21.3703 50.2788 -61.7237 -0.179 -0.971 0.159 160 160 155 0
23.8650 48.8392 -60.2966 0.354 -0.865 -0.356 159 160 153 0
26.0979 46.6331 -58.8338 0.883 -0.096 0.459 158 159 153 0
25.6118 47.6063 -59.2519 0.683 -0.546 0.485 158 159 153 0
25.7618 47.7526 -59.2131 0.688 -0.077 0.722 157 158 152 0
29.2300 44.8512 -57.0472 -0.060 -0.996 0.066 159 159 150 0
23.9364 54.1023 -61.3274 0.951 0.102 -0.292 157 158 148 0
24.2812 53.9979 -61.1493 0.903 0.334 -0.269 156 155 145 0
39.7160 45.9389 -52.4909 0.365 -0.299 0.882 153 144 133 0
39.3505 47.2221 -52.9166 0.923 -0.357 0.143 153 144 133 0
39.1629 48.2286 -53.2054 0.157 -0.676 0.720 153 143 134 0
30.4003 63.0394 -60.1889 0.707 -0.537 0.460 152 141 135 0
37.0997 56.9034 -55.8978 0.530 -0.270 0.804 150 140 131 0
42.9752 49.5401 -51.7340 0.882 0.338 0.328 149 139 125 0
33.1036 74.9405 -61.3621 -0.141 -0.928 0.344 150 136 123 0
30.5655 91.8112 -65.9267 0.841 0.159 -0.517 142 131 117 0
-33.2536 -1.8553 -76.3371 0.806 -0.486 -0.339 255 255 255 0
-31.3643 -1.7424 -75.4964 0.260 -0.948 -0.183 229 217 217 0
-31.3905 -1.2703 -75.6044 0.322 -0.919 -0.227 230 220 218 0
-18.6172 2.7860 -70.5901 0.810 0.450 0.377 231 223 216 0
-7.9921 22.4188 -69.7267 0.937 -0.225 -0.266 221 220 220 0
3.8912 18.2048 -63.4369 0.987 -0.157 0.045 219 218 216 0
-0.8302 24.5270 -66.8814 -0.023 -0.996 -0.081 215 214 212 0
12.4717 21.9074 -60.2675 0.002 -0.879 0.477 211 211 211 0
12.3692 31.7207 -62.3106 0.182 -0.509 0.842 209 211 200 0
7.3752 36.4933 -65.5645 0.690 -0.460 0.559 209 211 199 0
11.4317 34.6142 -63.3278 0.021 -0.939 -0.344 210 213 196 0
17.2103 38.0271 -61.3803 0.358 -0.864 -0.353 180 175 110 0
17.0803 38.4692 -61.5297 0.390 -0.918 -0.071 178 175 108 0
16.8148 39.0548 -61.7702 0.830 -0.224 0.511 178 176 109 0
16.8981 39.2786 -61.7776 0.975 -0.015 0.221 179 176 109 0
16.6574 42.3863 -62.5199 -0.020 -0.716 -0.698 157 149 100 0
18.4485 41.7141 -61.5643 0.573 -0.564 -0.594 155 150 112 0
18.7696 41.9994 -61.4755 0.626 -0.463 -0.628 161 156 126 0
19.0271 42.0339 -61.3648 0.441 -0.651 -0.618 168 164 133 0
19.2536 42.1020 -61.2752 0.441 -0.651 -0.618 170 165 134 0
19.5269 42.1167 -61.1532 0.394 -0.711 -0.582 173 169 137 0
19.5718 42.3877 -61.1878 0.479 -0.700 -0.529 173 170 139 0
22.1487 40.1075 -59.5459 0.701 -0.429 0.570 172 170 143 0
21.9057 40.6981 -59.7771 0.743 -0.527 0.413 171 170 144 0
20.8185 44.5375 -61.0552 0.575 -0.282 -0.769 167 168 154 0
23.5196 47.9653 -60.5177 0.378 -0.804 0.459 160 160 152 0
23.9160 48.4918 -60.4436 0.584 -0.809 -0.066 161 162 154 0
23.7434 49.0607 -60.6382 0.313 -0.832 -0.458 159 160 152 0
23.9781 49.1050 -60.5399 0.301 -0.844 -0.444 158 159 151 0
26.1871 46.5804 -59.0165 0.883 -0.096 0.459 158 159 151 0
29.8231 44.1218 -56.8541 -0.065 -0.993 0.099 159 159 149 0
24.2522 53.3753 -61.2833 0.645 -0.723 0.249 155 156 146 0
23.9150 54.2027 -61.6058 0.968 -0.233 0.095 155 155 145 0
27.2833 57.2925 -60.6945 0.891 0.178 0.418 155 149 141 0
40.0451 45.4794 -52.4572 0.720 -0.091 0.688 151 143 131 0
39.9346 46.0003 -52.6137 0.447 -0.247 0.860 151 143 132 0
40.9083 45.0937 -51.9842 0.645 -0.743 -0.182 150 141 132 0
35.1198 59.6291 -57.5873 -0.254 -0.910 0.327 149 139 127 0
41.8892 52.6939 -53.0818 0.876 0.422 0.234 149 137 123 0
42.3340 52.2594 -52.7900 0.923 0.305 0.235 149 137 123 0
32.6743 75.8777 -62.0107 -0.083 -0.876 0.475 147 135 119 0
42.8440 60.7878 -54.2918 0.756 -0.134 0.641 143 132 115 0
47.0703 77.3673 -55.7324 0.977 0.202 -0.070 134 122 110 0
43.9178 87.1197 -59.1575 -0.097 -0.868 -0.486 133 121 109 0
-24.9249 -4.6189 -72.2166 0.933 -0.232 -0.275 255 255 255 0
-33.3668 -1.8144 -76.6645 0.806 -0.486 -0.339 255 255 255 0
-32.9637 -1.2370 -76.5979 0.781 -0.518 -0.349 229 218 217 0
-32.8303 -1.0440 -76.5762 0.769 -0.540 -0.342 232 220 218 0
-31.5002 -1.2289 -75.9280 0.322 -0.919 -0.227 229 221 218 0
-1.1942 -2.7954 -61.7014 -0.143 -0.957 -0.252 233 223 222 0
3.8672 18.2463 -63.6887 0.982 -0.172 0.073 218 217 215 0
8.7513 32.6319 -64.3940 0.687 -0.723 -0.074 206 209 202 0
8.7535 32.9224 -64.4526 0.711 -0.700 0.067 206 209 202 0
12.3167 31.8078 -62.5893 0.238 -0.472 0.849 208 210 199 0
12.8578 31.6093 -62.3004 0.477 -0.633 0.609 206 208 196 0
13.3711 31.4329 -62.0288 0.444 -0.521 0.729 206 208 195 0
13.2858 31.7960 -62.1422 0.476 -0.383 0.792 208 210 196 0
18.3485 33.0570 -60.0775 0.657 -0.690 -0.303 206 205 175 0
17.2951 38.2949 -61.6337 0.830 -0.351 0.434 178 175 119 0
17.6247 38.8763 -61.6015 0.769 -0.048 0.637 168 165 109 0
22.3238 34.2264 -58.4930 0.724 -0.674 -0.149 168 165 110 0
22.1156 34.7391 -58.6935 0.681 -0.731 0.050 168 164 114 0
22.0370 35.7083 -58.9281 0.425 -0.823 0.378 163 156 112 0
16.2024 42.9327 -63.0849 -0.023 -0.718 -0.696 168 160 121 0
16.8451 42.5582 -62.7133 -0.053 -0.804 -0.593 169 161 123 0
18.3915 41.8299 -61.8546 0.762 -0.565 -0.317 173 169 136 0
19.1126 42.3136 -61.6228 0.268 -0.701 -0.660 177 174 144 0
19.3408 42.3798 -61.5316 0.283 -0.696 -0.660 177 174 143 0
19.3398 42.7037 -61.5985 0.332 -0.740 -0.585 177 174 144 0
19.4362 42.9185 -61.5982 0.557 -0.618 -0.555 177 173 146 0
20.6816 42.1484 -60.8691 0.205 -0.947 -0.246 173 171 147 0
21.2948 41.7677 -60.5097 0.436 -0.747 -0.501 175 171 149 0
21.1907 42.8524 -60.7796 0.854 0.289 -0.432 173 170 153 0
20.2634 44.5850 -61.5600 0.859 0.357 -0.368 168 169 153 0
22.7637 44.5864 -60.4130 0.865 -0.477 -0.159 165 165 153 0
22.9777 44.6575 -60.3294 0.641 -0.742 -0.198 165 166 152 0
24.6528 47.2665 -60.0952 0.296 -0.816 0.496 160 160 150 0
32.4652 40.0218 -55.0267 0.036 -0.985 0.171 158 158 149 0
25.8176 50.9544 -60.3161 0.672 -0.693 -0.260 155 155 147 0
24.2205 53.4891 -61.5680 0.828 -0.537 0.161 155 155 146 0
27.9737 62.6360 -61.7193 0.493 -0.664 0.562 153 143 134 0
39.8569 45.1763 -52.6908 0.836 0.013 -0.548 151 143 133 0
39.8130 45.9287 -52.8650 0.727 -0.210 -0.653 151 143 132 0
37.5111 51.4652 -55.0552 0.020 -0.979 0.204 151 140 134 0
34.7682 61.1362 -58.2945 -0.162 -0.883 0.441 149 139 129 0
41.1141 53.8085 -53.8819 0.633 -0.566 0.527 147 137 124 0
41.2934 53.8641 -53.8110 0.607 -0.630 0.485 149 138 124 0
43.9089 87.2967 -59.4584 -0.094 -0.870 -0.485 133 119 108 0
46.7377 83.8068 -57.4457 -0.160 -0.901 -0.403 255 255 255 0
-25.0035 -4.5893 -72.5084 0.933 -0.232 -0.275 255 255 255 0
-33.1029 -1.1869 -76.9400 0.777 -0.515 -0.361 230 219 217 0
-32.9646 -0.9952 -76.9158 0.777 -0.515 -0.361 234 221 220 0
-33.0189 -0.7426 -76.9929 0.785 -0.518 -0.341 232 222 220 0
-18.1551 1.4941 -70.6089 -0.146 -0.880 0.451 232 227 220 0
-3.5301 -2.0509 -63.1426 -0.144 -0.959 -0.245 230 220 219 0
3.9345 18.2277 -63.8865 0.992 -0.002 0.124 217 216 214 0
-8.9998 29.0689 -72.0787 0.258 -0.693 -0.673 216 214 215 0
-3.0571 25.8508 -68.6783 -0.053 -0.764 -0.643 216 215 212 0
1.2306 26.9798 -66.9365 -0.405 -0.901 0.155 210 209 210 0
2.8328 26.0771 -66.0125 -0.233 -0.968 0.092 210 210 210 0
8.8517 22.6696 -62.5379 0.781 -0.606 0.149 210 210 210 0
6.5008 27.4225 -64.6007 0.931 0.266 -0.250 208 208 207 0
4.4882 30.1406 -66.0880 -0.242 -0.579 0.779 206 208 205 0
15.3099 24.3304 -59.9062 0.357 -0.392 -0.848 205 207 204 0
9.8201 30.0302 -63.6098 0.701 -0.633 -0.329 205 208 201 0
8.9797 32.4735 -64.5006 0.646 -0.750 0.141 206 209 202 0
9.0379 32.7147 -64.5235 0.607 -0.794 0.030 205 208 201 0
13.6132 31.5399 -62.1742 0.456 -0.450 0.768 208 212 196 0
10.0174 35.6994 -64.6879 -0.074 -0.897 -0.436 207 211 193 0
11.6213 34.5248 -63.7071 -0.185 -0.962 -0.200 208 211 193 0
17.1373 29.7233 -60.1767 0.668 0.078 0.740 210 212 194 0
17.2307 29.9149 -60.1732 0.682 0.073 0.727 211 212 194 0
17.0892 42.6687 -62.8683 -0.042 -0.759 -0.650 180 173 142 0
18.3631 41.9144 -62.1261 0.746 -0.583 -0.322 181 178 147 0
18.6282 41.9423 -62.0097 0.938 -0.229 -0.261 182 181 150 0
21.8848 40.8295 -60.2805 0.805 -0.583 0.109 176 173 150 0
21.2733 42.1676 -60.8380 0.879 0.334 -0.340 176 171 153 0
20.4917 43.3922 -61.4505 0.879 0.320 -0.353 173 169 152 0
20.2726 43.9727 -61.6711 0.875 0.287 -0.391 172 169 152 0
20.0782 44.5278 -61.8751 0.869 0.342 -0.357 172 168 152 0
22.9436 44.4275 -60.5348 0.702 0.166 0.693 164 165 154 0
25.3231 43.8090 -59.3114 0.498 0.179 0.848 160 162 151 0
25.3732 44.0744 -59.3431 0.503 0.183 0.845 158 160 150 0
26.2514 44.6154 -59.0502 0.451 -0.314 0.835 160 161 148 0
26.0833 45.1615 -59.2402 0.467 -0.308 0.829 160 160 148 0
30.3705 43.8423 -56.9938 -0.092 -0.980 0.175 157 159 148 0
39.8766 44.8784 -52.8296 0.843 0.050 -0.536 152 143 134 0
37.6077 50.6574 -55.0662 0.408 -0.876 0.256 152 142 133 0
40.0959 53.8211 -54.5727 0.248 -0.453 0.856 147 138 124 0
39.8465 54.6467 -54.8578 0.441 -0.840 -0.316 146 139 124 0
42.9367 60.3849 -54.6179 0.810 -0.259 -0.526 145 135 119 0
44.7402 84.1741 -58.6928 0.957 0.231 -0.174 134 120 109 0
43.9041 87.4635 -59.7561 -0.091 -0.869 -0.486 133 119 108 0
45.9714 86.0144 -58.5052 -0.289 -0.943 -0.165 255 255 255 0
-25.0796 -4.5604 -72.7994 0.933 -0.230 -0.277 255 255 255 0
-33.2276 -1.1414 -77.2754 0.785 -0.518 -0.339 229 218 217 0
-32.1816 -1.2343 -76.7726 0.831 -0.438 -0.342 234 221 219 0
-32.3052 -0.9611 -76.8864 0.829 -0.470 -0.302 233 223 221 0
-21.6852 1.6829 -72.5265 0.501 -0.054 0.864 231 226 220 0
-19.7561 1.1991 -71.5344 0.045 -0.999 -0.016 231 226 220 0
-20.8447 3.6833 -72.5533 0.521 0.321 0.791 231 221 220 0
-16.3356 27.6997 -75.4549 0.882 -0.306 0.359 223 216 216 0
2.6772 18.0731 -64.6683 0.188 -0.770 -0.610 220 219 217 0
-1.3361 28.8988 -68.7707 0.512 -0.304 -0.803 209 209 208 0
9.1126 22.5046 -62.6137 0.457 -0.889 0.029 210 210 210 0
6.5181 25.5273 -64.4405 0.968 -0.138 -0.211 208 208 210 0
9.3524 30.1799 -64.0963 0.632 -0.769 -0.091 204 209 199 0
9.1513 32.3641 -64.6426 0.659 -0.751 0.043 205 208 201 0
9.2179 32.5977 -64.6604 0.600 -0.800 -0.002 205 208 201 0
9.7328 32.4396 -64.3895 0.078 -0.772 -0.631 205 208 201 0
17.1770 29.7265 -60.3854 0.734 -0.145 0.663 208 211 190 0
18.0027 35.8432 -61.2736 0.482 -0.376 -0.791 197 202 163 0
18.1381 36.0045 -61.2445 0.480 -0.373 -0.794 198 201 163 0
17.6094 36.8461 -61.6636 0.481 -0.273 -0.833 199 200 162 0
17.5810 37.1786 -61.7458 0.801 -0.598 0.004 200 199 160 0
18.2406 37.7138 -61.5520 0.992 -0.102 -0.079 195 193 149 0
23.7172 33.4222 -58.1296 0.441 -0.770 0.462 191 187 148 0
20.7742 37.1604 -60.2660 0.729 -0.671 -0.135 189 183 147 0
21.2415 37.5665 -60.1343 0.743 -0.659 -0.119 187 181 148 0
19.5616 39.7028 -61.3543 0.610 -0.764 0.210 187 181 150 0
16.8607 42.9722 -63.2814 -0.167 -0.886 -0.432 184 179 149 0
17.3705 42.7378 -62.9971 -0.167 -0.886 -0.432 182 179 149 0
18.2126 42.1337 -62.4825 0.767 -0.545 -0.339 183 182 152 0
18.8337 42.7343 -62.3201 0.943 -0.268 -0.200 179 175 146 0
20.2602 41.4543 -61.3950 0.598 -0.487 0.636 179 175 146 0
20.4162 41.5976 -61.3526 0.605 -0.472 0.641 179 174 148 0
20.7289 41.8829 -61.2673 0.703 -0.470 0.533 175 173 151 0
23.5407 39.6123 -59.4963 0.782 -0.611 -0.125 173 171 154 0
22.6536 44.8372 -60.9910 0.935 -0.211 0.284 167 166 156 0
25.3305 47.2023 -60.2447 -0.128 -0.706 0.696 157 158 149 0
28.7836 44.7016 -58.1294 -0.183 -0.972 0.150 155 158 149 0
26.8742 49.3034 -59.9673 0.191 -0.737 -0.649 155 156 148 0
34.2963 48.4765 -56.3650 -0.188 -0.804 0.563 154 147 137 0
38.7688 48.4743 -54.2973 0.814 -0.014 -0.580 151 142 133 0
26.5667 70.1837 -64.4442 0.960 0.272 0.061 151 140 130 0
41.8316 49.7231 -53.1409 0.629 0.479 0.613 149 137 125 0
43.8911 87.6523 -60.0630 -0.095 -0.868 -0.487 133 119 108 0
45.9346 86.2702 -58.8315 -0.281 -0.926 -0.252 255 255 255 0
-25.1592 -4.5305 -73.0929 0.933 -0.230 -0.277 255 255 255 0
-33.5546 -1.0328 -77.7186 0.908 -0.163 -0.385 228 218 216 0
-32.2944 -1.1922 -77.1006 0.831 -0.438 -0.342 232 221 218 0
-32.4007 -0.9241 -77.2060 0.829 -0.470 -0.302 233 223 220 0
-19.0343 0.7169 -71.3481 0.335 -0.257 0.907 230 225 221 0
-19.4494 1.0954 -71.6198 0.852 -0.319 -0.414 232 227 222 0
-20.9143 3.9560 -72.8972 0.559 0.363 0.745 230 222 220 0
3.4760 17.0844 -64.3260 0.033 -0.926 -0.377 220 219 217 0
2.0845 20.5282 -65.6912 0.912 0.236 -0.336 216 214 215 0
-0.5313 27.2081 -68.3008 0.359 -0.383 -0.851 213 212 210 0
7.0457 25.4269 -64.4135 0.992 -0.119 -0.033 208 208 209 0
8.9468 26.6541 -63.7880 0.555 -0.671 0.491 205 207 204 0
-0.6631 35.2398 -70.0405 0.605 -0.452 -0.656 203 205 202 0
-0.9922 35.8141 -70.3132 0.637 -0.542 -0.548 203 205 202 0
9.2421 32.6165 -64.8971 0.600 -0.800 -0.002 205 208 201 0
18.7753 27.4745 -59.3999 0.634 -0.769 -0.082 205 209 194 0
18.4559 29.1320 -59.8945 0.725 -0.683 0.092 207 209 191 0
17.3825 30.4131 -60.6602 0.608 -0.209 0.766 206 209 189 0
17.6357 31.3013 -60.7284 0.628 -0.374 0.682 207 209 188 0
15.9944 33.7356 -61.9985 0.500 -0.850 -0.165 205 209 185 0
16.1618 33.8667 -61.9483 0.417 -0.909 -0.008 205 209 184 0
16.5730 34.0539 -61.7966 0.390 -0.908 -0.152 206 207 180 0
16.8621 39.2033 -62.7387 0.991 0.074 -0.112 196 196 158 0
18.6290 37.6613 -61.5967 0.928 0.014 -0.371 195 195 155 0
18.4759 38.1286 -61.7654 0.934 0.031 -0.356 195 194 154 0
17.5315 39.4351 -62.4766 0.908 0.132 -0.398 194 192 154 0
18.5662 38.9589 -61.8971 0.849 -0.112 -0.516 193 189 155 0
17.8066 40.0823 -62.4842 0.663 -0.634 -0.398 192 188 153 0
21.2579 37.5986 -60.3641 0.742 -0.660 -0.116 188 183 152 0
21.3097 37.8471 -60.3920 0.657 -0.732 -0.180 186 183 153 0
21.3234 38.1381 -60.4464 0.786 -0.510 0.349 184 183 153 0
20.5915 39.8737 -61.1487 0.431 -0.851 -0.298 180 182 152 0
18.8897 42.0805 -62.3994 0.998 0.043 -0.037 179 181 152 0
18.7431 42.5664 -62.5689 0.994 -0.002 -0.110 180 179 151 0
20.7703 41.2516 -61.3537 0.633 -0.338 0.696 179 175 149 0
21.6663 40.5540 -60.7923 0.887 -0.357 0.291 177 174 151 0
22.4269 40.6327 -60.4559 0.789 -0.520 -0.326 175 172 152 0
22.7962 44.7235 -61.1395 0.921 -0.330 -0.206 167 167 156 0
26.1337 49.6694 -60.6248 0.052 -0.789 -0.612 156 157 146 0
26.2360 49.8832 -60.6220 0.220 -0.736 -0.640 155 156 146 0
26.6251 49.7085 -60.4050 0.215 -0.727 -0.652 155 155 147 0
43.1566 56.4790 -54.1508 0.385 -0.446 -0.808 149 135 122 0
47.6137 74.9857 -55.9509 0.912 -0.344 -0.223 136 122 111 0
46.0243 86.1865 -59.0291 -0.275 -0.932 -0.238 255 255 255 0
-25.2225 -4.5055 -73.3783 0.938 -0.206 -0.277 255 255 255 0
-32.5166 -1.3502 -77.4383 0.831 -0.438 -0.342 228 219 217 0
-32.3475 -1.1688 -77.3977 0.806 -0.469 -0.360 232 221 219 0
-32.4834 -0.8912 -77.5194 0.808 -0.521 -0.276 232 223 220 0
-19.6540 0.2793 -71.7922 -0.045 -0.423 0.905 231 225 224 0
-19.3457 0.3915 -71.6723 -0.108 -0.701 0.705 230 225 223 0
-18.3993 0.9406 -71.3472 0.014 -0.889 0.458 232 227 223 0
-19.7742 1.6800 -72.1429 0.409 -0.393 0.823 232 227 223 0
-20.4340 2.3865 -72.5987 0.362 -0.343 0.867 231 228 221 0
-20.2058 3.2247 -72.6688 0.493 0.324 0.807 232 225 221 0
-15.6105 26.7181 -75.4719 0.883 -0.470 0.000 221 216 216 0
-16.0029 27.2546 -75.7675 0.948 -0.229 0.220 220 216 215 0
-15.5596 27.2726 -75.5649 0.592 -0.674 0.443 219 217 215 0
-0.5737 18.9409 -66.8345 0.654 0.044 0.756 219 218 214 0
1.7681 18.2075 -65.5899 0.246 -0.935 -0.256 220 218 218 0
2.5923 17.9278 -65.1473 0.287 -0.846 -0.450 220 218 218 0
5.2102 16.4808 -63.6239 0.471 -0.684 -0.557 221 220 219 0
5.7953 21.1013 -64.3236 0.297 -0.883 -0.363 214 212 212 0
-2.9479 41.3023 -72.6445 0.816 0.318 0.482 201 204 195 0
-3.1749 41.8252 -72.8602 0.859 0.325 0.397 202 204 196 0
8.9684 32.6023 -65.2658 0.542 -0.839 0.044 202 204 197 0
10.3962 33.3970 -64.7682 0.969 0.053 0.242 205 207 196 0
18.5837 29.0526 -60.0421 0.833 -0.554 -0.014 205 209 191 0
17.5527 31.1387 -60.9610 0.490 -0.507 0.709 207 209 189 0
17.5822 31.3939 -61.0010 0.460 -0.491 0.740 206 207 188 0
15.6479 35.2974 -62.7228 -0.015 -0.984 0.180 205 205 177 0
16.7778 34.4862 -62.0261 0.023 -0.944 -0.328 204 205 177 0
18.1678 34.2871 -61.3370 0.810 -0.171 -0.561 204 204 173 0
18.8346 35.0899 -61.1955 0.578 -0.459 -0.675 201 202 169 0
18.4139 39.1715 -62.2501 0.850 -0.113 -0.514 192 189 158 0
17.8132 40.1263 -62.7306 0.645 -0.672 -0.363 191 188 156 0
21.5583 38.2377 -60.5895 0.809 -0.492 0.322 183 183 152 0
21.3203 38.8081 -60.8204 0.816 -0.443 0.373 182 182 153 0
20.1290 40.4387 -61.7181 0.352 -0.387 0.852 181 181 153 0
20.2953 40.5696 -61.6682 0.368 -0.382 0.848 181 180 152 0
20.4661 40.6952 -61.6151 0.634 -0.025 0.773 180 179 153 0
20.3554 41.1361 -61.7594 0.402 -0.864 0.304 178 176 150 0
21.8494 41.0319 -61.0419 0.821 -0.494 -0.285 175 173 152 0
23.3914 39.8914 -60.0840 0.699 -0.690 -0.188 172 172 154 0
23.9606 39.8581 -59.8119 0.906 -0.323 0.273 172 170 155 0
23.2076 44.6139 -61.1631 0.847 -0.487 -0.214 165 165 153 0
24.3494 44.2065 -60.5458 0.818 -0.158 0.553 163 163 151 0
25.6818 42.8893 -59.6482 0.691 0.209 0.692 162 162 152 0
26.0955 50.1408 -60.9813 0.220 -0.730 -0.646 156 156 146 0
44.2212 55.6860 -53.7085 0.568 0.440 0.695 148 133 120 0
48.2742 73.9544 -55.6648 0.760 -0.629 0.163 135 122 111 0
40.6877 95.7015 -63.7724 0.992 0.099 0.075 134 121 110 0
45.5591 87.5956 -59.7989 -0.128 -0.873 -0.471 255 255 255 0
-25.2507 -4.4912 -73.6456 0.963 -0.074 -0.258 255 255 255 0
-32.6152 -1.3128 -77.7601 0.809 -0.469 -0.353 227 218 216 0
-32.4708 -1.1234 -77.7328 0.806 -0.469 -0.360 231 220 219 0
-32.5233 -0.8717 -77.8106 0.797 -0.553 -0.241 230 222 219 0
-18.2831 0.2362 -71.3908 0.152 -0.286 0.946 226 221 220 0
-18.8194 0.6568 -71.7305 0.299 -0.217 0.929 229 223 222 0
-17.4008 0.5786 -71.0510 0.181 -0.979 -0.090 232 227 224 0
-18.5727 1.2402 -71.7388 0.383 -0.427 0.819 232 228 224 0
-6.6504 22.0098 -70.5661 0.928 0.370 0.044 219 217 215 0
3.8767 17.6193 -64.7170 0.594 -0.798 -0.104 217 215 216 0
2.3124 19.6575 -65.8797 0.634 0.064 -0.770 213 211 212 0
2.0574 20.0838 -66.0891 0.623 0.040 -0.781 216 214 215 0
1.4888 20.7221 -66.4900 0.618 0.034 -0.785 217 215 216 0
1.4880 20.9831 -66.5456 0.800 0.197 -0.566 217 215 215 0
-8.6549 36.5800 -74.5886 0.966 -0.089 0.241 208 208 208 0
6.8954 26.1513 -65.1133 0.974 0.039 0.222 204 204 203 0
-4.8814 37.1366 -72.9431 0.483 -0.555 0.677 205 205 205 0
-4.7456 37.3451 -72.9238 0.413 -0.666 0.621 205 205 205 0
13.3618 25.0283 -61.8537 0.266 -0.323 0.908 200 202 199 0
-2.8421 41.5847 -72.9322 0.810 0.317 0.494 201 202 194 0
9.0026 32.6124 -65.4969 0.542 -0.839 0.044 202 203 195 0
11.5425 32.7042 -64.3295 0.609 -0.711 0.350 202 205 194 0
18.5258 27.2397 -59.9089 0.548 -0.835 0.056 204 206 192 0
19.2940 27.6148 -59.6294 0.550 -0.833 0.060 201 205 190 0
19.2062 27.9667 -59.7450 0.894 -0.431 -0.120 202 206 190 0
18.5979 29.0793 -60.2649 0.833 -0.554 -0.014 202 205 188 0
17.9068 31.1266 -61.0214 0.637 -0.506 0.581 204 205 187 0
17.1725 32.6874 -61.6951 0.338 -0.940 -0.051 203 205 183 0
17.4432 33.0036 -61.6355 0.290 -0.954 -0.069 204 206 183 0
17.6115 34.2975 -61.8309 0.301 -0.489 0.819 201 204 174 0
17.7568 34.4475 -61.7948 0.301 -0.489 0.819 203 205 174 0
17.9266 34.5729 -61.7420 0.496 -0.526 0.691 204 205 173 0
17.8466 34.9486 -61.8589 0.548 -0.630 0.550 204 205 173 0
18.2535 35.4294 -61.7706 0.904 0.054 -0.423 202 203 173 0
17.1098 37.5015 -62.7439 0.996 -0.068 -0.058 202 201 168 0
17.1357 37.7810 -62.7910 0.996 -0.061 -0.064 201 198 165 0
17.3478 38.1762 -62.7756 0.082 -0.850 -0.521 200 198 165 0
17.6002 39.1508 -62.8640 0.672 -0.487 -0.558 193 194 160 0
17.5848 39.4791 -62.9408 0.658 -0.664 -0.354 193 193 161 0
17.6251 39.7494 -62.9792 0.572 -0.654 -0.495 190 191 159 0
17.2822 40.4295 -63.2835 0.452 -0.821 -0.348 190 190 158 0
17.9011 40.3986 -62.9877 0.412 -0.801 -0.435 190 189 158 0
18.4659 40.4204 -62.7284 0.381 -0.840 -0.387 186 185 154 0
22.5044 37.8557 -60.2980 0.724 -0.689 -0.027 182 180 152 0
22.4399 38.2335 -60.4082 0.561 -0.823 -0.083 180 179 152 0
20.6260 40.5694 -61.7505 0.634 -0.025 0.773 179 179 153 0
20.3416 41.2052 -62.0181 0.425 -0.852 0.306 178 176 151 0
20.5950 41.2386 -61.9067 0.554 -0.826 -0.105 179 177 152 0
21.8419 41.4131 -61.3610 0.973 -0.004 0.231 174 172 152 0
23.4738 39.8500 -60.2674 0.735 -0.667 -0.122 173 173 155 0
22.8681 43.7650 -61.3796 0.675 -0.634 -0.376 167 165 152 0
24.4967 44.0843 -60.6861 0.778 -0.094 0.621 163 163 152 0
24.5518 44.3458 -60.7158 0.778 -0.094 0.621 164 164 154 0
26.8048 44.4837 -59.6922 0.108 -0.970 0.216 158 159 149 0
27.1324 44.3939 -59.5200 0.168 -0.965 0.199 159 159 149 0
26.4747 45.5743 -60.0774 0.478 -0.877 -0.040 159 159 149 0
25.8624 50.5241 -61.4118 0.443 -0.636 -0.633 156 156 146 0
42.1821 73.2161 -58.5914 0.959 0.268 -0.092 141 129 116 0
40.8368 95.4793 -63.9350 0.992 0.099 0.073 135 121 112 0
45.5545 87.7674 -60.0972 -0.118 -0.864 -0.490 255 255 255 0
-25.3269 -4.4622 -73.9389 0.963 -0.074 -0.258 255 255 255 0
-25.5155 -3.7446 -74.1803 0.956 0.157 -0.247 70 67 68 0
-32.6005 -1.0759 -78.0721 0.819 -0.453 -0.352 230 219 219 0
-32.5961 -0.8418 -78.1199 0.797 -0.553 -0.241 230 222 220 0
-17.8811 0.0983 -71.4191 0.022 -0.418 0.908 228 222 222 0
-18.8277 0.8942 -72.0327 0.221 -0.285 0.933 232 227 224 0
-18.6130 1.2652 -72.0111 0.345 -0.500 0.794 233 228 225 0
-0.9146 19.4663 -67.5908 0.633 -0.071 0.771 219 218 216 0
4.8529 16.7621 -64.3093 0.600 -0.769 -0.219 218 216 217 0
3.9633 17.5881 -64.9026 0.626 -0.772 -0.105 216 214 215 0
6.1483 20.1414 -64.4222 -0.005 -0.493 0.870 215 214 212 0
6.3181 21.3039 -64.5904 -0.161 -0.906 0.392 212 211 209 0
0.0203 26.6250 -68.6784 0.166 -0.435 0.885 211 209 210 0
-1.1617 28.3306 -69.5964 0.129 -0.260 0.957 209 207 208 0
-2.2641 30.0067 -70.4706 -0.165 -0.462 0.871 207 207 207 0
-8.7379 36.0480 -74.7947 0.914 0.161 0.372 207 207 205 0
-8.7316 36.3591 -74.8581 0.915 0.154 0.372 207 207 205 0
5.5606 27.7736 -66.3249 0.939 -0.192 -0.285 208 206 207 0
5.6855 28.2352 -66.3647 0.937 0.246 -0.250 207 205 206 0
-5.1398 37.6986 -73.4591 0.321 -0.554 0.768 204 204 203 0
-3.7633 36.9170 -72.6469 0.139 -0.859 -0.493 204 204 204 0
-3.3004 36.8606 -72.4178 0.139 -0.859 -0.493 204 204 204 0
9.4899 32.2284 -65.4317 0.654 -0.757 0.010 201 202 194 0
9.2154 32.7597 -65.6737 0.544 -0.838 0.040 201 202 194 0
8.8580 33.3665 -65.9707 0.261 -0.901 -0.346 202 203 194 0
15.3943 29.0084 -61.9761 0.914 -0.400 -0.069 200 203 193 0
18.8092 27.5589 -60.0655 0.635 -0.772 -0.000 201 205 190 0
19.2609 27.6842 -59.8805 0.545 -0.837 0.047 200 204 190 0
16.2966 33.2834 -62.4643 0.498 -0.867 -0.037 201 203 182 0
16.6446 35.0031 -62.6677 0.187 -0.974 -0.128 200 204 178 0
17.8260 34.1297 -61.9275 0.333 -0.460 0.823 199 204 176 0
18.1792 34.3659 -61.8121 0.353 -0.606 0.712 201 204 173 0
18.1302 34.7098 -61.9085 0.267 -0.604 0.751 201 204 172 0
18.2435 34.8916 -61.8941 0.489 -0.508 0.709 200 203 174 0
18.4829 34.9462 -61.7934 0.547 -0.537 0.642 200 203 174 0
18.9527 34.7662 -61.5347 0.645 -0.494 0.583 201 202 174 0
18.0535 35.9782 -62.2148 0.821 -0.289 -0.493 201 202 171 0
17.9853 36.3484 -62.3257 0.773 -0.249 -0.583 200 199 168 0
17.0790 37.5810 -63.0135 0.974 -0.210 -0.080 200 198 167 0
17.2992 39.8319 -63.3901 0.685 -0.141 0.715 192 193 161 0
18.8228 38.5261 -62.3972 0.378 -0.925 -0.024 189 192 160 0
18.0102 40.3326 -63.1634 0.447 -0.823 -0.351 190 191 160 0
18.7863 40.1247 -62.7551 0.064 -0.676 0.734 188 189 158 0
19.3895 40.4126 -62.5336 -0.116 -0.740 0.663 184 184 155 0
20.6274 40.6209 -61.9974 0.634 -0.308 0.710 178 180 154 0
20.2555 41.3555 -62.3284 0.176 -0.984 -0.017 178 177 152 0
20.4665 41.4372 -62.2469 0.165 -0.986 -0.008 178 177 151 0
16.3730 50.1948 -66.0337 0.552 -0.630 0.546 170 167 154 0
22.6745 44.3850 -61.8397 0.418 -0.520 -0.745 166 163 152 0
23.4341 44.7875 -61.5693 0.553 -0.475 -0.684 163 163 151 0
24.3605 44.9745 -61.1747 0.953 0.237 0.191 161 161 151 0
34.4696 48.1529 -57.1111 0.856 0.274 0.438 152 145 135 0
34.4481 48.5356 -57.2028 0.720 -0.254 0.646 154 145 136 0
35.4303 47.7388 -56.5723 -0.267 -0.716 0.645 155 146 139 0
42.2804 72.1560 -58.5649 0.979 0.187 -0.085 138 126 114 0
40.3636 96.2608 -64.6026 0.967 -0.254 0.023 136 122 113 0
40.7960 95.7503 -64.2910 0.995 0.088 0.055 135 122 113 0
45.2411 88.7726 -60.7187 -0.090 -0.842 -0.532 254 255 255 0
-25.4393 -4.4222 -74.2522 0.960 -0.096 -0.263 255 255 255 0
-25.6012 -3.7118 -74.4809 0.957 0.154 -0.247 70 67 67 0
-17.1946 -0.5846 -71.1950 -0.116 -0.509 0.853 232 225 223 0
-17.5417 -0.0168 -71.4802 0.022 -0.418 0.908 231 224 223 0
-18.0483 0.3917 -71.8063 0.290 -0.111 0.951 232 225 224 0
-18.7455 0.8734 -72.2378 0.147 -0.320 0.936 232 227 224 0
-18.4028 1.1964 -72.1458 0.345 -0.500 0.794 233 228 225 0
3.9580 17.6168 -65.1442 0.626 -0.772 -0.105 216 215 212 0
3.1296 18.6613 -65.7583 0.847 0.324 -0.421 218 216 214 0
-1.3918 28.8186 -70.0660 -0.035 -0.432 0.901 209 207 208 0
-1.2838 29.6048 -70.1839 -0.152 -0.461 0.874 207 208 209 0
-8.8424 36.7980 -75.2852 0.847 -0.135 0.515 207 208 204 0
-9.7629 37.8174 -75.9372 0.292 -0.117 0.949 206 206 204 0
-4.6609 37.3571 -73.4370 0.264 -0.612 0.746 202 203 200 0
-4.2790 37.3690 -73.2598 0.187 -0.831 -0.523 202 203 200 0
10.7564 28.6216 -64.3057 0.846 -0.097 0.524 201 203 198 0
10.1349 29.9894 -64.8917 0.808 -0.549 0.214 201 202 195 0
10.3963 30.0502 -64.7817 0.830 -0.278 0.483 200 202 193 0
10.6160 30.1459 -64.6988 0.828 -0.413 0.378 201 202 194 0
10.5960 30.4472 -64.7729 0.854 -0.297 0.427 202 203 194 0
10.4828 30.8300 -64.9083 0.810 -0.216 0.544 202 204 194 0
8.5264 33.4018 -66.3811 0.295 -0.877 -0.379 201 202 194 0
18.9039 27.5107 -60.2323 0.588 -0.809 0.028 199 203 189 0
19.4479 27.5503 -59.9848 0.593 -0.548 0.590 200 203 189 0
18.5857 30.2825 -60.9769 0.111 -0.567 0.816 201 204 186 0
18.3009 34.8796 -62.0974 0.343 -0.514 0.786 197 201 171 0
18.9324 34.5375 -61.7267 0.666 -0.402 0.628 197 201 172 0
18.9032 34.8624 -61.8102 0.640 -0.374 0.671 198 200 171 0
17.8256 38.7021 -63.1413 0.716 -0.424 0.554 194 193 163 0
18.8341 38.5640 -62.6370 0.366 -0.930 -0.018 190 192 162 0
19.1108 40.1385 -62.8446 0.062 -0.679 0.731 185 186 155 0
25.1205 35.3465 -58.9876 0.043 -0.979 -0.199 178 181 153 0
22.8595 43.8914 -61.8854 0.542 -0.480 0.690 168 166 154 0
25.4308 43.0503 -60.4947 0.548 -0.276 -0.790 163 163 153 0
25.2707 50.3914 -62.1452 -0.272 -0.957 0.105 156 156 145 0
34.8220 47.0000 -56.9218 0.791 -0.561 -0.246 153 147 137 0
34.6334 47.9772 -57.2202 0.754 0.265 0.602 153 145 136 0
34.0113 49.9822 -57.9433 0.957 -0.102 0.270 155 146 138 0
41.1262 94.4491 -64.1360 0.219 -0.974 -0.060 135 120 111 0
-25.5116 -4.3944 -74.5447 0.960 -0.091 -0.264 255 255 255 0
-25.6837 -3.6801 -74.7803 0.957 0.154 -0.247 70 67 67 0
-14.2604 -0.3453 -70.1042 0.788 -0.561 0.252 231 226 223 0
-20.9654 2.6292 -73.9141 0.756 -0.260 0.600 232 224 222 0
-20.1698 2.5586 -73.5230 0.427 -0.537 0.727 229 221 220 0
-20.1379 2.7778 -73.5553 0.599 -0.460 0.655 228 221 221 0
3.7454 17.7809 -65.5133 0.629 -0.753 -0.192 216 215 210 0
6.9981 19.8570 -64.4252 -0.026 -0.543 0.839 212 211 209 0
-0.0545 25.9060 -69.0632 0.074 -0.382 0.921 210 209 207 0
-5.9825 31.0228 -72.9687 0.621 -0.784 0.002 210 208 209 0
8.5276 22.8675 -64.3529 0.477 -0.208 0.854 204 204 202 0
8.6151 23.0637 -64.3539 0.477 -0.208 0.854 205 205 203 0
-8.7123 36.7372 -75.4924 0.912 0.046 0.407 205 206 201 0
-9.1207 37.3668 -75.8214 0.364 -0.095 0.927 204 205 200 0
7.0046 26.1666 -65.7848 0.919 -0.216 -0.331 203 204 205 0
-4.8700 37.2462 -73.7873 0.629 0.363 0.687 201 203 200 0
-5.0968 37.7443 -74.0020 0.572 -0.283 0.770 201 203 199 0
9.5320 29.6868 -65.3512 0.988 -0.135 0.076 200 201 196 0
7.9107 31.3375 -66.4736 0.971 -0.146 0.189 201 202 197 0
13.9692 26.7675 -62.6246 0.947 0.223 -0.230 200 201 193 0
10.6767 30.1320 -64.9066 0.145 -0.552 0.821 200 201 193 0
10.6804 30.4130 -64.9655 0.854 -0.297 0.427 200 202 192 0
15.3383 28.5825 -62.3698 0.827 -0.209 -0.521 200 201 193 0
15.1993 28.9828 -62.5220 0.895 -0.144 -0.422 198 199 191 0
18.8813 27.2999 -60.4191 -0.246 -0.542 0.804 199 202 191 0
19.6423 27.4094 -60.0833 0.773 -0.339 0.535 200 202 189 0
16.3541 35.0826 -63.2939 0.225 -0.962 -0.158 200 204 179 0
18.5595 34.6647 -62.1618 0.380 -0.631 0.677 196 200 173 0
19.1694 34.6380 -61.8680 0.648 -0.493 0.580 196 199 173 0
17.9285 38.6435 -63.3192 0.716 -0.424 0.554 192 192 164 0
18.0373 38.8390 -63.3101 0.716 -0.424 0.554 191 192 162 0
17.1913 40.0477 -63.9708 0.992 0.106 0.064 191 192 161 0
19.7174 37.6732 -62.2646 0.597 -0.802 -0.036 190 190 161 0
19.8425 37.8459 -62.2428 0.655 -0.755 -0.029 189 189 161 0
20.1372 38.1437 -62.1679 0.629 -0.710 0.317 189 188 160 0
19.7477 39.8092 -62.7116 -0.170 -0.785 0.595 185 185 156 0
24.8514 35.9945 -59.4768 0.112 -0.989 -0.102 176 178 152 0
21.5333 41.6118 -62.2575 0.675 0.109 0.730 176 172 151 0
21.7234 41.7137 -62.1897 0.686 0.098 0.721 174 172 153 0
12.8261 52.6818 -68.7616 0.146 -0.989 -0.038 170 171 157 0
23.9691 44.2511 -61.6768 0.705 -0.630 -0.324 165 165 155 0
25.7231 43.3993 -60.6643 0.801 -0.146 -0.581 161 161 151 0
25.7559 43.6859 -60.7107 0.847 -0.123 -0.518 161 161 152 0
25.3419 50.3638 -62.3486 -0.284 -0.952 0.112 157 157 145 0
26.2247 49.8840 -61.8279 -0.254 -0.967 0.022 156 156 144 0
41.4760 74.6727 -59.9772 0.943 0.132 -0.304 140 127 115 0
40.0584 79.8725 -61.7699 0.953 0.302 -0.005 141 127 114 0
45.9615 72.6819 -57.4283 0.956 0.148 -0.253 136 126 116 0
45.6746 73.8679 -57.8199 0.956 0.148 -0.253 137 126 116 0
49.1521 69.7759 -55.2934 0.529 -0.719 -0.452 138 125 116 0
46.3865 79.3382 -58.6651 0.555 -0.197 0.808 136 121 114 0
-25.4697 -4.6207 -74.7284 0.958 -0.097 -0.269 255 255 255 0
-25.5902 -4.3647 -74.8412 0.960 -0.091 -0.264 255 255 255 0
-25.7662 -3.6484 -75.0803 0.957 0.154 -0.247 70 67 67 0
-17.9498 -0.5139 -72.0560 0.776 0.311 0.549 231 223 221 0
-14.0291 -1.0709 -70.0761 0.885 -0.359 0.296 234 226 224 0
-19.9754 2.4951 -73.6704 0.280 -0.595 0.753 230 221 220 0
-19.7058 2.6230 -73.5704 0.312 -0.559 0.768 229 220 221 0
-19.8447 2.9076 -73.6981 0.554 -0.585 0.592 228 221 221 0
-8.1184 14.1135 -70.5747 0.052 -0.773 -0.633 230 225 222 0
3.7351 15.5930 -65.2766 0.677 -0.562 -0.475 220 215 214 0
6.8947 18.9479 -64.5080 -0.041 -0.570 0.820 214 213 211 0
7.1483 19.7795 -64.5685 0.022 -0.902 -0.432 211 210 208 0
7.8017 23.9725 -65.1702 0.696 -0.609 0.380 204 204 202 0
9.4544 29.7893 -65.6512 0.989 -0.135 0.066 199 200 195 0
10.4834 30.0517 -65.2204 0.835 -0.262 0.484 198 199 191 0
10.9586 29.9285 -64.9683 0.504 -0.430 0.749 199 200 193 0
10.4757 30.9137 -65.4114 0.881 -0.024 0.472 200 202 191 0
17.8998 32.1572 -62.1620 0.131 -0.964 0.233 199 202 184 0
17.4179 32.9121 -62.5546 0.332 -0.178 0.926 199 202 182 0
16.5891 34.5996 -63.3143 0.193 -0.953 -0.235 198 203 180 0
16.4836 35.0001 -63.4514 0.331 -0.903 -0.273 198 203 180 0
20.1750 32.5041 -61.1588 -0.024 -0.815 0.579 198 200 176 0
19.3688 34.4812 -61.9708 0.353 -0.644 0.679 196 198 176 0
17.4238 38.2927 -63.7214 0.730 -0.648 0.218 197 193 168 0
17.9013 38.4120 -63.5210 0.775 -0.256 0.578 191 193 167 0
18.1755 38.4330 -63.3955 0.775 -0.194 0.601 190 191 165 0
18.0569 38.8683 -63.5464 0.965 -0.206 0.165 191 192 165 0
17.3571 39.9225 -64.1073 0.992 0.105 0.071 191 190 163 0
23.0387 36.8589 -60.7477 0.875 -0.177 0.450 181 183 155 0
11.7978 53.5710 -69.7099 0.164 -0.848 -0.505 173 171 157 0
12.9095 53.3768 -69.1406 0.406 -0.913 -0.036 171 168 156 0
23.6256 43.4130 -61.8942 0.437 -0.775 0.457 166 166 154 0
24.6542 44.4580 -61.6337 0.906 -0.123 -0.405 161 162 149 0
36.4851 47.3755 -56.6590 0.480 -0.685 -0.547 153 142 135 0
20.7857 75.3381 -70.1806 -0.027 -0.852 0.523 150 143 133 0
21.0244 75.4157 -70.0843 0.934 -0.320 -0.157 149 142 132 0
21.1748 75.6347 -70.0606 0.953 -0.244 -0.178 148 141 131 0
41.4661 74.3283 -60.1566 0.862 -0.065 -0.503 141 127 116 0
45.2418 75.0424 -58.5218 0.940 0.128 -0.316 138 125 116 0
49.2517 69.6562 -55.4498 0.435 -0.442 0.785 137 125 115 0
48.0853 75.6443 -57.3045 0.281 -0.703 0.653 137 120 113 0
43.4804 88.6583 -62.3167 -0.149 -0.888 -0.436 137 120 112 0
-23.7078 -5.1493 -74.0270 0.802 -0.538 -0.260 255 255 255 0
-25.6690 -4.3349 -75.1383 0.960 -0.091 -0.264 255 255 255 0
-25.8490 -3.6165 -75.3812 0.957 0.154 -0.247 70 67 66 0
-25.9155 -3.3735 -75.4659 0.957 0.150 -0.248 227 219 216 0
-25.8042 -2.7385 -75.5519 0.926 -0.251 -0.282 228 223 216 0
-13.8243 -2.6293 -69.8758 0.959 0.062 -0.277 232 224 222 0
-15.1799 -1.0718 -70.8615 -0.087 -0.601 0.795 231 225 224 0
-16.1248 -0.0690 -71.5305 0.843 -0.527 -0.110 234 227 224 0
-7.5531 14.0773 -70.5471 0.076 -0.769 -0.635 230 225 222 0
3.4936 15.7684 -65.6612 0.652 -0.631 -0.421 220 214 214 0
2.9755 16.5867 -66.0867 0.997 0.071 -0.001 217 215 212 0
7.8271 18.0836 -64.1058 -0.088 -0.551 0.830 213 214 210 0
6.7678 20.0745 -65.0454 0.041 -0.860 -0.508 211 210 208 0
-6.1095 32.0831 -73.7997 0.365 -0.923 0.121 209 207 206 0
6.9002 23.6177 -65.7576 0.753 -0.215 0.622 204 204 205 0
6.4031 25.3330 -66.3694 0.768 -0.216 0.603 205 204 202 0
-0.4010 31.6781 -70.9950 -0.257 -0.489 0.834 201 203 200 0
12.7599 26.2340 -63.5420 0.741 0.418 0.526 199 200 194 0
13.7054 26.5221 -63.1551 0.949 -0.120 -0.290 198 200 195 0
19.8403 26.4998 -60.2313 0.745 -0.110 0.658 198 200 189 0
16.5734 34.6598 -63.5710 0.193 -0.953 -0.235 196 201 178 0
18.3232 33.2317 -62.4260 0.519 -0.790 -0.327 196 201 179 0
20.3091 34.4487 -61.7474 0.167 -0.666 0.727 197 196 172 0
17.9287 38.4326 -63.7515 0.742 -0.260 0.618 191 193 169 0
18.9220 38.3111 -63.2524 0.654 -0.215 0.725 190 189 163 0
23.4717 43.3294 -62.1856 0.940 0.029 0.340 168 166 154 0
23.1876 44.6619 -62.6123 0.168 -0.311 0.935 165 165 155 0
24.0469 43.9443 -62.0464 0.077 -0.947 0.310 164 164 155 0
23.9221 45.0925 -62.3570 0.890 0.012 -0.456 163 163 152 0
22.0935 48.7354 -64.0241 0.367 -0.015 0.930 161 161 151 0
13.7576 67.3054 -72.0531 -0.292 -0.956 -0.013 159 156 147 0
27.4031 51.2546 -62.0489 0.884 0.358 -0.302 154 150 141 0
33.3910 47.2649 -58.3270 0.974 0.010 -0.226 156 149 139 0
33.5903 47.3172 -58.2436 0.968 -0.133 0.212 156 149 139 0
33.7076 47.8373 -58.3016 0.967 -0.137 0.214 151 147 135 0
36.0965 47.7018 -57.1354 0.438 -0.701 -0.563 153 144 135 0
35.8604 48.4180 -57.4044 0.439 -0.661 -0.608 153 144 135 0
20.3483 75.2140 -70.6475 -0.203 -0.925 0.322 149 144 132 0
21.0116 75.5347 -70.4021 0.934 -0.320 -0.157 150 141 132 0
21.1140 75.8317 -70.4184 0.831 -0.316 -0.457 149 140 131 0
41.1673 74.6244 -60.6129 0.664 -0.308 -0.682 140 126 115 0
40.0658 80.1195 -62.3393 0.937 0.331 0.107 139 126 114 0
43.9772 78.7481 -60.1782 0.880 0.061 -0.470 137 124 114 0
48.2200 75.4371 -57.4351 0.408 -0.761 0.504 135 120 112 0
48.6114 74.9441 -57.1410 0.989 -0.122 -0.087 135 121 112 0
43.4854 88.8023 -62.6119 -0.149 -0.888 -0.436 135 119 111 0
46.3768 85.7661 -60.5719 -0.112 -0.889 -0.443 254 254 253 0
-23.7833 -5.1209 -74.3184 0.802 -0.538 -0.260 255 255 255 0
-25.7597 -4.3015 -75.4426 0.960 -0.094 -0.263 255 255 255 0
-25.9320 -3.5846 -75.6827 0.957 0.154 -0.247 69 67 66 0
-25.9990 -3.3411 -75.7683 0.957 0.150 -0.248 227 220 216 0
-26.0709 -3.0953 -75.8568 0.960 0.134 -0.246 229 222 216 0
-25.7510 -2.7488 -75.7803 0.892 -0.345 -0.291 229 223 216 0
-17.8127 0.3428 -72.6705 0.803 -0.363 -0.473 233 227 227 0
-16.4733 0.0697 -71.9708 0.712 -0.656 -0.252 234 226 224 0
3.8954 15.2967 -65.5975 0.737 -0.670 0.088 220 215 212 0
2.4502 17.1932 -66.7052 0.952 0.219 -0.212 215 214 210 0
2.0682 17.9391 -67.0519 0.972 0.185 -0.145 217 213 210 0
0.8328 18.9884 -67.8728 0.944 0.250 -0.215 217 213 210 0
0.7154 19.3210 -68.0021 0.944 0.250 -0.215 217 213 212 0
7.0765 18.3768 -64.7568 0.074 -0.319 0.945 214 215 210 0
5.4264 25.0165 -67.0067 0.838 -0.545 -0.029 203 201 203 0
7.3793 24.0885 -65.8698 0.537 -0.149 0.830 204 202 203 0
6.0816 25.6097 -66.8244 0.615 -0.309 0.726 202 201 200 0
11.6820 25.0041 -64.0169 0.914 -0.311 -0.259 198 200 199 0
12.3585 25.7926 -63.8675 0.216 -0.968 0.125 198 197 193 0
13.7439 25.7186 -63.1897 0.983 -0.168 -0.068 196 197 192 0
14.0205 26.8323 -63.3028 0.987 -0.151 -0.045 198 198 194 0
10.8295 29.8320 -65.4870 0.877 0.346 0.335 198 198 194 0
10.6307 30.8573 -65.8077 0.417 -0.381 0.825 200 200 191 0
19.8401 27.3428 -60.6363 0.722 -0.688 -0.078 199 201 188 0
21.6171 32.2843 -60.8759 0.069 -0.860 0.505 195 198 172 0
20.1811 34.6268 -62.0774 0.126 -0.879 0.459 194 197 171 0
18.9832 36.7656 -63.1203 0.755 -0.282 0.592 191 194 166 0
17.6980 38.7245 -64.1653 0.835 -0.511 0.204 190 192 168 0
19.2300 37.4202 -63.1466 0.722 0.155 0.674 189 191 167 0
20.9400 38.3482 -62.5344 0.369 -0.219 0.903 181 185 161 0
16.3376 50.1920 -67.3400 0.758 -0.569 -0.320 172 168 156 0
16.9270 50.5555 -67.1385 0.729 -0.633 -0.261 171 166 154 0
23.4117 43.4596 -62.4797 0.939 -0.051 0.340 168 164 152 0
26.6544 52.3709 -62.8934 0.885 0.362 -0.293 155 151 144 0
33.2184 47.5886 -58.7061 0.977 -0.001 -0.211 156 147 138 0
33.6982 47.9223 -58.5505 0.774 -0.303 -0.557 149 145 133 0
21.8695 73.7967 -69.8960 0.424 -0.740 0.522 150 141 132 0
48.2419 75.5208 -57.6828 0.373 -0.832 0.412 132 120 111 0
48.6215 75.0580 -57.3996 0.994 -0.104 -0.024 134 121 112 0
43.4698 89.0003 -62.9295 -0.147 -0.881 -0.449 134 120 111 0
-23.8590 -5.0924 -74.6105 0.802 -0.538 -0.260 255 255 255 0
-25.8089 -4.2807 -75.7248 0.959 -0.100 -0.263 255 255 255 0
-26.0152 -3.5526 -75.9850 0.957 0.154 -0.247 69 68 66 0
-26.1529 -3.0631 -76.1595 0.960 0.134 -0.246 230 223 215 0
-25.8373 -2.7147 -76.0854 0.892 -0.345 -0.291 230 223 216 0
-25.0000 -2.3102 -75.7738 0.874 0.441 0.205 232 225 216 0
-0.4131 10.0088 -66.7214 0.759 -0.269 0.593 229 223 221 0
3.7657 16.6263 -66.1853 0.986 0.056 0.155 215 214 210 0
-0.9343 29.2251 -71.2294 0.134 -0.323 0.937 204 202 205 0
5.4428 25.0362 -67.2452 0.840 -0.542 -0.018 203 201 204 0
5.9013 24.9635 -67.0094 0.580 -0.811 -0.076 203 201 203 0
5.9977 25.7061 -67.1278 0.692 -0.720 0.044 202 200 200 0
-0.5028 31.5324 -71.5339 -0.218 -0.467 0.857 201 201 197 0
0.5899 31.2785 -70.9541 -0.391 -0.525 0.756 199 201 198 0
12.7536 23.3889 -63.3768 0.928 -0.172 -0.331 199 201 200 0
8.3376 28.2878 -66.5786 0.613 -0.378 -0.693 199 199 198 0
11.7432 28.2521 -64.9387 0.105 -0.990 -0.099 194 197 194 0
10.9533 30.6169 -65.8412 0.441 -0.376 0.815 199 199 190 0
19.8594 26.8259 -60.7333 0.768 -0.626 -0.135 198 200 187 0
19.9500 27.0108 -60.7308 0.776 -0.620 -0.112 197 199 186 0
20.1574 34.6978 -62.3349 0.321 -0.618 0.718 191 193 169 0
18.8169 36.9873 -63.4846 0.843 -0.367 0.392 190 192 167 0
18.5049 38.8545 -64.0479 0.787 0.045 0.615 191 189 167 0
21.2620 37.4345 -62.4120 0.638 0.176 0.749 184 186 161 0
21.0341 37.9883 -62.6439 0.694 0.094 0.713 182 184 160 0
11.2954 53.6050 -70.7713 0.666 -0.575 -0.476 175 172 157 0
11.4247 53.8240 -70.7579 0.667 -0.581 -0.466 176 172 156 0
17.3745 47.9857 -66.6130 0.486 -0.133 0.864 173 170 156 0
17.4008 48.3011 -66.6703 0.481 -0.147 0.865 171 168 155 0
16.7932 50.4226 -67.4316 0.931 -0.204 0.303 170 166 153 0
16.7472 50.8332 -67.5446 0.853 -0.242 0.463 171 166 153 0
24.0699 44.3650 -62.6022 0.139 -0.432 0.891 165 166 151 0
33.1349 47.7817 -59.0153 0.983 -0.040 -0.179 156 147 138 0
22.8345 68.8166 -68.6125 0.457 -0.688 0.564 150 143 133 0
22.3794 72.6245 -69.6744 0.104 -0.822 0.561 147 143 131 0
46.5791 67.4037 -56.9209 0.887 0.297 0.354 139 124 117 0
49.3568 70.7699 -56.3357 0.842 -0.350 -0.410 135 126 114 0
44.5317 91.6754 -63.2805 -0.045 -0.857 -0.514 254 255 255 0
-23.9593 -5.0564 -74.9167 0.793 -0.546 -0.272 255 255 255 0
-25.9294 -4.2381 -76.0466 0.961 -0.096 -0.258 255 255 255 0
-26.0987 -3.5205 -76.2881 0.957 0.154 -0.247 70 67 66 0
-25.9238 -2.6805 -76.3913 0.892 -0.345 -0.291 232 225 219 0
-10.4197 -1.1047 -69.2866 0.120 -0.416 0.901 229 222 222 0
-5.3437 -2.4327 -66.5493 -0.062 -0.356 0.933 229 224 221 0
0.2072 9.4624 -66.5324 0.710 -0.211 0.672 231 227 221 0
1.4321 9.2570 -65.8975 0.789 -0.242 0.565 229 225 221 0
4.6174 16.3508 -65.9476 0.953 0.251 0.170 217 212 212 0
4.2378 16.8416 -66.2396 0.954 0.118 0.274 217 211 211 0
4.1464 17.1484 -66.3520 0.920 0.208 0.332 215 211 210 0
4.2913 17.3026 -66.3167 0.910 0.237 0.341 215 211 209 0
2.9278 23.6611 -68.3904 -0.162 -0.755 0.635 209 208 207 0
3.1458 24.5859 -68.4918 -0.157 -0.638 0.754 207 206 204 0
6.2398 25.5547 -67.2199 0.628 -0.686 0.366 202 201 199 0
6.3331 25.7563 -67.2199 0.602 -0.797 0.050 202 200 200 0
11.2979 24.5798 -64.5699 0.254 -0.627 -0.736 200 201 201 0
9.1841 27.9136 -66.3299 0.588 -0.650 -0.481 197 197 197 0
10.9538 27.0168 -65.2788 0.779 -0.483 -0.400 197 197 195 0
11.0188 27.2375 -65.2969 0.872 -0.415 -0.260 197 197 195 0
11.2558 27.3162 -65.2004 0.925 -0.343 -0.163 197 197 195 0
11.6768 27.7913 -65.1039 0.597 -0.037 0.802 197 198 193 0
11.6563 28.0850 -65.1792 0.641 -0.123 0.757 196 197 192 0
11.9529 28.9466 -65.2287 0.892 0.369 0.261 195 197 191 0
10.9133 30.6903 -66.1176 0.447 -0.288 0.847 196 197 189 0
19.7825 26.9350 -61.0147 0.762 -0.640 -0.100 196 198 185 0
19.6939 28.0995 -61.3171 0.735 -0.246 0.631 197 199 185 0
21.5598 29.6117 -60.7569 0.367 -0.819 -0.441 196 199 180 0
10.1797 41.4074 -68.8603 0.045 -0.834 -0.550 195 198 179 0
10.6538 41.2612 -68.5997 0.045 -0.834 -0.550 195 199 177 0
20.4360 34.4570 -62.3779 0.343 -0.343 0.874 193 193 169 0
20.5337 34.6511 -62.3742 0.377 -0.363 0.852 192 192 168 0
18.9731 36.5693 -63.5525 0.845 -0.175 0.506 192 192 168 0
18.8929 36.9564 -63.6774 0.843 -0.367 0.392 192 192 168 0
21.5994 35.9107 -62.1426 0.726 -0.388 0.568 190 187 167 0
21.7043 36.0983 -62.1340 0.713 -0.510 0.481 190 186 166 0
18.1621 40.2135 -64.7552 0.846 0.074 0.529 187 185 163 0
9.1342 55.4025 -72.4840 0.576 -0.579 -0.577 177 176 158 0
11.3766 53.9430 -71.0802 0.729 -0.453 -0.513 177 172 155 0
14.0008 51.2692 -69.2219 0.742 0.613 0.270 176 170 155 0
16.6631 50.6401 -67.8012 0.856 -0.224 0.467 171 167 155 0
33.1427 47.8407 -59.2517 0.771 -0.304 -0.560 154 146 138 0
42.0319 59.2207 -57.5145 0.163 -0.097 0.982 146 132 118 0
46.6173 52.1762 -53.7383 0.581 -0.677 0.452 144 132 118 0
46.6116 52.9607 -53.9160 0.976 0.217 0.027 143 131 117 0
46.8136 65.1402 -56.5350 0.975 -0.003 -0.221 139 125 116 0
46.7514 65.7387 -56.6983 0.993 0.047 -0.111 139 125 116 0
46.9510 65.7393 -56.6025 0.925 0.242 0.293 138 123 116 0
46.8013 66.5447 -56.8541 0.888 0.306 0.343 138 123 117 0
46.4806 86.5398 -61.4673 -0.027 -0.840 -0.542 255 255 255 0
-24.0401 -5.0263 -75.2129 0.793 -0.546 -0.272 255 255 255 0
-26.0066 -4.2087 -76.3454 0.961 -0.096 -0.258 255 255 255 0
-25.9912 -2.6523 -76.6872 0.895 -0.334 -0.296 232 225 219 0
1.2172 9.1643 -66.2076 0.883 -0.245 0.401 231 228 221 0
1.7146 9.1220 -65.9580 0.749 0.191 0.634 230 227 222 0
2.0128 9.1866 -65.8286 0.437 0.078 0.896 228 225 220 0
2.6455 9.0670 -65.4964 0.483 0.171 0.859 228 224 219 0
4.3853 9.6806 -64.7944 0.047 -0.915 -0.401 227 222 219 0
4.6480 23.7970 -67.8355 -0.003 -0.402 0.916 205 204 202 0
6.5745 22.9226 -66.7095 0.946 -0.217 0.240 205 202 201 0
6.5075 23.2363 -66.8123 0.917 -0.162 0.365 203 202 200 0
6.5779 23.4498 -66.8262 0.916 -0.173 0.362 203 202 201 0
10.8088 25.0026 -65.1327 0.507 -0.480 -0.716 200 200 200 0
10.7964 26.9074 -65.5662 0.789 -0.553 -0.269 197 197 196 0
11.3653 27.2612 -65.3710 0.924 -0.369 -0.100 197 197 195 0
11.8374 28.2461 -65.3642 0.229 -0.921 -0.316 196 197 191 0
12.1323 29.1103 -65.4158 0.982 0.188 0.022 196 197 191 0
8.9222 35.7417 -68.4532 0.892 -0.453 -0.010 197 199 188 0
9.0281 35.9503 -68.4489 0.892 -0.453 -0.010 197 199 188 0
19.7592 27.2643 -61.3206 0.797 -0.550 0.249 195 197 184 0
19.2960 28.2372 -61.7625 0.748 -0.167 0.642 195 197 183 0
19.7468 28.0896 -61.5118 0.768 -0.260 0.585 197 199 185 0
19.5558 28.5421 -61.7055 0.792 -0.365 0.488 195 197 183 0
19.6486 29.0049 -61.7646 0.638 -0.641 0.426 196 198 183 0
19.8962 29.0461 -61.6543 0.630 -0.452 0.631 195 198 181 0
19.1787 35.5013 -63.4492 0.061 -0.630 0.774 195 194 171 0
19.3865 35.8863 -63.4353 0.962 0.067 0.265 193 191 168 0
19.2077 36.3734 -63.6310 0.963 -0.086 0.255 193 191 168 0
12.5677 43.6096 -68.4594 0.804 0.093 0.587 192 190 167 0
19.0259 38.7105 -64.2432 0.947 0.102 0.305 189 187 167 0
11.2491 54.1538 -71.4621 0.695 -0.549 -0.464 177 173 156 0
24.2711 46.5870 -63.4793 0.379 -0.059 0.923 162 161 151 0
24.4868 46.6542 -63.3902 0.818 -0.022 0.575 161 161 150 0
24.5501 50.4027 -64.2009 0.477 -0.814 -0.332 158 156 144 0
27.0832 51.2618 -63.1711 0.891 0.410 -0.194 155 149 141 0
26.1820 55.8626 -64.6386 0.884 0.289 0.367 155 147 140 0
26.1142 56.3406 -64.7785 0.879 0.295 0.375 155 147 140 0
26.7694 60.0437 -65.2934 -0.047 -0.943 0.329 154 145 136 0
38.1852 43.7466 -56.1266 0.317 -0.919 0.234 152 144 134 0
23.6031 66.9458 -68.3704 0.326 -0.834 0.445 152 143 134 0
23.2998 68.2738 -68.8148 0.010 -0.845 0.535 151 141 133 0
46.9090 51.6871 -53.6982 0.598 -0.738 0.312 143 131 117 0
46.8034 52.2822 -53.8827 0.981 0.193 -0.011 143 131 117 0
46.5944 53.0889 -54.1646 0.976 0.217 0.028 143 131 117 0
46.4452 53.7804 -54.3918 0.967 0.190 0.169 142 130 116 0
42.6437 71.8391 -60.2790 0.426 -0.864 -0.267 141 126 113 0
46.7442 65.4149 -56.8584 0.984 0.008 -0.179 140 123 117 0
46.7797 66.7138 -57.1328 0.919 0.305 0.250 138 123 118 0
-24.1211 -4.9961 -75.5097 0.793 -0.546 -0.272 255 255 255 0
-26.0841 -4.1793 -76.6449 0.961 -0.096 -0.258 255 255 255 0
-26.0801 -2.6173 -76.9957 0.895 -0.334 -0.296 228 223 216 0
