ply
format ascii 1.0
element vertex 851
property float x
property float y
property float z
property float nx
property float ny
property float nz
property uchar diffuse_red
property uchar diffuse_green
property uchar diffuse_blue
property uchar class
end_header
-11.0612 48.4543 -6.5637 0.468 -0.180 0.866 254 255 253 0
-13.2273 51.5773 -5.0113 0.804 0.479 0.353 255 255 253 0
-13.3822 51.7883 -4.9080 0.792 0.499 0.352 255 255 253 0
-13.9490 52.0229 -4.8673 0.463 -0.026 0.886 255 255 253 0
-14.2145 52.2416 -4.7800 0.422 -0.003 0.907 255 254 253 0
-14.4740 52.4605 -4.6914 0.456 -0.025 0.890 254 254 252 0
-14.0367 52.6377 -4.4981 0.865 0.335 0.374 254 254 252 0
-14.2431 52.8535 -4.4015 0.855 0.397 0.333 254 253 252 0
-14.5313 53.2784 -4.1891 0.855 0.393 0.339 254 253 252 0
-14.6636 53.4905 -4.0809 0.855 0.397 0.333 254 254 252 0
-14.8042 53.7034 -3.9737 0.855 0.397 0.333 254 254 252 0
-14.9449 53.9166 -3.8664 0.855 0.397 0.333 254 254 252 0
-15.0983 54.1309 -3.7608 0.810 0.473 0.347 253 254 252 0
-15.2788 54.3475 -3.6588 0.824 0.483 0.296 254 253 252 0
-15.4639 54.5648 -3.5572 0.807 0.472 0.355 253 254 252 0
-15.6251 54.7808 -3.4521 0.833 0.472 0.291 254 253 252 0
-15.7654 54.9954 -3.3438 0.851 0.426 0.308 254 253 252 0
-15.9122 55.2108 -3.2362 0.851 0.426 0.308 254 254 252 0
-16.1038 55.4300 -3.1346 0.833 0.472 0.291 254 254 252 0
-16.3994 55.6582 -3.0470 0.707 0.472 0.527 254 254 252 0
-16.4519 55.8669 -2.9259 0.844 0.455 0.282 254 253 252 0
-16.5861 56.0825 -2.8159 0.840 0.453 0.298 254 254 252 0
-16.7440 56.3004 -2.7089 0.837 0.454 0.305 254 253 252 0
-16.8215 56.5116 -2.5909 0.844 0.485 0.229 254 254 252 0
-17.1252 56.7429 -2.5029 0.799 0.498 0.337 254 254 252 0
-17.2871 56.9622 -2.3957 0.793 0.519 0.319 254 253 253 0
-17.6048 57.1960 -2.3087 0.789 0.521 0.326 254 254 254 0
-17.7591 57.4155 -2.2000 0.775 0.487 0.402 254 254 254 0
-17.9534 57.6390 -2.0963 0.775 0.487 0.402 253 254 254 0
-18.1481 57.8630 -1.9923 0.775 0.487 0.402 253 253 253 0
-18.2276 58.0761 -1.8735 0.837 0.407 0.365 253 253 253 0
-18.3827 58.2969 -1.7642 0.837 0.407 0.365 253 254 253 0
-18.5379 58.5179 -1.6547 0.837 0.407 0.365 253 254 253 0
-18.8274 58.7529 -1.5616 0.778 0.510 0.366 253 254 253 0
-19.0251 58.9791 -1.4569 0.778 0.510 0.366 253 254 254 0
-18.9946 59.1819 -1.3239 0.724 0.607 0.329 253 254 254 0
-19.2726 59.4171 -1.2286 0.771 0.551 0.319 253 254 254 0
-19.4788 59.6453 -1.1241 0.771 0.551 0.319 254 253 254 0
-19.7522 59.8812 -1.0275 0.707 0.596 0.382 254 253 253 0
-19.8285 60.0961 -0.9070 0.785 0.472 0.401 254 253 254 0
-20.1298 60.3361 -0.8130 0.871 0.393 0.295 254 253 254 0
-20.2406 60.5553 -0.6963 0.878 0.425 0.220 254 253 254 0
-20.4735 60.7887 -0.5937 0.819 0.393 0.419 254 253 254 0
-20.4559 60.9935 -0.4619 0.773 0.517 0.368 254 253 254 0
-20.6909 61.2278 -0.3590 0.830 0.437 0.346 254 253 254 0
-20.7986 61.4475 -0.2414 0.788 0.503 0.354 254 253 254 0
-20.9596 61.6738 -0.1297 0.832 0.443 0.333 254 253 254 0
-21.2054 61.9107 -0.0273 0.819 0.463 0.340 254 253 254 0
-21.3913 62.1407 0.0821 0.822 0.463 0.331 254 253 254 0
-21.5571 62.3687 0.1940 0.779 0.525 0.344 254 253 254 0
-21.7677 62.6026 0.3012 0.832 0.483 0.274 254 253 254 0
-21.9672 62.8356 0.4099 0.779 0.525 0.344 254 253 254 0
-22.2336 63.0776 0.5116 0.771 0.520 0.368 254 253 254 0
-22.4440 63.3129 0.6198 0.771 0.520 0.368 254 253 254 0
-22.6117 63.5430 0.7326 0.808 0.482 0.338 254 253 254 0
-22.7970 63.7758 0.8439 0.808 0.482 0.338 254 253 254 0
-22.9408 64.0034 0.9597 0.801 0.518 0.300 254 253 254 0
-23.3335 64.2652 1.0501 0.791 0.497 0.357 254 253 254 0
-23.2216 64.4585 1.1924 0.779 0.553 0.297 254 253 254 0
-23.4321 64.6961 1.3019 0.779 0.553 0.297 254 253 254 0
-23.6429 64.9343 1.4117 0.779 0.553 0.297 254 254 254 0
-23.8542 65.1729 1.5218 0.779 0.553 0.297 254 254 254 0
-24.0659 65.4121 1.6320 0.779 0.553 0.297 254 254 254 0
-24.1305 65.6304 1.7569 0.791 0.535 0.295 254 254 254 0
-24.4851 65.8911 1.8538 0.786 0.539 0.302 254 254 254 0
-24.6819 66.1294 1.9663 0.802 0.509 0.312 254 254 253 0
-24.8999 66.3713 2.0771 0.819 0.494 0.291 254 254 252 0
-24.9493 66.5883 2.2040 0.800 0.510 0.314 254 254 253 0
-25.1229 66.8241 2.3193 0.764 0.580 0.284 254 254 252 0
-25.5192 67.0944 2.4144 0.761 0.583 0.284 254 253 252 0
-25.6472 67.3241 2.5345 0.872 0.438 0.217 254 253 252 0
-25.8064 67.5590 2.6520 0.796 0.514 0.320 254 254 254 0
-26.0169 67.8022 2.7650 0.796 0.510 0.326 254 254 254 0
-26.1998 68.0415 2.8808 0.862 0.444 0.244 254 254 254 0
-26.1654 68.2464 3.0158 0.819 0.533 0.212 254 254 254 0
-26.4661 68.5051 3.1216 0.840 0.532 0.104 254 254 254 0
-26.5191 68.7242 3.2491 0.822 0.530 0.209 253 253 254 0
-26.7124 68.9663 3.3646 0.791 0.577 0.203 254 253 254 0
-26.9297 69.2128 3.4785 0.788 0.593 0.166 254 253 254 0
-27.1096 69.4535 3.5957 0.795 0.582 0.171 254 253 253 0
-27.3136 69.6986 3.7111 0.795 0.582 0.171 254 253 254 0
-27.5181 69.9442 3.8268 0.795 0.582 0.171 254 253 254 0
-27.6479 70.1774 3.9487 0.794 0.586 0.162 254 253 254 0
-27.8109 70.4166 4.0682 0.800 0.579 0.158 254 253 254 0
-27.9725 70.6559 4.1879 0.800 0.584 0.139 254 253 254 0
-28.1728 70.9022 4.3048 0.800 0.584 0.139 254 253 254 0
-28.3735 71.1491 4.4220 0.800 0.584 0.139 254 253 254 0
-28.5747 71.3964 4.5394 0.800 0.584 0.139 254 253 253 0
-28.7996 71.6483 4.6552 0.815 0.501 0.292 254 253 254 0
-28.9658 71.8902 4.7757 0.818 0.558 0.142 254 253 254 0
-29.1686 72.1390 4.8937 0.809 0.563 0.169 254 253 254 0
-29.3418 72.3828 5.0141 0.809 0.566 0.160 254 253 254 0
-29.5422 72.6320 5.1328 0.808 0.565 0.166 254 253 254 0
-29.7344 72.8800 5.2523 0.812 0.563 0.154 254 253 254 0
-29.9403 73.1310 5.3711 0.808 0.565 0.166 254 253 254 0
-30.1395 73.3812 5.4906 0.831 0.538 0.144 254 253 254 0
-30.3204 73.6282 5.6116 0.831 0.538 0.144 254 253 254 0
-30.4672 73.8691 5.7351 0.789 0.601 0.127 254 253 254 0
-30.6795 74.1229 5.8545 0.789 0.601 0.127 254 253 254 0
-32.0942 75.6831 6.5675 0.861 0.477 0.179 254 253 254 0
-32.2569 75.9301 6.6919 0.861 0.477 0.179 254 253 254 0
-32.5944 76.2130 6.8060 0.870 0.458 0.181 254 253 254 0
-32.6844 76.4459 6.9352 0.870 0.446 0.212 254 253 253 0
-33.1623 76.7591 7.0419 0.592 0.131 0.795 254 253 254 0
-33.3019 77.0030 7.1687 0.580 0.133 0.804 254 253 254 0
-33.6183 77.2842 7.2857 0.578 0.047 0.815 254 253 254 0
-33.8280 77.5436 7.4091 0.572 0.047 0.819 254 253 254 0
-34.0511 77.8063 7.5319 0.574 0.095 0.814 254 253 254 0
-34.1085 78.0340 7.6640 0.547 -0.110 0.830 254 253 254 0
-34.2524 78.2803 7.7915 0.547 -0.110 0.830 254 253 254 0
-34.4770 78.5443 7.9150 0.570 0.061 0.819 254 253 254 0
-34.6839 78.8050 8.0396 0.570 0.061 0.819 254 253 254 0
-34.8913 79.0661 8.1645 0.570 0.061 0.819 254 253 254 0
-35.0256 79.3115 8.2932 0.576 0.093 0.812 254 253 254 0
14.8170 16.3510 -22.0833 0.447 -0.031 0.894 89 90 90 0
14.6853 16.5042 -22.0121 0.447 -0.031 0.894 89 90 90 0
14.5534 16.6577 -21.9408 0.447 -0.031 0.894 90 91 91 0
14.4213 16.8114 -21.8694 0.447 -0.031 0.894 90 91 91 0
14.2914 16.9659 -21.7970 0.448 -0.031 0.894 90 91 91 0
14.1552 17.1192 -21.7267 0.464 -0.057 0.884 90 91 91 0
13.7818 17.5895 -21.5023 0.458 -0.067 0.886 90 91 91 0
9.5668 22.9059 -18.9649 0.456 -0.057 0.888 89 90 90 0
9.3071 23.2371 -18.8062 0.469 -0.031 0.882 89 90 90 0
9.1717 23.4022 -18.7283 0.469 -0.031 0.882 90 90 91 0
9.0361 23.5675 -18.6503 0.469 -0.031 0.882 89 90 91 0
8.8971 23.7325 -18.5731 0.467 -0.053 0.883 89 90 91 0
8.7654 23.8991 -18.4935 0.467 -0.053 0.883 89 90 90 0
8.6335 24.0660 -18.4138 0.467 -0.053 0.883 89 90 90 0
8.5014 24.2331 -18.3339 0.467 -0.053 0.883 89 90 90 0
1.7018 32.9339 -14.1624 0.700 0.239 0.673 88 90 90 0
1.5575 33.1146 -14.0764 0.700 0.239 0.673 88 90 90 0
1.4131 33.2956 -13.9902 0.700 0.239 0.673 88 90 90 0
1.2684 33.4769 -13.9038 0.700 0.239 0.673 88 90 90 0
0.8301 34.0222 -13.6447 0.703 0.251 0.665 88 90 90 0
0.6150 34.1990 -13.5745 0.454 -0.075 0.888 88 90 90 0
-13.2126 51.7107 -5.2058 0.564 0.084 0.821 90 90 90 0
-13.3894 51.9232 -5.1060 0.564 0.084 0.821 90 90 90 0
-13.5667 52.1361 -5.0060 0.564 0.084 0.821 90 90 90 0
-16.4191 56.0034 -3.1196 0.833 0.480 0.275 87 87 87 0
-16.5901 56.2223 -3.0146 0.829 0.479 0.289 87 87 87 0
-16.7659 56.4420 -2.9100 0.799 0.498 0.337 87 87 87 0
-16.9471 56.6625 -2.8060 0.799 0.498 0.337 88 88 87 0
-17.1288 56.8835 -2.7018 0.799 0.498 0.337 88 88 87 0
-18.2289 58.2182 -2.0727 0.802 0.465 0.375 87 88 88 0
-18.4054 58.4413 -1.9662 0.791 0.476 0.384 88 88 88 0
-18.5916 58.6657 -1.8606 0.791 0.476 0.384 88 88 87 0
-18.9543 59.1148 -1.6475 0.806 0.452 0.382 88 88 87 0
-19.1312 59.3394 -1.5401 0.806 0.452 0.382 88 88 87 0
-19.3207 59.5658 -1.4340 0.809 0.460 0.366 88 88 87 0
-19.4979 59.7911 -1.3261 0.809 0.460 0.366 88 88 88 0
-19.6753 60.0169 -1.2180 0.809 0.460 0.366 88 88 88 0
-20.0356 60.4702 -1.0019 0.818 0.404 0.409 88 88 88 0
-20.2022 60.6959 -0.8918 0.818 0.404 0.409 88 88 88 0
-20.3532 60.9200 -0.7798 0.830 0.437 0.346 88 88 88 0
-20.5184 61.1461 -0.6692 0.830 0.437 0.346 88 87 88 0
-20.6839 61.3726 -0.5584 0.830 0.437 0.346 88 87 88 0
-20.8603 61.6007 -0.4487 0.830 0.445 0.337 88 87 88 0
-21.0186 61.8270 -0.3367 0.810 0.477 0.340 88 87 88 0
-21.1996 62.0564 -0.2271 0.810 0.477 0.340 88 87 88 0
-21.3808 62.2861 -0.1172 0.810 0.477 0.340 88 87 88 0
-21.5739 62.5178 -0.0085 0.797 0.479 0.369 88 87 88 0
-21.7638 62.7494 0.1009 0.797 0.479 0.369 88 87 88 0
-21.9539 62.9814 0.2105 0.797 0.479 0.369 88 87 88 0
-22.1445 63.2139 0.3203 0.797 0.479 0.369 88 87 88 0
-22.3354 63.4468 0.4303 0.797 0.479 0.369 88 87 88 0
-22.5266 63.6802 0.5405 0.797 0.479 0.369 88 88 87 0
-22.7196 63.9142 0.6507 0.799 0.485 0.356 88 88 87 0
-22.9102 64.1483 0.7615 0.797 0.479 0.369 88 88 87 0
-23.1026 64.3830 0.8723 0.797 0.479 0.369 88 88 87 0
-23.2953 64.6182 0.9834 0.797 0.479 0.369 88 88 87 0
-23.4822 64.8529 1.0953 0.786 0.539 0.302 88 88 88 0
-23.6907 65.0911 1.2052 0.783 0.545 0.300 87 88 88 0
-23.8905 65.3285 1.3163 0.779 0.583 0.229 87 88 88 0
-24.0980 65.5674 1.4269 0.779 0.553 0.297 87 88 88 0
-24.3166 65.8083 1.5367 0.783 0.545 0.300 87 88 88 0
-24.5270 66.0486 1.6475 0.792 0.520 0.320 87 88 88 0
-24.7429 66.2900 1.7581 0.796 0.479 0.370 88 88 88 0
-24.9207 66.5263 1.8727 0.819 0.494 0.291 88 87 87 0
-25.1047 66.7638 1.9869 0.819 0.494 0.291 88 87 87 0
-25.2891 67.0018 2.1013 0.819 0.494 0.291 88 87 87 0
-25.4737 67.2401 2.2159 0.819 0.494 0.291 88 87 87 0
-25.6406 67.4761 2.3323 0.812 0.495 0.308 88 87 87 0
-25.8303 67.7160 2.4469 0.812 0.495 0.308 88 88 88 0
-26.0203 67.9563 2.5617 0.812 0.495 0.308 88 88 88 0
-26.2107 68.1971 2.6767 0.812 0.495 0.308 88 88 88 0
-26.3759 68.4341 2.7942 0.852 0.465 0.241 88 88 88 0
-26.5387 68.6712 2.9121 0.852 0.465 0.241 88 88 88 0
-26.7026 68.9087 3.0301 0.872 0.448 0.196 86 86 86 0
-26.8502 69.1438 3.1497 0.872 0.448 0.196 85 85 85 0
-26.9979 69.3792 3.2694 0.872 0.448 0.196 86 85 86 0
-27.1549 69.6164 3.3885 0.823 0.565 0.051 85 85 86 0
-27.3014 69.8521 3.5087 0.818 0.573 0.049 85 85 85 0
-27.4647 70.0910 3.6277 0.844 0.536 -0.016 85 85 86 0
-27.6695 70.3373 3.7434 0.797 0.588 0.137 86 85 85 0
-27.8709 70.5834 3.8597 0.797 0.588 0.137 85 85 85 0
-28.0727 70.8301 3.9762 0.797 0.588 0.137 86 85 85 0
-28.2622 71.0749 4.0940 0.800 0.584 0.139 86 85 85 0
-28.4565 71.3210 4.2116 0.801 0.580 0.147 86 85 85 0
-28.6574 71.5687 4.3290 0.801 0.580 0.147 86 85 85 0
-28.8588 71.8169 4.4465 0.818 0.558 0.142 85 85 85 0
-29.0473 72.0631 4.5653 0.818 0.558 0.142 86 85 85 0
-29.2362 72.3098 4.6843 0.818 0.558 0.142 86 85 85 0
-29.4254 72.5569 4.8035 0.818 0.558 0.142 85 85 85 0
-29.6150 72.8045 4.9230 0.818 0.558 0.142 86 85 85 0
-29.7670 73.0454 5.0454 0.837 0.531 0.132 86 85 85 0
-29.9421 73.2909 5.1663 0.837 0.531 0.132 86 84 85 0
-30.1175 73.5368 5.2873 0.837 0.531 0.132 86 85 86 0
-30.2932 73.7831 5.4086 0.837 0.531 0.132 85 84 85 0
-30.5048 74.0367 5.5276 0.818 0.547 0.176 86 85 86 0
-30.7045 74.2884 5.6478 0.801 0.588 0.111 86 85 86 0
-30.9426 74.5480 5.7655 0.787 0.600 0.143 85 85 86 0
-31.1605 74.8041 5.8850 0.787 0.602 0.138 85 85 86 0
-31.4235 75.0697 6.0017 0.789 0.601 0.127 85 85 86 0
-31.6607 75.3306 6.1205 0.784 0.605 0.140 85 85 86 0
-32.2134 75.8699 6.3542 0.593 0.152 0.791 85 85 86 0
-32.4407 76.1305 6.4746 0.593 0.152 0.791 85 85 85 0
-32.6684 76.3916 6.5953 0.593 0.152 0.791 84 84 85 0
-32.8895 76.6518 6.7167 0.614 0.090 0.784 84 84 85 0
-33.0841 76.9069 6.8399 0.614 0.090 0.784 85 85 86 0
-33.2790 77.1626 6.9634 0.614 0.090 0.784 85 85 85 0
-33.4725 77.4182 7.0872 0.618 0.100 0.780 84 84 85 0
-33.6700 77.6751 7.2110 0.614 0.090 0.784 85 85 85 0
-33.8660 77.9321 7.3351 0.614 0.090 0.784 85 85 86 0
-34.0623 78.1896 7.4594 0.614 0.090 0.784 85 85 86 0
-34.2590 78.4475 7.5840 0.614 0.090 0.784 85 85 86 0
-34.4561 78.7059 7.7088 0.614 0.090 0.784 84 85 86 0
-34.6535 78.9647 7.8338 0.614 0.090 0.784 85 85 85 0
-34.8378 79.2210 7.9598 0.605 0.065 0.794 85 85 85 0
-35.0305 79.4796 8.0855 0.605 0.065 0.794 85 85 86 0
27.8710 0.3251 -29.8880 0.277 -0.245 0.929 110 97 80 0
15.1648 16.3430 -22.2625 0.448 -0.054 0.892 112 102 88 0
15.0393 16.4973 -22.1896 0.447 -0.031 0.894 112 103 88 0
14.9080 16.6505 -22.1186 0.447 -0.031 0.894 112 103 88 0
14.7765 16.8038 -22.0475 0.447 -0.031 0.894 112 103 88 0
14.6447 16.9574 -21.9763 0.447 -0.031 0.894 112 103 88 0
14.5151 17.1119 -21.9041 0.448 -0.031 0.894 112 103 88 0
14.3829 17.2660 -21.8326 0.448 -0.031 0.894 112 103 88 0
14.2548 17.4214 -21.7596 0.464 -0.057 0.884 112 103 88 0
14.1313 17.5783 -21.6848 0.464 -0.057 0.884 112 103 88 0
14.0076 17.7353 -21.6098 0.464 -0.057 0.884 112 103 88 0
13.8770 17.8910 -21.5371 0.470 -0.052 0.881 112 103 88 0
13.7534 18.0487 -21.4617 0.470 -0.052 0.881 112 103 88 0
13.6286 18.2063 -21.3866 0.467 -0.042 0.883 113 103 89 0
9.9367 22.8837 -19.1564 0.456 -0.057 0.888 115 106 92 0
9.7971 23.0469 -19.0806 0.459 -0.048 0.887 115 106 92 0
9.6636 23.2116 -19.0028 0.459 -0.048 0.887 115 106 91 0
9.5300 23.3765 -18.9248 0.459 -0.048 0.887 115 106 91 0
9.4009 23.5426 -18.8452 0.469 -0.031 0.882 115 106 91 0
9.2656 23.7078 -18.7674 0.469 -0.031 0.882 115 106 91 0
9.1302 23.8733 -18.6894 0.469 -0.031 0.882 115 106 91 0
8.9981 24.0396 -18.6103 0.459 -0.059 0.886 115 106 91 0
8.8693 24.2069 -18.5299 0.467 -0.053 0.883 115 106 91 0
1.9595 32.8750 -14.4098 0.700 0.239 0.673 114 102 89 0
1.8156 33.0555 -14.3241 0.700 0.239 0.673 114 103 89 0
1.6715 33.2362 -14.2382 0.700 0.239 0.673 114 103 89 0
1.5264 33.4172 -14.1523 0.703 0.251 0.665 114 102 88 0
1.3805 33.5984 -14.0664 0.703 0.251 0.665 114 102 88 0
0.9412 34.1438 -13.8081 0.703 0.251 0.665 113 102 88 0
0.7944 34.3262 -13.7216 0.703 0.251 0.665 113 102 88 0
0.7417 34.5164 -13.6123 0.454 -0.075 0.888 112 102 88 0
-12.9886 51.8327 -5.3676 0.531 0.060 0.845 111 99 81 0
-13.1698 52.0453 -5.2687 0.531 0.060 0.845 111 99 81 0
-13.3474 52.2582 -5.1691 0.564 0.084 0.821 111 99 81 0
-16.2831 55.9268 -3.4275 0.833 0.472 0.291 110 98 78 0
-16.4387 56.1444 -3.3206 0.829 0.479 0.289 110 97 78 0
-16.6017 56.3630 -3.2146 0.829 0.479 0.289 109 96 77 0
-16.7652 56.5818 -3.1085 0.793 0.503 0.343 108 96 77 0
-16.9501 56.8030 -3.0050 0.793 0.503 0.343 109 97 77 0
-17.1354 57.0245 -2.9014 0.793 0.503 0.343 109 97 77 0
-18.2181 58.3592 -2.2706 0.802 0.465 0.375 108 96 76 0
-18.3943 58.5825 -2.1641 0.791 0.476 0.384 107 96 75 0
-22.7202 64.0632 0.4492 0.799 0.485 0.356 104 93 71 0
-22.9119 64.2977 0.5597 0.799 0.485 0.356 104 93 71 0
-23.0988 64.5320 0.6710 0.797 0.479 0.369 105 93 71 0
-23.3101 64.7700 0.7800 0.791 0.524 0.317 104 92 71 0
-23.5089 65.0067 0.8906 0.786 0.539 0.302 104 92 70 0
-23.7195 65.2455 1.0002 0.783 0.545 0.300 104 91 70 0
-23.9484 65.4874 1.1083 0.779 0.583 0.229 104 91 70 0
-24.1602 65.7273 1.2184 0.779 0.583 0.229 104 91 71 0
-24.3460 65.9639 1.3313 0.783 0.545 0.300 104 91 71 0
-24.5455 66.2028 1.4432 0.792 0.520 0.320 104 91 71 0
-24.7399 66.4414 1.5558 0.796 0.479 0.370 104 91 71 0
-24.9343 66.6805 1.6686 0.814 0.506 0.286 104 90 72 0
-25.1258 66.9194 1.7820 0.819 0.494 0.291 104 90 72 0
-25.3103 67.1577 1.8963 0.819 0.494 0.291 104 91 72 0
-25.4951 67.3964 2.0108 0.819 0.494 0.291 104 91 72 0
-25.6557 67.6317 2.1279 0.807 0.502 0.311 104 91 72 0
-25.8494 67.8725 2.2420 0.807 0.502 0.311 104 91 71 0
-26.0379 68.1129 2.3568 0.812 0.495 0.308 104 91 71 0
-26.2285 68.3540 2.4717 0.812 0.495 0.308 104 91 71 0
-26.4045 68.5931 2.5882 0.852 0.465 0.241 103 90 70 0
-26.5675 68.8304 2.7060 0.852 0.465 0.241 103 90 70 0
-26.7308 69.0681 2.8240 0.852 0.465 0.241 103 90 70 0
-26.8864 69.3049 2.9429 0.872 0.448 0.196 103 89 70 0
-27.0343 69.5406 3.0626 0.872 0.448 0.196 104 90 70 0
-27.1824 69.7766 3.1825 0.872 0.448 0.196 104 91 71 0
-27.4325 70.0302 3.2939 0.844 0.536 -0.016 104 91 71 0
-27.5803 70.2669 3.4142 0.844 0.536 -0.016 105 91 71 0
-27.7598 70.5093 3.5320 0.797 0.588 0.137 104 91 70 0
-27.9616 70.7559 3.6483 0.797 0.588 0.137 105 92 69 0
-28.1638 71.0030 3.7647 0.797 0.588 0.137 105 91 69 0
-28.3519 71.2481 3.8826 0.800 0.584 0.139 105 91 69 0
-28.5533 71.4958 3.9996 0.800 0.584 0.139 104 90 68 0
-28.7444 71.7422 4.1177 0.801 0.580 0.147 103 90 67 0
-28.9460 71.9908 4.2352 0.801 0.580 0.147 105 90 67 0
-29.1290 72.2365 4.3544 0.818 0.558 0.142 104 89 67 0
-29.3182 72.4836 4.4734 0.818 0.558 0.142 103 89 67 0
-29.5078 72.7312 4.5926 0.818 0.558 0.142 103 89 67 0
-29.6976 72.9792 4.7120 0.818 0.558 0.142 103 89 66 0
-29.8442 73.2194 4.8348 0.837 0.531 0.132 102 89 66 0
-30.0196 73.4654 4.9557 0.837 0.531 0.132 102 88 66 0
-30.1953 73.7117 5.0767 0.837 0.531 0.132 101 88 67 0
-30.3712 73.9585 5.1980 0.837 0.531 0.132 103 89 68 0
-30.5763 74.2112 5.3174 0.818 0.547 0.176 101 88 67 0
-30.8079 74.4695 5.4353 0.801 0.588 0.111 101 87 66 0
-31.0452 74.7294 5.5530 0.787 0.602 0.138 100 87 66 0
-31.2623 74.9859 5.6725 0.787 0.602 0.138 100 87 66 0
-31.5318 75.2532 5.7887 0.788 0.600 0.140 100 86 66 0
-31.7639 75.5136 5.9078 0.784 0.605 0.140 100 87 66 0
-31.7610 75.7270 6.0424 0.593 0.152 0.791 100 87 66 0
-31.9874 75.9869 6.1623 0.593 0.152 0.791 100 86 66 0
-32.2142 76.2474 6.2824 0.593 0.152 0.791 98 85 65 0
-32.4416 76.5084 6.4028 0.593 0.152 0.791 98 85 64 0
-32.6606 76.7682 6.5240 0.614 0.090 0.784 97 84 63 0
-32.8549 77.0233 6.6469 0.614 0.090 0.784 98 85 65 0
-33.0495 77.2788 6.7701 0.614 0.090 0.784 98 85 65 0
-33.2444 77.5348 6.8935 0.614 0.090 0.784 97 84 64 0
-33.4397 77.7912 7.0172 0.614 0.090 0.784 96 82 63 0
-33.6353 78.0481 7.1410 0.614 0.090 0.784 97 83 63 0
-33.8313 78.3054 7.2651 0.614 0.090 0.784 97 83 63 0
-34.0277 78.5632 7.3894 0.614 0.090 0.784 96 83 63 0
-34.2243 78.8215 7.5139 0.614 0.090 0.784 96 82 63 0
-34.4214 79.0802 7.6387 0.614 0.090 0.784 96 83 63 0
-34.6188 79.3394 7.7637 0.614 0.090 0.784 95 82 62 0
-34.7866 79.5924 7.8904 0.605 0.065 0.794 94 81 61 0
-34.9793 79.8513 8.0161 0.605 0.065 0.794 95 82 62 0
7.0621 76.9998 14.2954 0.850 0.508 0.139 255 255 254 0
32.9586 -2.2899 -30.7674 0.310 0.283 0.907 213 193 162 0
26.4561 2.6518 -28.9217 0.296 -0.221 0.929 222 201 161 0
26.3498 2.7870 -28.8573 0.292 -0.199 0.935 224 202 163 0
26.2398 2.9208 -28.7945 0.292 -0.199 0.935 224 203 163 0
15.1379 16.7983 -22.2221 0.463 -0.037 0.886 241 224 185 0
15.0113 16.9527 -22.1496 0.463 -0.037 0.886 242 225 186 0
14.8914 17.1091 -22.0745 0.452 -0.040 0.891 242 225 186 0
14.6931 17.2463 -22.0267 0.458 0.006 0.889 243 225 187 0
14.5535 17.3985 -21.9581 0.461 0.020 0.887 243 225 186 0
14.4234 17.5534 -21.8859 0.462 0.011 0.887 243 225 187 0
14.2858 17.7067 -21.8162 0.462 0.011 0.887 242 224 186 0
14.1568 17.8624 -21.7433 0.471 -0.025 0.882 242 224 186 0
14.0330 18.0197 -21.6684 0.463 -0.070 0.884 243 225 187 0
13.9119 18.1779 -21.5925 0.463 -0.070 0.884 243 226 186 0
13.8597 18.3525 -21.4928 0.464 -0.057 0.884 243 225 187 0
13.7273 18.5085 -21.4204 0.470 -0.052 0.881 242 225 187 0
13.6035 18.6668 -21.3449 0.470 -0.052 0.881 242 225 188 0
13.5154 18.8335 -21.2571 0.454 -0.108 0.884 243 224 188 0
13.3639 18.9859 -21.1907 0.456 -0.057 0.888 243 224 188 0
13.2453 19.1462 -21.1129 0.454 -0.093 0.886 242 225 188 0
13.1106 19.3030 -21.0404 0.456 -0.057 0.888 242 225 188 0
13.0835 19.4843 -20.9317 0.382 -0.168 0.909 242 225 188 0
12.9671 19.6456 -20.8528 0.382 -0.168 0.909 242 224 188 0
12.8505 19.8072 -20.7739 0.382 -0.168 0.909 244 226 189 0
12.7337 19.9690 -20.6948 0.382 -0.168 0.909 245 227 191 0
12.6414 20.1363 -20.6075 0.374 -0.162 0.913 245 226 190 0
12.4573 20.2840 -20.5503 0.451 -0.088 0.888 245 227 190 0
10.5935 22.3502 -19.6127 0.584 -0.055 0.810 245 227 191 0
10.7301 22.5651 -19.4510 0.459 -0.061 0.886 245 228 190 0
10.6012 22.7290 -19.3730 0.459 -0.061 0.886 246 228 189 0
10.4720 22.8931 -19.2948 0.459 -0.061 0.886 246 228 190 0
10.3427 23.0575 -19.2166 0.459 -0.061 0.886 245 228 191 0
10.2132 23.2221 -19.1382 0.459 -0.061 0.886 245 228 192 0
10.0835 23.3870 -19.0597 0.459 -0.061 0.886 245 228 191 0
9.9412 23.5499 -18.9848 0.460 -0.060 0.886 246 228 189 0
9.6296 23.6826 -18.9619 0.469 -0.031 0.882 246 229 188 0
9.4984 23.8484 -18.8831 0.459 -0.048 0.887 245 228 189 0
9.3322 24.0083 -18.8148 0.465 -0.036 0.885 246 228 190 0
3.8585 31.0537 -15.4465 0.455 -0.068 0.888 240 223 182 0
2.0324 33.3798 -14.3381 0.455 -0.047 0.889 240 221 182 0
1.1989 34.0832 -14.0575 0.703 0.251 0.665 239 220 182 0
1.0524 34.2654 -13.9714 0.693 0.237 0.681 238 219 181 0
0.9052 34.4478 -13.8852 0.693 0.237 0.681 238 219 182 0
0.7578 34.6306 -13.7989 0.693 0.237 0.681 237 219 182 0
0.6661 34.8179 -13.6989 0.704 0.227 0.673 237 219 182 0
0.5274 35.0018 -13.6102 0.730 0.205 0.652 237 218 182 0
-12.0829 51.1101 -5.9276 0.802 0.502 0.323 233 214 167 0
-12.2497 51.3204 -5.8277 0.776 0.536 0.333 232 213 165 0
-12.4375 51.5322 -5.7310 0.776 0.536 0.333 233 213 165 0
-12.6256 51.7445 -5.6340 0.776 0.536 0.333 233 213 165 0
-13.1616 51.9768 -5.5920 0.814 0.489 0.313 232 212 163 0
-13.3281 52.1891 -5.4907 0.814 0.489 0.313 232 212 163 0
-13.0784 52.3771 -5.3241 0.811 0.509 0.289 232 212 163 0
-13.2613 52.5905 -5.2254 0.808 0.512 0.292 232 212 161 0
-13.4328 52.8036 -5.1247 0.808 0.512 0.292 231 211 160 0
-13.6047 53.0171 -5.0238 0.808 0.512 0.292 232 212 162 0
-14.3953 54.0849 -4.5057 0.820 0.503 0.275 229 209 159 0
-14.5516 54.2993 -4.4012 0.823 0.502 0.268 229 209 159 0
-14.7165 54.5146 -4.2978 0.823 0.502 0.268 228 207 159 0
-14.8514 54.7281 -4.1897 0.824 0.497 0.271 228 207 159 0
-15.7512 55.8175 -3.6793 0.810 0.530 0.253 225 205 156 0
-15.9406 56.0373 -3.5778 0.807 0.533 0.255 225 205 156 0
-16.1183 56.2565 -3.4744 0.807 0.533 0.255 225 205 156 0
-16.2963 56.4762 -3.3708 0.807 0.533 0.255 223 203 153 0
-16.4997 56.6984 -3.2706 0.804 0.518 0.292 222 202 151 0
-16.6496 56.9163 -3.1626 0.807 0.517 0.286 223 203 151 0
-17.1386 57.1655 -3.1008 0.793 0.503 0.343 223 203 152 0
-24.7339 66.5926 1.3535 0.801 0.506 0.321 214 190 141 0
-25.2150 66.8754 1.4379 0.655 0.676 -0.339 214 191 142 0
-25.3305 67.1034 1.5589 0.649 0.686 -0.329 214 191 142 0
-25.5273 67.3441 1.6721 0.649 0.686 -0.329 213 190 141 0
-25.7245 67.5854 1.7855 0.649 0.686 -0.329 213 190 141 0
-25.9221 67.8271 1.8992 0.649 0.686 -0.329 212 189 141 0
-26.1201 68.0692 2.0130 0.649 0.686 -0.329 212 187 139 0
-26.1913 68.2915 2.1390 0.639 0.704 -0.309 213 191 140 0
-26.4077 68.5372 2.2515 0.639 0.704 -0.309 212 189 139 0
-26.6246 68.7835 2.3643 0.639 0.704 -0.309 210 188 136 0
-26.8420 69.0304 2.4774 0.639 0.704 -0.309 212 189 139 0
-26.8245 69.2387 2.6118 0.636 0.712 -0.298 213 190 140 0
-27.0499 69.4875 2.7245 0.636 0.712 -0.298 213 188 138 0
-27.2758 69.7369 2.8374 0.636 0.712 -0.298 211 186 137 0
-27.2201 69.9388 2.9752 0.644 0.711 -0.283 211 186 136 0
-27.4465 70.1888 3.0885 0.644 0.711 -0.283 211 187 135 0
-27.6735 70.4394 3.2021 0.644 0.711 -0.283 211 187 133 0
-27.7885 70.6709 3.3254 0.644 0.712 -0.280 211 187 133 0
-28.0177 70.9227 3.4392 0.644 0.712 -0.280 211 187 132 0
-28.0425 71.1388 3.5703 0.640 0.720 -0.268 211 185 131 0
-28.2208 71.3822 3.6887 0.639 0.722 -0.265 211 184 131 0
-28.3934 71.6249 3.8079 0.638 0.720 -0.272 212 184 131 0
-28.5838 71.8712 3.9258 0.635 0.724 -0.271 210 184 131 0
-28.8275 72.1276 4.0397 0.635 0.724 -0.271 212 183 130 0
-28.9728 72.3664 4.1617 0.638 0.720 -0.273 211 183 131 0
-29.0997 72.6021 4.2853 0.640 0.717 -0.275 209 183 132 0
-29.2295 72.8385 4.4088 0.647 0.709 -0.280 207 184 131 0
-33.2802 77.7072 6.6844 0.641 0.701 -0.311 196 171 124 0
-33.5103 77.9715 6.8059 0.641 0.701 -0.311 196 168 122 0
-33.6172 78.2096 6.9349 0.648 0.693 -0.316 196 170 123 0
-33.8386 78.4727 7.0574 0.648 0.693 -0.316 197 172 124 0
-33.9538 78.7131 7.1862 0.647 0.694 -0.317 195 170 122 0
-34.1395 78.9691 7.3112 0.655 0.686 -0.316 193 167 120 0
-34.2571 79.2105 7.4401 0.642 0.681 -0.353 194 169 121 0
-34.4160 79.4612 7.5670 0.635 0.690 -0.347 192 168 118 0
-34.6127 79.7206 7.6919 0.636 0.694 -0.339 190 166 116 0
-34.8371 79.9867 7.8157 0.636 0.694 -0.339 190 166 116 0
7.0012 77.1426 14.1465 0.850 0.508 0.139 254 255 255 0
29.4513 -0.7783 -30.7174 0.477 0.072 0.876 222 199 158 0
29.3068 -0.6681 -30.6764 0.567 0.088 0.819 222 199 157 0
29.1819 -0.5482 -30.6254 0.595 0.086 0.799 222 199 157 0
29.0795 -0.4174 -30.5632 0.595 0.086 0.799 222 199 157 0
28.8655 -0.1594 -30.4428 0.595 0.122 0.795 223 200 158 0
26.7440 2.8448 -28.9682 0.292 -0.199 0.935 224 202 161 0
26.6570 2.9878 -28.8953 0.293 -0.194 0.936 224 202 161 0
26.5251 3.1120 -28.8430 0.292 -0.199 0.935 224 203 161 0
25.7971 3.7099 -28.6095 0.756 0.144 0.639 225 204 162 0
25.7079 3.8538 -28.5364 0.756 0.144 0.639 225 203 162 0
15.1858 17.0862 -22.2725 0.456 0.009 0.890 245 227 185 0
15.0646 17.2422 -22.1981 0.422 0.022 0.906 246 227 186 0
14.9167 17.3918 -22.1329 0.422 0.022 0.906 246 227 187 0
14.8009 17.5497 -22.0562 0.415 0.028 0.910 246 227 185 0
14.6338 17.6953 -21.9974 0.462 0.011 0.887 246 227 187 0
14.4965 17.8486 -21.9278 0.462 0.011 0.887 246 227 186 0
14.3713 18.0051 -21.8539 0.471 -0.025 0.882 245 226 185 0
14.2470 18.1621 -21.7795 0.469 -0.035 0.882 245 226 185 0
14.1383 18.3230 -21.6995 0.463 -0.070 0.884 245 228 185 0
14.0173 18.4813 -21.6236 0.463 -0.070 0.884 245 227 186 0
13.9679 18.6566 -21.5230 0.460 -0.080 0.884 244 226 187 0
13.8634 18.8191 -21.4413 0.462 -0.031 0.886 244 226 188 0
13.7384 18.9771 -21.3663 0.448 -0.103 0.888 244 226 188 0
13.5867 19.1293 -21.3003 0.449 -0.079 0.890 245 225 188 0
13.4631 19.2882 -21.2245 0.459 -0.085 0.884 244 226 188 0
13.3379 19.4471 -21.1491 0.464 -0.057 0.884 244 226 188 0
13.4072 19.6495 -21.0081 0.383 -0.190 0.904 244 226 188 0
13.3045 19.8136 -20.9250 0.377 -0.173 0.910 244 226 188 0
13.1410 19.9645 -20.8621 0.386 -0.178 0.905 244 226 188 0
10.4154 22.9801 -19.4988 0.499 -0.042 0.866 248 230 189 0
10.3834 23.1629 -19.3901 0.475 0.003 0.880 248 230 190 0
10.2392 23.3249 -19.3163 0.485 -0.014 0.874 248 230 192 0
10.0724 23.4832 -19.2495 0.487 0.016 0.873 248 230 192 0
9.9075 23.6422 -19.1817 0.493 -0.000 0.870 247 229 190 0
2.2905 33.5137 -14.4631 0.455 -0.047 0.889 242 221 180 0
1.7645 33.6612 -14.4735 0.702 0.212 0.680 242 221 181 0
1.3345 34.2067 -14.2145 0.690 0.229 0.687 240 220 179 0
1.1696 34.3874 -14.1331 0.693 0.237 0.681 238 219 179 0
1.0103 34.5689 -14.0501 0.707 0.210 0.675 239 220 180 0
0.8753 34.7527 -13.9610 0.693 0.237 0.681 239 220 180 0
0.7383 34.9366 -13.8721 0.790 0.145 0.596 238 219 180 0
0.6930 35.1275 -13.7608 0.787 0.128 0.603 238 218 179 0
-12.2885 50.8493 -6.4125 0.887 0.431 0.167 234 214 163 0
-11.9244 51.6381 -5.8446 0.410 -0.077 0.909 233 213 163 0
-12.3253 51.8618 -5.7825 0.522 0.072 0.850 232 212 162 0
-12.5124 52.0742 -5.6855 0.522 0.072 0.850 231 211 161 0
-12.7154 52.2880 -5.5908 0.545 0.094 0.833 232 212 161 0
-13.0027 52.5073 -5.5091 0.579 0.165 0.798 232 212 161 0
-13.1355 52.7178 -5.4027 0.583 0.085 0.808 232 211 157 0
-13.3061 52.9309 -5.3021 0.583 0.085 0.808 231 210 156 0
-13.4971 53.1457 -5.2043 0.604 0.089 0.792 232 211 156 0
-13.6129 53.3559 -5.0948 0.609 0.094 0.788 230 209 155 0
-14.3597 54.4223 -4.5701 0.578 0.071 0.813 229 208 154 0
-14.5390 54.6387 -4.4691 0.588 0.097 0.803 228 207 154 0
-16.1418 55.9892 -3.9335 0.833 0.472 0.291 225 204 152 0
-16.2799 56.2055 -3.8245 0.835 0.472 0.282 226 204 153 0
-16.4391 56.4238 -3.7183 0.835 0.472 0.282 226 205 153 0
-16.6243 56.6448 -3.6155 0.833 0.472 0.291 225 204 151 0
-16.7829 56.8638 -3.5088 0.827 0.480 0.293 224 203 149 0
-16.9524 57.0841 -3.4034 0.829 0.479 0.289 223 202 147 0
-17.1276 57.3053 -3.2986 0.823 0.481 0.302 224 203 148 0
-17.3303 57.5295 -3.1973 0.792 0.491 0.363 224 203 148 0
-22.1946 63.6653 -0.2898 0.784 0.532 0.319 217 195 140 0
-22.3792 63.8983 -0.1793 0.787 0.521 0.329 216 195 138 0
-22.5791 64.1338 -0.0704 0.783 0.527 0.330 217 195 138 0
-22.7459 64.3651 0.0425 0.779 0.518 0.353 217 195 139 0
-22.9531 64.6024 0.1512 0.779 0.518 0.353 216 195 138 0
-23.1476 64.8383 0.2615 0.791 0.524 0.317 216 194 137 0
-26.0496 68.4230 1.9483 0.800 0.506 0.321 214 190 138 0
-26.2491 68.6661 2.0622 0.800 0.506 0.321 212 189 137 0
-26.4489 68.9097 2.1763 0.800 0.506 0.321 210 187 135 0
-26.6356 69.1515 2.2919 0.849 0.467 0.246 210 187 136 0
-26.8010 69.3902 2.4097 0.849 0.467 0.246 210 187 136 0
-26.9634 69.6287 2.5279 0.873 0.446 0.199 211 187 134 0
-27.1115 69.8650 2.6476 0.873 0.446 0.199 210 186 133 0
-27.2598 70.1016 2.7674 0.873 0.446 0.199 210 187 132 0
-27.4083 70.3386 2.8874 0.873 0.446 0.199 210 187 131 0
-27.5911 70.5817 3.0046 0.849 0.460 0.260 210 188 130 0
-27.7417 70.8196 3.1248 0.851 0.457 0.258 210 187 130 0
-27.9060 71.0602 3.2440 0.852 0.457 0.253 210 186 130 0
-28.2039 71.3249 3.3521 0.841 0.480 0.250 211 184 129 0
-28.3214 71.5579 3.4757 0.847 0.460 0.265 211 183 127 0
-28.5214 71.8060 3.5926 0.856 0.452 0.251 212 185 129 0
-28.6882 72.0484 3.7125 0.859 0.438 0.264 211 184 129 0
-29.0364 72.5369 3.9516 0.857 0.433 0.279 210 183 129 0
-29.3582 72.8092 4.0599 0.841 0.496 0.217 208 184 130 0
-29.5340 73.0548 4.1800 0.841 0.496 0.217 206 183 128 0
-29.7100 73.3008 4.3003 0.841 0.496 0.217 206 183 126 0
-30.8537 74.8012 5.0202 0.780 0.573 0.251 205 180 126 0
-31.1321 75.0701 5.1348 0.773 0.577 0.265 204 179 124 0
-31.3674 75.3309 5.2528 0.773 0.577 0.265 203 178 122 0
-33.4757 77.9141 6.4650 0.824 0.493 0.280 197 170 120 0
-33.6717 78.1716 6.5886 0.824 0.493 0.280 197 169 120 0
-33.8681 78.4296 6.7124 0.824 0.493 0.280 197 170 120 0
-34.0872 78.6928 6.8352 0.823 0.495 0.279 198 171 122 0
-34.2854 78.9520 6.9594 0.823 0.495 0.279 197 169 121 0
29.6121 -0.6365 -30.8166 0.477 0.072 0.876 222 199 158 0
29.4595 -0.5303 -30.7799 0.568 0.082 0.819 222 199 157 0
29.3154 -0.4196 -30.7388 0.595 0.086 0.799 222 199 157 0
29.2131 -0.2888 -30.6767 0.595 0.086 0.799 221 198 156 0
29.1015 -0.1621 -30.6190 0.595 0.122 0.795 222 199 157 0
28.9947 -0.0330 -30.5589 0.595 0.122 0.795 222 199 158 0
28.8877 0.0964 -30.4986 0.595 0.122 0.795 222 200 159 0
29.1434 0.3939 -30.2605 0.292 -0.268 0.918 222 200 159 0
28.9226 0.6493 -30.1434 0.302 -0.251 0.920 224 201 160 0
28.8480 0.7938 -30.0672 0.304 -0.256 0.918 224 202 161 0
25.0016 5.6303 -27.7833 0.292 -0.223 0.930 228 206 165 0
15.9737 16.8171 -22.5269 0.355 -0.188 0.916 245 226 186 0
15.8242 16.9646 -22.4637 0.364 -0.191 0.912 246 227 187 0
15.7154 17.1226 -22.3857 0.340 -0.191 0.921 246 227 185 0
15.5990 17.2790 -22.3102 0.340 -0.191 0.921 246 227 185 0
15.2600 17.3806 -22.3135 0.456 0.009 0.890 245 226 185 0
15.2464 17.5632 -22.2012 0.331 0.046 0.942 245 226 186 0
12.5064 21.0457 -20.5509 0.398 -0.168 0.902 247 231 186 0
10.6211 23.1163 -19.6204 0.494 -0.027 0.869 248 231 188 0
10.4924 23.2809 -19.5422 0.494 -0.027 0.869 249 231 191 0
10.2462 23.6132 -19.3818 0.479 -0.018 0.877 249 230 192 0
10.0993 23.7754 -19.3087 0.480 -0.011 0.877 248 230 192 0
9.8640 24.3000 -19.0249 0.493 0.014 0.870 248 230 192 0
-13.8844 53.5100 -5.3345 0.652 0.122 0.748 230 209 152 0
-14.5691 54.7783 -4.6714 0.563 0.117 0.818 228 206 154 0
-27.4897 70.0856 2.4087 0.939 0.284 0.194 209 186 133 0
-28.7162 71.3615 2.9692 0.855 0.471 0.219 210 185 129 0
-28.9296 71.6126 3.0850 0.852 0.475 0.219 211 185 128 0
-29.8521 73.7010 4.2175 0.851 0.491 0.188 208 182 123 0
-30.8594 74.9641 4.8134 0.800 0.591 0.100 205 180 126 0
-31.4684 75.2994 4.9039 0.730 0.593 0.340 205 179 125 0
-31.6879 75.5578 5.0232 0.753 0.572 0.324 204 177 124 0
-32.2655 75.8893 5.1174 0.720 0.558 0.412 203 177 124 0
-34.1498 78.2246 6.2148 0.756 0.582 0.299 197 170 117 0
-34.2154 79.3191 6.8912 0.472 -0.365 0.803 198 167 120 0
31.3254 -0.9892 -30.9161 0.517 -0.114 0.848 218 194 158 0
31.4313 -0.7611 -30.7511 0.410 0.035 0.911 219 195 158 0
26.8528 2.8514 -29.3911 0.837 0.209 0.506 227 205 162 0
26.7149 2.9729 -29.3422 0.786 0.187 0.589 227 204 163 0
25.9289 3.5458 -29.1385 0.737 0.547 0.397 226 204 162 0
25.7950 3.6713 -29.0862 0.770 0.539 0.343 226 204 162 0
25.6811 3.8054 -29.0244 0.768 0.539 0.347 226 204 163 0
16.2560 19.7355 -20.8708 0.661 0.433 0.613 247 229 191 0
17.3662 20.3499 -20.2611 0.701 0.439 0.562 248 229 189 0
-13.7116 53.6346 -5.5054 0.652 0.122 0.748 230 209 153 0
-23.2865 74.2240 5.5553 0.855 -0.500 0.137 203 175 124 0
-15.9274 72.9177 6.2062 0.492 0.058 0.869 202 174 124 0
6.0328 77.6407 13.5830 0.994 -0.005 -0.106 254 255 255 0
5.4197 77.9711 13.6684 0.998 -0.023 -0.056 254 255 255 0
32.5362 -0.8586 -30.8060 0.346 0.488 0.801 216 195 158 0
26.3367 -2.8032 -33.2878 0.730 -0.364 -0.579 218 196 157 0
30.5916 1.1950 -29.9040 0.350 0.270 0.897 222 201 159 0
26.3123 2.6913 -29.8264 0.914 0.324 0.244 227 204 162 0
25.8204 2.6639 -29.9432 0.842 0.361 0.401 227 204 163 0
25.4714 2.6985 -29.9921 0.915 0.403 0.010 227 204 163 0
25.4028 2.8521 -29.9090 0.915 0.403 0.010 226 204 165 0
25.4441 3.0519 -29.7746 0.949 0.317 0.003 226 204 165 0
25.4670 3.2436 -29.6490 0.700 0.421 0.577 226 204 165 0
25.1130 3.2788 -29.6985 0.953 0.304 0.005 227 205 164 0
25.1352 3.4705 -29.5730 0.674 0.453 0.583 227 205 164 0
24.2591 3.2927 -29.8626 0.682 0.054 0.730 226 204 164 0
23.7715 3.2769 -29.9712 0.718 0.129 0.684 227 205 165 0
23.4398 3.3263 -30.0072 0.762 0.051 0.646 227 205 166 0
23.0706 3.3616 -30.0597 0.735 -0.472 0.487 226 205 165 0
24.3055 4.4120 -29.1471 -0.066 -0.462 0.884 226 207 166 0
24.1729 4.5420 -29.0918 -0.066 -0.462 0.885 226 207 166 0
24.0565 4.6788 -29.0291 -0.066 -0.462 0.885 225 206 165 0
24.1853 4.9127 -28.8555 -0.052 -0.494 0.868 226 204 163 0
29.1621 8.4332 -25.6270 0.170 -0.800 0.576 227 205 163 0
19.5118 9.8550 -26.6836 0.997 0.034 -0.070 229 211 170 0
14.8713 10.4509 -27.2471 0.781 0.606 -0.153 242 223 183 0
14.8912 10.6493 -27.1179 0.747 0.625 -0.228 245 225 186 0
15.0385 11.2698 -26.6966 0.907 0.314 -0.279 245 226 186 0
15.0162 11.4545 -26.5846 0.911 0.324 -0.255 246 227 186 0
14.8289 11.5897 -26.5372 0.906 0.407 0.120 246 227 187 0
14.5362 11.8858 -26.4097 0.924 0.337 -0.184 248 227 189 0
13.7057 11.8331 -26.6110 0.944 0.258 -0.208 248 226 189 0
17.1952 13.9788 -24.5509 0.321 0.124 0.939 247 227 188 0
18.2759 17.7584 -21.9476 0.396 -0.189 0.899 248 229 189 0
19.3457 19.2805 -20.7708 0.149 -0.161 0.976 248 229 190 0
17.3644 19.1709 -21.2411 0.500 -0.423 0.756 249 230 188 0
17.1088 19.2927 -21.2159 0.507 -0.424 0.751 249 230 189 0
16.8252 19.4088 -21.2001 0.403 0.158 0.901 249 230 190 0
16.7554 19.5750 -21.1094 0.414 0.031 0.910 249 231 191 0
16.4639 19.6906 -21.0955 0.415 0.064 0.907 248 230 190 0
16.8146 19.9528 -20.8591 0.548 0.418 0.724 248 230 190 0
9.0120 19.1559 -22.9414 0.929 -0.006 -0.371 249 229 191 0
8.9544 19.3378 -22.8383 0.977 0.100 -0.190 249 229 192 0
-3.1181 37.1956 -14.0161 0.759 0.135 0.637 238 221 178 0
-2.7220 37.6143 -13.6717 0.657 0.222 0.720 236 219 176 0
-2.8218 37.8074 -13.5701 0.469 0.310 0.827 237 220 177 0
-3.4572 37.9743 -13.5935 0.479 0.358 0.802 237 220 177 0
-2.9760 48.1137 -7.0993 0.654 0.557 0.513 233 216 169 0
-3.2635 48.5047 -6.9108 0.717 0.579 0.388 230 214 164 0
-3.0052 48.6866 -6.7438 0.902 -0.272 -0.334 230 213 163 0
-9.4872 58.9344 -1.5908 0.971 0.161 -0.179 221 199 149 0
-9.5519 59.1345 -1.4777 0.965 0.208 -0.162 220 199 148 0
-19.9280 67.6784 1.8119 0.300 0.836 0.459 210 189 134 0
-30.7771 72.4806 2.6453 0.969 0.185 0.166 205 182 123 0
-30.9008 72.7190 2.7706 0.970 0.167 0.175 206 184 124 0
-22.6409 74.2463 5.4063 0.801 -0.516 0.304 203 173 123 0
-22.4389 74.4066 5.5484 0.941 -0.337 0.034 201 172 122 0
-22.1273 74.5435 5.6978 0.826 -0.437 0.357 199 171 121 0
-33.7046 79.1081 6.2338 0.717 -0.618 -0.323 194 167 116 0
6.0286 77.7693 13.4328 0.992 -0.003 -0.130 254 255 255 0
33.0670 -1.0571 -31.0379 0.332 0.498 0.801 220 200 164 0
27.9255 0.7554 -30.9451 0.695 -0.615 -0.373 223 202 160 0
28.5806 1.2317 -30.5104 0.695 -0.615 -0.373 223 201 160 0
29.1488 1.6663 -30.1198 0.677 -0.705 -0.213 224 202 161 0
25.4747 2.7714 -30.1736 0.952 0.296 0.078 227 204 164 0
25.3781 2.9134 -30.1036 0.916 0.400 0.003 226 204 164 0
25.3509 3.0847 -30.0010 0.956 0.293 0.013 226 204 165 0
25.0706 3.1506 -30.0168 0.943 0.332 0.032 227 205 165 0
25.1667 3.3733 -29.8565 0.939 0.338 0.059 228 206 165 0
24.3518 3.2199 -30.1201 0.682 0.128 0.720 228 205 166 0
24.3888 3.4190 -29.9868 0.655 0.066 0.752 226 204 164 0
23.8645 3.3885 -30.1133 0.727 0.115 0.677 226 205 165 0
25.4878 5.1387 -28.6762 -0.030 -0.535 0.845 225 208 165 0
25.5520 5.3448 -28.5329 -0.030 -0.532 0.846 224 207 164 0
20.8630 8.3535 -27.5923 0.455 -0.766 0.454 228 211 168 0
19.6477 9.6098 -27.0478 0.935 0.353 -0.018 232 213 173 0
19.6274 9.7890 -26.9387 0.939 0.340 0.050 232 213 173 0
19.4957 9.9314 -26.8757 0.997 0.034 -0.070 232 213 173 0
19.3560 10.0716 -26.8158 0.595 0.699 0.397 233 211 171 0
19.1394 10.1871 -26.7872 0.968 0.242 0.069 236 213 173 0
16.9426 10.2322 -27.2081 0.201 0.105 0.974 234 215 172 0
14.6834 10.4794 -27.5141 0.445 0.329 0.833 244 226 187 0
-4.7548 33.9763 -16.6543 0.217 0.455 0.864 239 220 179 0
-2.8870 37.9227 -13.7806 0.504 0.264 0.822 236 219 176 0
-3.5202 38.0904 -13.8042 0.463 0.343 0.817 236 219 177 0
-3.1315 48.4333 -7.1942 0.709 0.574 0.411 231 215 168 0
-3.2626 48.6287 -7.0977 0.717 0.579 0.388 229 214 165 0
-3.0170 48.8109 -6.9324 0.907 -0.249 -0.339 230 214 166 0
13.4609 54.4324 -0.0126 0.434 0.093 0.896 222 202 149 0
-7.7378 58.6843 -1.6640 0.953 0.075 -0.295 221 199 149 0
-9.2686 59.0449 -1.7494 0.974 0.145 -0.176 220 198 149 0
-9.6154 59.2766 -1.6741 0.965 0.208 -0.162 219 197 148 0
-9.6854 59.4775 -1.5616 0.975 0.134 -0.178 218 196 147 0
-22.4213 74.5569 5.3543 0.801 -0.516 0.304 200 171 122 0
-20.8792 74.4369 5.5940 0.796 -0.432 0.424 199 171 122 0
-20.9558 74.6523 5.7143 0.303 0.439 0.846 197 169 120 0
-33.6616 79.2653 6.0280 0.717 -0.618 -0.323 191 167 113 0
-33.8317 79.5188 6.1533 0.905 -0.332 -0.267 192 169 113 0
-31.3685 79.6039 6.7109 0.718 0.633 -0.291 189 167 110 0
5.8375 77.0118 12.6846 0.985 -0.160 -0.061 160 137 96 0
5.8947 77.1528 12.7852 0.985 -0.152 -0.086 159 135 94 0
5.9287 77.2999 12.8851 0.979 -0.181 -0.097 157 133 93 0
5.9652 77.4462 12.9849 0.986 -0.140 -0.092 103 90 68 0
5.9954 77.5940 13.0844 0.986 -0.140 -0.092 47 46 45 0
6.0287 77.7408 13.1839 0.992 -0.007 -0.124 244 245 243 0
6.0422 77.8930 13.2828 0.992 -0.007 -0.124 254 255 254 0
33.1027 -1.5016 -31.5259 0.461 0.721 0.518 219 197 162 0
33.0769 -0.9905 -31.2083 0.330 0.602 0.727 219 199 162 0
32.9763 -0.8661 -31.1505 0.327 0.603 0.727 221 199 162 0
31.2744 -1.0010 -31.5874 0.344 0.637 0.690 219 197 160 0
27.5630 0.6592 -31.3053 0.669 -0.707 -0.227 224 203 160 0
28.1922 1.3042 -30.7677 0.830 0.438 -0.346 225 203 162 0
28.0744 1.4314 -30.7117 0.831 0.437 -0.345 226 204 163 0
24.1813 5.2424 -29.1080 0.150 -0.083 0.985 229 207 166 0
20.7724 8.0305 -28.0506 0.530 -0.774 0.347 230 211 168 0
21.0250 8.3044 -27.8254 0.530 -0.774 0.347 231 213 170 0
20.7425 10.0544 -26.7780 0.943 0.332 0.003 232 213 173 0
19.5836 9.8562 -27.1427 0.935 0.352 0.039 233 214 174 0
19.2733 9.9404 -27.1536 0.942 0.334 0.030 233 214 174 0
17.2830 10.2356 -27.3784 0.252 0.177 0.951 237 216 173 0
17.0172 10.3404 -27.3671 0.234 0.112 0.966 236 216 173 0
14.8703 10.4313 -27.7533 0.398 0.330 0.856 244 224 184 0
14.8313 10.6120 -27.6472 0.421 0.303 0.855 246 227 189 0
14.6417 10.7464 -27.6014 0.421 0.303 0.855 246 226 189 0
15.0775 11.0721 -27.3056 0.808 0.585 -0.077 246 227 187 0
17.6747 14.8427 -24.3862 0.349 0.172 0.921 247 228 188 0
-6.2776 33.3535 -17.6389 0.903 -0.093 -0.420 239 220 180 0
-3.1199 38.2288 -13.9057 0.423 0.303 0.854 236 217 176 0
-3.8237 48.7729 -7.3883 0.641 -0.169 0.749 231 215 166 0
-9.2925 59.1824 -1.9406 0.967 0.114 -0.227 218 196 146 0
-9.6003 59.4101 -1.8604 0.966 0.182 -0.186 217 195 145 0
-9.4891 59.5903 -1.7235 0.967 0.172 -0.189 216 194 145 0
-13.4650 71.3264 4.8710 0.765 0.449 0.463 206 176 126 0
-20.6051 74.7310 5.5468 0.283 0.439 0.853 198 170 120 0
-27.7335 77.0690 5.5511 0.099 0.400 0.911 195 169 120 0
-33.4064 79.5903 5.9720 0.717 -0.618 -0.323 190 168 111 0
-32.9215 80.1240 6.4094 0.470 0.878 0.090 188 166 109 0
0.0199 77.6047 11.6249 0.698 0.095 -0.710 171 149 104 0
5.7905 77.1525 12.5317 0.980 -0.188 -0.059 160 136 97 0
5.9083 77.2765 12.6344 0.986 -0.140 -0.092 159 133 96 0
5.9369 77.4252 12.7343 0.979 -0.181 -0.097 157 131 95 0
5.9700 77.5724 12.8341 0.986 -0.137 -0.090 103 88 69 0
5.9993 77.7206 12.9338 0.986 -0.140 -0.092 47 46 45 0
6.0155 77.8722 13.0330 0.991 0.029 -0.129 245 245 244 0
6.0240 78.0260 13.1319 0.991 0.029 -0.129 253 255 252 0
32.0530 -1.0856 -31.6971 0.482 -0.060 0.874 222 200 163 0
34.1949 2.1978 -29.1735 0.348 -0.018 0.937 224 202 161 0
22.8183 6.0787 -29.0942 0.256 -0.867 0.428 230 211 169 0
23.7340 6.6073 -28.5688 0.310 -0.860 0.406 232 211 171 0
24.6746 7.1416 -28.0345 0.329 -0.857 0.397 230 209 170 0
21.3799 8.8766 -27.6251 0.583 -0.758 0.293 233 214 174 0
21.5308 9.1126 -27.4443 0.733 -0.665 -0.140 235 215 174 0
21.7237 9.3622 -27.2462 0.747 -0.650 -0.141 235 213 173 0
20.8854 10.1825 -26.9024 0.951 0.308 -0.015 233 215 175 0
20.5757 10.2645 -26.9152 0.912 0.321 0.254 234 215 175 0
18.1299 9.6484 -27.8154 0.528 0.652 0.543 235 216 176 0
17.8814 10.3221 -27.4413 0.960 -0.221 -0.172 240 218 177 0
17.4816 10.3831 -27.4861 0.269 0.293 0.917 240 218 177 0
14.9921 10.7484 -27.7748 0.421 0.303 0.855 248 226 189 0
14.6278 11.2150 -27.5558 0.880 0.458 -0.127 246 227 187 0
-6.3728 33.4655 -17.8685 0.903 -0.093 -0.420 238 220 180 0
-2.0355 38.2012 -13.9680 0.424 0.400 0.813 235 217 174 0
-9.5957 59.3517 -2.1705 0.971 0.162 -0.176 220 198 148 0
-9.7536 59.5630 -2.0698 0.956 0.189 -0.225 219 197 147 0
4.9389 59.2523 0.8010 0.707 0.700 -0.103 216 195 140 0
-23.1288 72.9779 3.6217 0.976 0.046 0.215 205 178 125 0
-15.5352 73.8085 5.7323 0.980 -0.100 0.170 199 171 120 0
-20.7705 75.1178 5.4673 0.273 0.442 0.855 198 171 120 0
-33.6638 80.4613 6.1549 0.480 0.873 0.089 188 166 109 0
5.8051 77.2763 12.3804 0.980 -0.188 -0.059 160 136 100 0
5.9003 77.4065 12.4827 0.977 -0.193 -0.094 159 134 99 0
5.9388 77.5525 12.5830 0.977 -0.193 -0.094 157 132 97 0
5.9854 77.6959 12.6835 0.974 -0.212 -0.083 105 89 71 0
6.0031 77.8473 12.7829 0.986 -0.140 -0.092 47 46 46 0
6.0334 77.9950 12.8826 0.986 -0.140 -0.092 245 245 245 0
6.0636 78.1425 12.9822 0.986 -0.140 -0.092 253 255 253 0
31.8355 -0.7768 -31.7651 -0.007 0.116 0.993 221 200 161 0
33.7818 1.7244 -29.7716 0.435 0.324 0.840 222 200 161 0
34.1599 2.2441 -29.3629 0.424 -0.327 0.845 224 202 163 0
21.5002 3.9703 -30.9400 0.589 0.111 0.801 230 207 166 0
24.1749 6.6666 -28.6694 0.258 -0.867 0.426 230 212 169 0
24.8353 7.0963 -28.2582 0.234 -0.874 0.426 231 212 171 0
21.2450 8.7249 -27.9845 0.829 -0.542 0.140 232 214 174 0
21.3317 8.9395 -27.8304 0.771 -0.585 0.250 234 215 175 0
21.5611 9.2025 -27.6156 0.701 -0.681 0.213 236 215 176 0
21.4386 9.3446 -27.5515 0.777 -0.625 0.072 236 214 175 0
21.8146 9.6560 -27.2751 0.804 -0.555 0.213 236 214 174 0
22.0052 9.9033 -27.0784 0.985 0.104 -0.137 236 215 175 0
21.9291 10.0604 -26.9950 0.692 0.394 0.605 236 218 176 0
21.1784 10.3600 -26.9637 0.956 0.293 0.026 235 217 175 0
20.6515 10.3705 -27.0681 0.918 0.226 0.327 235 218 176 0
17.0529 9.3800 -28.4539 0.678 0.523 0.517 236 218 177 0
16.8736 9.5124 -28.4080 0.619 0.593 0.515 236 217 176 0
17.2277 9.8174 -28.1402 0.987 -0.142 0.076 238 217 177 0
17.0689 10.1464 -27.9655 0.929 0.319 0.186 240 218 177 0
16.0834 10.0234 -28.2512 0.329 0.100 0.939 241 219 178 0
15.4072 11.3462 -27.5565 0.846 0.532 0.032 249 226 190 0
-2.6428 34.0926 -16.9661 0.556 -0.830 -0.039 238 220 178 0
-2.1140 34.3356 -16.7008 0.546 -0.836 -0.042 237 219 177 0
-2.7713 49.1742 -7.4476 0.754 -0.226 0.617 234 217 170 0
-9.6462 59.4930 -2.3664 0.973 0.121 -0.197 219 197 147 0
-9.6657 59.6886 -2.2467 0.971 0.162 -0.176 219 197 145 0
-20.0445 74.9168 5.2030 0.357 0.543 0.760 196 171 117 0
-6.0089 78.2898 10.2977 0.796 -0.196 -0.572 176 151 110 0
5.7624 77.4162 12.2271 0.979 -0.196 -0.062 159 135 101 0
5.9112 77.5314 12.3314 0.979 -0.187 -0.085 157 133 99 0
5.9488 77.6776 12.4319 0.977 -0.193 -0.094 156 131 97 0
5.9873 77.8233 12.5322 0.977 -0.193 -0.094 103 88 70 0
6.0396 77.9649 12.6328 0.974 -0.212 -0.083 48 46 46 0
6.0396 78.1212 12.7318 0.978 -0.192 -0.077 245 245 245 0
6.0760 78.2669 12.8317 0.978 -0.192 -0.077 253 255 254 0
6.4610 78.4668 13.0394 0.998 -0.058 -0.009 255 255 255 0
32.2109 -0.7061 -31.8586 -0.012 0.145 0.989 221 201 161 0
32.0335 -0.6168 -31.8398 -0.015 0.078 0.997 220 201 161 0
31.8330 -0.5383 -31.8328 -0.013 0.087 0.996 222 200 161 0
34.8986 2.8214 -29.0516 0.445 -0.474 0.760 225 203 163 0
20.3234 3.3940 -31.7935 0.737 -0.117 0.666 230 208 167 0
21.1901 5.8067 -30.0806 0.560 -0.699 0.445 231 213 172 0
21.6931 8.5910 -28.2098 0.426 -0.717 0.551 233 215 174 0
21.9301 8.8575 -27.9904 0.480 -0.719 0.503 234 215 175 0
21.3569 8.8433 -28.1215 0.825 -0.540 0.166 233 214 174 0
21.6171 9.1173 -27.8925 0.699 -0.674 0.240 234 215 175 0
22.0353 9.4443 -27.5963 0.694 -0.671 0.262 235 216 176 0
21.7502 9.7139 -27.4863 0.936 -0.009 -0.352 236 215 176 0
21.9757 9.9730 -27.2741 0.989 0.102 -0.109 235 216 176 0
22.1020 10.1981 -27.1047 0.725 0.610 0.320 236 218 176 0
21.9611 10.3336 -27.0488 0.886 0.408 0.222 236 219 176 0
21.8653 10.4843 -26.9737 0.872 0.436 0.220 236 219 176 0
17.6385 10.0340 -28.1593 0.801 0.483 0.353 238 218 178 0
16.4807 10.0437 -28.3997 0.596 0.599 0.534 241 219 179 0
0.1944 30.4627 -18.9345 0.936 0.258 -0.241 241 226 183 0
1.6590 30.8237 -18.3939 0.972 0.137 -0.193 240 225 182 0
2.7459 31.1388 -17.9628 0.975 0.188 -0.115 239 224 181 0
-2.6653 34.2077 -17.1714 0.569 -0.821 -0.051 236 219 176 0
-5.9065 39.2752 -14.6519 0.614 0.627 0.479 234 217 174 0
-6.1940 39.4673 -14.5914 0.617 0.620 0.485 235 217 175 0
-6.4571 39.6611 -14.5247 0.616 0.624 0.480 234 216 174 0
-2.6081 49.2921 -7.6041 0.754 -0.226 0.617 233 216 171 0
-2.4804 49.4771 -7.4598 0.839 -0.003 0.544 232 214 167 0
-2.5494 49.6699 -7.3523 0.839 -0.003 0.544 231 211 163 0
-2.7949 49.8706 -7.2775 0.827 0.001 0.562 230 210 160 0
-11.0541 65.9779 1.1664 0.897 -0.443 0.004 212 188 133 0
-21.2065 75.7178 5.1735 0.283 0.656 0.700 195 170 119 0
7.0396 75.9364 11.3284 0.337 0.923 0.183 169 148 105 0
5.8300 77.5254 12.0773 0.981 -0.185 -0.063 159 135 101 0
5.9197 77.6571 12.1798 0.978 -0.189 -0.091 158 132 99 0
5.9574 77.8032 12.2805 0.978 -0.189 -0.091 156 130 96 0
5.9974 77.9485 12.3810 0.977 -0.193 -0.094 102 87 69 0
6.1245 78.0686 12.4841 0.892 -0.352 -0.284 47 46 46 0
6.0820 78.2372 12.5819 0.976 -0.204 -0.082 245 245 245 0
6.1113 78.3849 12.6817 0.974 -0.212 -0.082 253 255 253 0
7.2783 78.3556 12.9117 0.999 0.036 0.013 255 255 255 0
33.1443 -1.0595 -32.0997 0.566 0.712 0.415 222 202 166 0
32.5864 -0.6348 -31.9504 0.593 -0.092 0.800 222 202 163 0
32.4773 -0.5127 -31.8965 -0.011 0.138 0.990 221 203 163 0
32.5260 -0.3134 -31.7597 -0.007 0.061 0.998 220 201 161 0
32.3463 -0.2254 -31.7426 -0.012 0.107 0.994 222 200 161 0
21.2127 5.7056 -30.3777 0.364 -0.848 0.385 230 213 169 0
22.2966 6.2981 -29.7689 0.485 -0.746 0.457 228 211 169 0
21.2435 6.8398 -29.6520 0.693 -0.320 -0.646 233 214 172 0
21.8938 7.2623 -29.2443 0.698 -0.295 -0.652 233 214 172 0
22.3214 7.6018 -28.9370 0.783 -0.000 -0.622 233 214 172 0
22.0153 8.9662 -28.1379 0.497 -0.697 0.516 233 214 174 0
22.2359 9.2259 -27.9258 0.495 -0.692 0.526 234 214 174 0
17.7465 9.9634 -28.4241 0.830 0.465 0.308 237 218 178 0
17.6338 10.1166 -28.3512 0.830 0.465 0.308 240 218 179 0
16.4291 10.1126 -28.6129 0.566 0.637 0.524 240 218 179 0
-6.2341 38.7748 -15.3178 0.586 0.383 0.714 235 214 172 0
