ply
format ascii 1.0
element vertex 835
property float x
property float y
property float z
property float nx
property float ny
property float nz
property uchar diffuse_red
property uchar diffuse_green
property uchar diffuse_blue
property uchar class
end_header
62.3581 -33.7547 -12.2048 0.726 0.590 0.353 255 255 255 0
62.2974 -33.6834 -12.2021 0.711 0.588 0.385 255 255 255 0
62.2351 -33.6111 -12.1996 0.716 0.589 0.375 255 255 255 0
62.1734 -33.5388 -12.1969 0.722 0.590 0.361 255 255 255 0
62.1120 -33.4662 -12.1942 0.720 0.587 0.370 255 255 255 0
62.0513 -33.3936 -12.1915 0.720 0.587 0.370 255 255 255 0
61.9989 -33.3238 -12.1884 0.743 0.590 0.317 255 255 255 0
61.9380 -33.2505 -12.1856 0.747 0.588 0.310 255 255 255 0
61.7354 -33.1216 -12.1874 0.747 0.588 0.312 255 255 255 0
61.6762 -33.0480 -12.1844 0.747 0.588 0.312 255 255 255 0
61.6183 -32.9746 -12.1814 0.741 0.589 0.322 255 255 255 0
61.5938 -32.9140 -12.1773 0.742 0.600 0.300 255 255 255 0
61.5313 -32.8382 -12.1744 0.742 0.600 0.300 255 255 255 0
61.4469 -32.7533 -12.1721 0.741 0.597 0.309 255 255 255 0
61.3848 -32.6768 -12.1691 0.745 0.600 0.292 255 255 255 0
61.3203 -32.5991 -12.1661 0.746 0.600 0.289 255 255 255 0
61.2562 -32.5212 -12.1631 0.746 0.601 0.289 255 255 255 0
61.1936 -32.4435 -12.1600 0.752 0.595 0.282 255 255 255 0
61.1306 -32.3653 -12.1569 0.752 0.595 0.282 255 255 255 0
61.0698 -32.2877 -12.1537 0.757 0.599 0.262 255 255 255 0
61.0063 -32.2086 -12.1505 0.758 0.599 0.257 255 255 255 0
60.8108 -31.9670 -12.1410 0.758 0.600 0.257 255 255 255 0
60.7463 -31.8860 -12.1377 0.758 0.598 0.261 255 255 255 0
60.6809 -31.8043 -12.1344 0.756 0.598 0.266 255 255 255 0
60.6184 -31.7234 -12.1310 0.759 0.599 0.254 255 255 255 0
60.5517 -31.6404 -12.1277 0.759 0.599 0.254 255 255 255 0
60.4846 -31.5569 -12.1243 0.759 0.599 0.254 255 255 255 0
60.6010 -31.5514 -12.1157 0.735 0.599 0.317 255 255 255 0
60.5331 -31.4671 -12.1123 0.699 0.590 0.403 255 255 255 0
60.4627 -31.3812 -12.1090 0.682 0.589 0.433 255 255 255 0
60.3799 -31.2897 -12.1060 0.682 0.588 0.435 255 255 255 0
60.3022 -31.1999 -12.1028 0.681 0.588 0.435 255 255 255 0
60.2873 -31.1371 -12.0978 0.748 0.591 0.302 255 255 255 0
60.2885 -31.0812 -12.0923 0.718 0.603 0.347 255 255 255 0
60.1654 -30.9704 -12.0903 0.742 0.596 0.306 255 255 255 0
60.0840 -30.8773 -12.0870 0.754 0.593 0.281 255 255 255 0
60.0035 -30.7843 -12.0837 0.754 0.592 0.285 255 255 255 0
59.9319 -30.6948 -12.0801 0.754 0.592 0.285 255 255 255 0
59.9154 -30.6296 -12.0750 0.794 0.571 0.206 255 255 255 0
59.7609 -30.5021 -12.0735 0.790 0.584 0.187 255 255 255 0
59.7562 -30.4415 -12.0680 0.798 0.572 0.186 255 255 255 0
59.6426 -30.3313 -12.0654 0.780 0.581 0.231 255 255 255 0
59.5926 -30.2496 -12.0610 0.784 0.576 0.231 255 255 255 0
59.3589 -30.0235 -12.0556 0.758 0.566 0.325 255 255 255 0
59.2914 -29.8722 -12.0458 0.762 0.581 0.285 255 255 255 0
59.0691 -29.5862 -12.0338 0.742 0.585 0.328 255 255 255 0
58.9747 -29.4804 -12.0302 0.745 0.583 0.324 255 255 255 0
58.8678 -29.3682 -12.0269 0.753 0.581 0.311 255 255 255 0
58.8156 -29.2814 -12.0222 0.745 0.583 0.324 255 255 255 0
58.6507 -29.1404 -12.0202 0.710 0.547 0.443 255 255 255 0
58.6216 -29.0637 -12.0148 0.727 0.592 0.347 255 255 255 0
58.5362 -28.9596 -12.0108 0.736 0.591 0.329 255 255 255 0
58.5120 -28.8847 -12.0053 0.735 0.575 0.360 255 255 255 0
58.3485 -28.7418 -12.0030 0.707 0.556 0.436 255 255 255 0
58.2360 -28.6230 -11.9994 0.721 0.564 0.403 254 255 255 0
58.2004 -28.5412 -11.9940 0.683 0.566 0.461 254 255 255 0
58.0831 -28.4190 -11.9905 0.693 0.573 0.437 254 255 255 0
57.9832 -28.3047 -11.9864 0.689 0.570 0.448 254 255 255 0
57.8946 -28.1954 -11.9821 0.686 0.569 0.454 254 255 255 0
57.7057 -27.9030 -11.9672 0.733 0.564 0.381 254 255 254 0
57.6183 -27.7924 -11.9627 0.733 0.564 0.381 254 255 254 0
57.3323 -27.5807 -11.9623 0.807 0.510 0.297 254 255 254 0
57.2973 -27.4953 -11.9565 0.796 0.514 0.320 254 255 254 0
57.2385 -27.3974 -11.9512 0.794 0.512 0.327 254 255 255 0
57.1309 -27.2740 -11.9469 0.812 0.500 0.302 255 255 255 0
57.0661 -27.1721 -11.9416 0.812 0.500 0.302 255 255 255 0
56.9680 -27.0524 -11.9370 0.834 0.504 0.224 255 255 255 0
56.8101 -26.9012 -11.9335 0.839 0.524 0.149 255 255 255 0
56.7536 -26.8020 -11.9279 0.851 0.511 0.121 255 255 255 0
56.6405 -26.6728 -11.9234 0.842 0.498 0.210 255 255 255 0
56.5630 -26.5615 -11.9181 0.838 0.502 0.213 255 255 255 0
56.4828 -26.4484 -11.9128 0.834 0.507 0.218 255 255 255 0
56.2625 -26.1166 -11.8963 0.760 0.540 0.362 255 255 255 0
56.1797 -26.0000 -11.8909 0.751 0.551 0.363 254 255 255 0
56.0742 -25.8707 -11.8858 0.744 0.544 0.388 254 255 255 0
55.9811 -25.7474 -11.8805 0.744 0.544 0.388 254 255 255 0
55.8347 -25.5946 -11.8760 0.728 0.549 0.411 254 255 255 0
55.7716 -25.4863 -11.8700 0.737 0.548 0.397 254 255 255 0
55.6760 -25.3598 -11.8645 0.684 0.556 0.472 254 255 255 0
55.5507 -25.2165 -11.8595 0.733 0.555 0.392 255 255 255 0
55.4052 -25.0612 -11.8547 0.681 0.556 0.477 255 255 255 0
55.3019 -24.9285 -11.8492 0.682 0.557 0.475 255 255 255 0
55.0361 -24.6280 -11.8389 0.687 0.554 0.470 255 255 255 0
54.9678 -24.5128 -11.8326 0.689 0.554 0.467 255 255 255 0
54.8264 -24.3559 -11.8274 0.669 0.563 0.485 255 255 255 0
54.7874 -24.2560 -11.8205 0.681 0.561 0.470 255 255 255 0
54.5940 -24.0684 -11.8159 0.726 0.569 0.387 255 255 255 0
54.5020 -23.9372 -11.8098 0.712 0.573 0.407 255 255 255 0
54.3795 -23.7881 -11.8040 0.731 0.568 0.378 255 255 255 0
54.2875 -23.6556 -11.7977 0.727 0.564 0.390 254 255 254 0
54.1439 -23.4929 -11.7921 0.731 0.568 0.378 254 255 254 0
53.8196 -23.2250 -11.7890 0.760 0.577 0.300 254 255 254 0
53.2501 -22.5633 -11.7651 0.747 0.582 0.323 255 255 255 0
53.1076 -22.3956 -11.7589 0.732 0.570 0.372 255 255 255 0
52.9877 -22.2404 -11.7524 0.731 0.570 0.376 255 255 255 0
53.1176 -22.2326 -11.7426 0.740 0.576 0.347 255 255 255 0
52.9859 -22.0694 -11.7361 0.739 0.575 0.352 255 255 255 0
52.8587 -21.9081 -11.7295 0.742 0.579 0.338 255 255 255 0
52.7230 -21.7408 -11.7229 0.741 0.575 0.346 255 255 255 0
52.5864 -21.5721 -11.7162 0.739 0.575 0.351 255 255 255 0
50.6380 -19.2847 -11.6324 0.698 0.526 0.486 254 255 255 0
50.4681 -19.0827 -11.6249 0.709 0.544 0.449 254 255 255 0
50.3537 -18.9149 -11.6167 0.712 0.543 0.445 254 255 255 0
50.2004 -18.7214 -11.6088 0.762 0.529 0.374 254 255 255 0
50.0900 -18.5544 -11.6005 0.734 0.489 0.471 255 255 255 0
49.9654 -18.2801 -11.5828 0.733 0.573 0.366 255 255 255 0
49.8049 -18.0785 -11.5747 0.738 0.572 0.358 255 255 255 0
49.5928 -17.8422 -11.5668 0.705 0.553 0.444 255 255 255 0
49.2631 -17.4278 -11.5500 0.727 0.566 0.390 254 255 255 0
49.0935 -17.2158 -11.5414 0.727 0.566 0.390 254 255 255 0
48.9219 -17.0015 -11.5328 0.727 0.566 0.390 254 255 255 0
47.7138 -15.4640 -11.4694 0.761 0.597 0.256 254 255 255 0
47.3379 -14.9932 -11.4504 0.760 0.598 0.254 254 255 255 0
46.9511 -14.5100 -11.4310 0.760 0.598 0.254 254 255 255 0
41.8520 65.4859 -4.1081 0.926 0.372 0.058 255 255 255 0
62.7962 -34.1549 -12.2593 0.483 0.417 0.770 253 253 251 0
62.6910 -34.0215 -12.2542 0.481 0.416 0.771 253 253 251 0
62.6163 -33.9463 -12.2523 0.490 0.431 0.758 253 253 251 0
62.5552 -33.8757 -12.2500 0.496 0.438 0.750 253 254 252 0
53.5114 -22.5443 -11.8171 0.694 0.589 0.413 254 254 253 0
53.3718 -22.3778 -11.8112 0.700 0.593 0.399 254 254 253 0
53.2484 -22.2200 -11.8050 0.688 0.592 0.419 254 254 253 0
53.0920 -22.0417 -11.7992 0.692 0.592 0.413 254 254 253 0
52.8892 -21.8347 -11.7940 0.680 0.586 0.441 254 254 253 0
52.7739 -21.6792 -11.7874 0.692 0.593 0.412 254 254 254 0
52.5824 -21.4768 -11.7818 0.684 0.588 0.431 254 254 253 0
52.4729 -21.3231 -11.7750 0.708 0.590 0.387 254 254 253 0
52.3715 -21.1735 -11.7680 0.728 0.589 0.351 254 254 253 0
52.2257 -20.9961 -11.7615 0.745 0.577 0.334 254 253 253 0
52.0592 -20.8051 -11.7552 0.724 0.585 0.367 254 254 253 0
51.8639 -20.5953 -11.7492 0.716 0.583 0.384 254 254 253 0
51.7186 -20.4153 -11.7424 0.716 0.584 0.383 254 254 254 0
51.6199 -20.2633 -11.7350 0.734 0.578 0.357 254 254 254 0
51.4687 -20.0778 -11.7281 0.734 0.573 0.365 254 254 254 0
51.3426 -19.9071 -11.7209 0.757 0.598 0.261 254 254 253 0
51.1928 -19.7206 -11.7138 0.757 0.598 0.261 254 254 253 0
50.9865 -19.4975 -11.7073 0.725 0.577 0.377 254 254 254 0
50.8343 -19.3075 -11.7001 0.725 0.578 0.375 254 254 254 0
50.6567 -19.1003 -11.6931 0.726 0.578 0.374 254 254 254 0
50.4870 -18.8970 -11.6858 0.731 0.577 0.364 254 254 254 0
50.3352 -18.7041 -11.6783 0.736 0.575 0.357 254 255 254 0
50.1714 -18.5026 -11.6708 0.735 0.575 0.360 254 255 254 0
50.0427 -18.3225 -11.6629 0.752 0.567 0.336 254 255 254 0
49.9137 -18.1414 -11.6548 0.766 0.556 0.323 254 255 254 0
49.7434 -17.9325 -11.6471 0.764 0.555 0.330 254 255 254 0
49.5320 -17.6958 -11.6397 0.728 0.575 0.375 254 254 254 0
49.3656 -17.4871 -11.6317 0.731 0.573 0.372 254 254 254 0
49.1780 -17.2635 -11.6238 0.716 0.578 0.392 254 254 253 0
49.0120 -17.0529 -11.6156 0.728 0.578 0.368 254 254 254 0
48.8326 -16.8323 -11.6074 0.728 0.578 0.368 254 254 254 0
48.6665 -16.6194 -11.5990 0.729 0.579 0.364 254 254 254 0
48.1350 -15.9517 -11.5734 0.760 0.602 0.247 254 254 254 0
47.9497 -15.7212 -11.5647 0.760 0.602 0.247 254 254 254 0
47.7499 -15.4797 -11.5560 0.759 0.602 0.248 254 254 254 0
47.5708 -15.2510 -11.5470 0.765 0.599 0.237 255 254 254 0
47.3794 -15.0126 -11.5380 0.766 0.599 0.234 255 254 253 0
47.1907 -14.7749 -11.5288 0.766 0.599 0.234 255 254 254 0
47.0070 -14.5393 -11.5195 0.778 0.598 0.194 255 254 254 0
46.8150 -14.2967 -11.5101 0.777 0.596 0.201 254 254 254 0
45.1705 -12.4665 -11.4532 0.779 0.610 0.146 255 254 254 0
44.7349 -11.9224 -11.4326 0.785 0.604 0.139 254 254 253 0
44.3225 -11.3890 -11.4112 0.791 0.606 0.085 254 254 253 0
43.8246 -10.7882 -11.3896 0.779 0.609 0.148 255 254 253 0
43.6031 -10.5052 -11.3785 0.780 0.612 0.131 255 254 254 0
62.9819 -34.5008 -12.3250 0.798 0.593 0.106 82 83 82 0
62.9354 -34.4380 -12.3225 0.801 0.589 0.109 83 84 83 0
62.8812 -34.3721 -12.3203 0.791 0.594 0.149 83 84 83 0
62.8261 -34.3056 -12.3180 0.775 0.610 0.166 83 84 84 0
62.7744 -34.2401 -12.3156 0.770 0.609 0.191 83 84 84 0
62.7205 -34.1735 -12.3133 0.772 0.608 0.186 83 84 84 0
62.5759 -33.9781 -12.3054 0.806 0.581 0.117 82 83 82 0
62.5284 -33.9127 -12.3027 0.806 0.581 0.117 83 84 83 0
62.4806 -33.8468 -12.3000 0.806 0.581 0.117 84 85 84 0
62.2565 -33.5683 -12.2901 0.762 0.605 0.231 84 85 84 0
62.1997 -33.4976 -12.2876 0.762 0.605 0.231 84 85 85 0
62.1412 -33.4259 -12.2851 0.765 0.605 0.221 84 85 85 0
62.0825 -33.3538 -12.2826 0.765 0.605 0.221 84 85 84 0
62.0243 -33.2816 -12.2800 0.765 0.605 0.222 85 85 85 0
61.9661 -33.2091 -12.2774 0.765 0.605 0.222 84 85 85 0
61.9077 -33.1361 -12.2748 0.765 0.605 0.222 84 85 85 0
61.8412 -33.0597 -12.2725 0.741 0.613 0.275 84 85 86 0
61.7796 -32.9848 -12.2699 0.741 0.612 0.276 84 85 86 0
61.7170 -32.9092 -12.2673 0.741 0.612 0.274 85 85 86 0
61.6571 -32.8343 -12.2646 0.744 0.611 0.268 85 85 86 0
61.5976 -32.7593 -12.2619 0.755 0.609 0.242 85 85 87 0
61.5397 -32.6846 -12.2591 0.769 0.602 0.215 85 85 87 0
61.4757 -32.6070 -12.2565 0.777 0.604 0.178 85 85 86 0
61.4091 -32.5280 -12.2539 0.763 0.608 0.219 85 85 86 0
61.3416 -32.4483 -12.2513 0.764 0.609 0.213 84 85 86 0
61.2740 -32.3682 -12.2487 0.765 0.609 0.211 84 84 86 0
61.1988 -32.2846 -12.2463 0.752 0.609 0.254 84 85 86 0
61.1207 -32.1995 -12.2439 0.740 0.615 0.274 85 85 86 0
61.0460 -32.1153 -12.2414 0.751 0.610 0.252 85 85 87 0
59.6416 -30.3263 -12.1753 0.780 0.613 0.126 85 86 85 0
59.5879 -30.2428 -12.1714 0.799 0.599 0.047 85 86 86 0
59.5203 -30.1526 -12.1678 0.802 0.595 0.038 85 86 86 0
59.4511 -30.0612 -12.1642 0.810 0.586 0.007 86 86 86 0
59.3858 -29.9712 -12.1605 0.803 0.595 0.039 87 88 88 0
59.2998 -29.8712 -12.1574 0.763 0.578 0.290 87 88 89 0
59.2269 -29.7768 -12.1538 0.750 0.577 0.324 88 88 89 0
59.1502 -29.6802 -12.1503 0.727 0.577 0.372 87 88 89 0
59.0722 -29.5826 -12.1468 0.729 0.579 0.366 87 88 89 0
58.9921 -29.4834 -12.1433 0.729 0.579 0.366 87 87 89 0
58.9121 -29.3839 -12.1397 0.730 0.578 0.365 87 88 89 0
58.8252 -29.2806 -12.1363 0.735 0.581 0.348 87 88 89 0
58.6651 -29.0791 -12.1290 0.736 0.581 0.348 87 88 88 0
58.5854 -28.9777 -12.1253 0.730 0.582 0.358 87 88 88 0
58.5012 -28.8738 -12.1216 0.732 0.581 0.355 87 88 88 0
58.4174 -28.7695 -12.1179 0.733 0.582 0.353 87 88 88 0
58.3344 -28.6651 -12.1141 0.731 0.582 0.357 88 87 88 0
58.2578 -28.5634 -12.1101 0.749 0.593 0.295 88 88 88 0
58.1718 -28.4566 -12.1063 0.749 0.593 0.295 88 87 88 0
58.0888 -28.3507 -12.1024 0.749 0.577 0.325 88 87 88 0
58.0093 -28.2461 -12.0984 0.746 0.577 0.332 88 87 88 0
57.9276 -28.1398 -12.0943 0.748 0.578 0.325 87 87 88 0
57.8492 -28.0348 -12.0901 0.748 0.578 0.326 88 88 89 0
57.7601 -27.9239 -12.0862 0.746 0.578 0.330 88 88 89 0
57.6735 -27.8137 -12.0821 0.745 0.572 0.343 87 88 89 0
57.5801 -27.6995 -12.0782 0.704 0.547 0.453 87 88 89 0
57.4906 -27.5868 -12.0741 0.703 0.547 0.455 88 89 89 0
57.3989 -27.4723 -12.0700 0.703 0.547 0.455 87 88 88 0
57.3034 -27.3554 -12.0659 0.703 0.549 0.452 87 88 88 0
57.2088 -27.2384 -12.0618 0.703 0.549 0.451 87 88 88 0
57.1229 -27.1253 -12.0574 0.706 0.548 0.448 87 88 88 0
57.0289 -27.0075 -12.0532 0.706 0.548 0.448 87 88 88 0
56.9381 -26.8908 -12.0488 0.706 0.550 0.447 88 88 88 0
56.8486 -26.7742 -12.0443 0.702 0.550 0.453 87 89 88 0
56.7530 -26.6538 -12.0400 0.703 0.550 0.451 87 89 88 0
56.6498 -26.5288 -12.0357 0.701 0.551 0.453 86 88 88 0
56.5524 -26.4063 -12.0313 0.703 0.549 0.452 86 88 88 0
56.4455 -26.2781 -12.0270 0.700 0.550 0.456 86 88 88 0
56.3374 -26.1486 -12.0227 0.690 0.539 0.483 86 88 88 0
56.2349 -26.0216 -12.0182 0.690 0.539 0.483 88 87 88 0
56.1295 -25.8923 -12.0137 0.691 0.539 0.481 88 88 88 0
56.0255 -25.7631 -12.0091 0.691 0.539 0.481 88 88 89 0
55.9207 -25.6328 -12.0044 0.691 0.539 0.481 88 87 88 0
55.8167 -25.5024 -11.9997 0.693 0.540 0.477 88 87 88 0
55.7102 -25.3699 -11.9950 0.693 0.540 0.477 88 87 88 0
55.6027 -25.2363 -11.9903 0.693 0.540 0.477 87 88 89 0
55.4944 -25.1015 -11.9855 0.693 0.540 0.477 87 88 89 0
55.3850 -24.9655 -11.9806 0.693 0.540 0.477 87 88 88 0
55.2747 -24.8282 -11.9757 0.693 0.540 0.477 87 88 88 0
55.1633 -24.6897 -11.9708 0.693 0.540 0.477 87 88 88 0
55.0510 -24.5500 -11.9658 0.693 0.540 0.477 87 88 88 0
54.9376 -24.4090 -11.9608 0.693 0.540 0.477 87 88 88 0
54.8232 -24.2667 -11.9558 0.693 0.540 0.477 87 88 88 0
54.7077 -24.1231 -11.9506 0.693 0.540 0.477 87 88 88 0
54.5912 -23.9781 -11.9455 0.693 0.540 0.477 87 88 88 0
54.4736 -23.8318 -11.9403 0.693 0.540 0.477 87 88 88 0
54.3584 -23.6862 -11.9350 0.696 0.545 0.469 88 88 88 0
53.8787 -23.0853 -11.9133 0.711 0.554 0.433 88 88 88 0
53.7558 -22.9315 -11.9078 0.710 0.554 0.435 88 88 88 0
53.6196 -22.7691 -11.9024 0.712 0.560 0.424 87 88 88 0
53.4859 -22.6073 -11.8969 0.697 0.559 0.449 87 88 88 0
53.2982 -22.4127 -11.8923 0.654 0.560 0.508 88 88 88 0
53.1737 -22.2546 -11.8864 0.662 0.563 0.495 87 88 88 0
53.0229 -22.0800 -11.8810 0.725 0.599 0.342 87 87 88 0
52.8881 -21.9141 -11.8752 0.730 0.600 0.328 87 88 88 0
52.6625 -21.6061 -11.8626 0.787 0.596 0.157 87 87 88 0
52.5363 -21.4429 -11.8564 0.788 0.596 0.154 87 88 88 0
52.4150 -21.2818 -11.8501 0.791 0.577 0.204 87 87 88 0
52.3003 -21.1240 -11.8436 0.795 0.577 0.189 87 88 88 0
52.1849 -20.9650 -11.8371 0.795 0.576 0.190 88 88 88 0
51.8135 -20.4676 -11.8173 0.777 0.593 0.209 89 90 90 0
51.6780 -20.2928 -11.8107 0.739 0.570 0.359 89 90 90 0
51.5325 -20.1110 -11.8042 0.757 0.598 0.261 89 90 90 0
51.3845 -19.9266 -11.7976 0.757 0.598 0.261 89 90 90 0
51.2350 -19.7404 -11.7910 0.757 0.598 0.261 89 90 90 0
51.0874 -19.5543 -11.7842 0.758 0.598 0.260 89 90 90 0
50.9351 -19.3643 -11.7774 0.758 0.598 0.260 89 90 90 0
50.7738 -19.1677 -11.7706 0.759 0.598 0.257 89 90 90 0
50.6107 -18.9688 -11.7638 0.758 0.599 0.259 89 90 90 0
50.4531 -18.7724 -11.7568 0.758 0.599 0.259 88 90 90 0
50.2884 -18.5704 -11.7498 0.756 0.597 0.269 88 90 90 0
50.1272 -18.3697 -11.7426 0.756 0.597 0.269 88 90 90 0
49.9643 -18.1667 -11.7353 0.756 0.597 0.269 88 90 90 0
49.7934 -17.9575 -11.7281 0.755 0.597 0.270 88 90 90 0
49.6163 -17.7431 -11.7208 0.754 0.597 0.274 89 90 90 0
49.4346 -17.5246 -11.7135 0.758 0.598 0.262 89 90 90 0
49.2630 -17.3115 -11.7059 0.758 0.597 0.263 89 90 90 0
49.0869 -17.0944 -11.6983 0.761 0.601 0.243 89 90 90 0
48.9207 -16.8826 -11.6905 0.760 0.598 0.254 89 90 90 0
48.7461 -16.6642 -11.6826 0.760 0.598 0.254 89 90 90 0
48.5634 -16.4391 -11.6747 0.759 0.599 0.255 89 90 90 0
48.3868 -16.2170 -11.6667 0.758 0.600 0.256 89 90 90 0
48.2021 -15.9883 -11.6586 0.759 0.599 0.255 89 90 90 0
48.0116 -15.7543 -11.6504 0.759 0.600 0.252 89 90 90 0
47.8233 -15.5207 -11.6422 0.757 0.599 0.260 89 90 90 0
47.6208 -15.2762 -11.6339 0.761 0.601 0.244 89 90 90 0
47.4265 -15.0359 -11.6254 0.760 0.601 0.248 89 90 90 0
47.2233 -14.7881 -11.6169 0.761 0.603 0.240 89 90 90 0
47.0222 -14.5406 -11.6082 0.763 0.603 0.234 90 90 91 0
46.8251 -14.2944 -11.5994 0.763 0.603 0.234 89 90 91 0
46.6256 -14.0453 -11.5905 0.763 0.603 0.234 89 90 90 0
46.3555 -13.7457 -11.5819 0.710 0.577 0.403 90 90 91 0
46.1207 -13.4691 -11.5730 0.710 0.578 0.402 90 91 91 0
45.8976 -13.1991 -11.5638 0.702 0.577 0.417 90 91 91 0
45.6960 -12.9427 -11.5543 0.735 0.592 0.331 89 90 90 0
45.4622 -12.6622 -11.5450 0.734 0.592 0.333 89 90 90 0
45.2312 -12.3823 -11.5354 0.723 0.572 0.386 89 90 90 0
45.0318 -12.1231 -11.5255 0.747 0.586 0.314 90 91 91 0
44.7980 -11.8382 -11.5157 0.749 0.586 0.309 90 91 91 0
44.5762 -11.5601 -11.5057 0.749 0.586 0.309 90 90 91 0
44.3493 -11.2770 -11.4956 0.748 0.586 0.311 89 90 90 0
44.1072 -10.9813 -11.4854 0.735 0.577 0.355 89 90 90 0
43.8785 -10.6936 -11.4750 0.740 0.580 0.341 89 90 90 0
43.6389 -10.3966 -11.4644 0.737 0.579 0.348 89 90 90 0
43.4020 -10.0997 -11.4537 0.738 0.579 0.347 89 90 90 0
43.1601 -9.7977 -11.4429 0.738 0.579 0.347 89 90 90 0
42.9084 -9.4868 -11.4320 0.735 0.577 0.355 89 90 90 0
42.6561 -9.1737 -11.4209 0.737 0.578 0.352 89 90 90 0
42.4062 -8.8606 -11.4096 0.737 0.578 0.352 89 90 90 0
41.3975 -7.5842 -11.3629 0.745 0.572 0.343 90 91 91 0
-5.1388 50.6385 -9.2707 0.781 0.623 0.046 89 90 90 0
62.9840 -34.5009 -12.3710 0.797 0.598 0.088 111 98 83 0
62.9416 -34.4395 -12.3685 0.801 0.589 0.107 111 98 83 0
62.8880 -34.3738 -12.3663 0.799 0.591 0.116 110 97 82 0
62.8380 -34.3092 -12.3640 0.774 0.611 0.166 111 98 83 0
62.7825 -34.2422 -12.3619 0.776 0.612 0.156 110 97 82 0
62.7319 -34.1768 -12.3596 0.775 0.611 0.158 110 97 82 0
62.6762 -34.1092 -12.3574 0.775 0.612 0.157 111 98 83 0
62.6250 -34.0429 -12.3550 0.776 0.612 0.156 110 98 82 0
62.5736 -33.9763 -12.3527 0.776 0.606 0.175 110 96 81 0
62.5384 -33.9155 -12.3496 0.773 0.599 0.206 110 96 81 0
62.4875 -33.8485 -12.3472 0.773 0.599 0.207 111 97 81 0
62.3292 -33.6437 -12.3399 0.760 0.603 0.242 111 98 81 0
62.2723 -33.5732 -12.3375 0.758 0.604 0.244 111 99 81 0
62.2150 -33.5024 -12.3352 0.758 0.604 0.244 112 99 82 0
62.1581 -33.4313 -12.3328 0.759 0.604 0.244 112 99 82 0
62.0986 -33.3589 -12.3305 0.765 0.605 0.218 111 98 81 0
62.0388 -33.2861 -12.3281 0.768 0.603 0.214 112 98 81 0
61.9828 -33.2144 -12.3256 0.768 0.603 0.216 111 98 81 0
61.9233 -33.1411 -12.3232 0.762 0.606 0.228 111 98 82 0
61.8617 -33.0665 -12.3208 0.745 0.614 0.261 111 98 82 0
61.8003 -32.9918 -12.3184 0.750 0.620 0.232 111 98 83 0
61.7368 -32.9158 -12.3161 0.750 0.620 0.232 112 99 84 0
61.6799 -32.8421 -12.3134 0.742 0.612 0.273 112 99 84 0
61.6168 -32.7656 -12.3110 0.760 0.609 0.228 111 98 83 0
61.5512 -32.6878 -12.3086 0.775 0.605 0.186 110 98 82 0
61.4892 -32.6110 -12.3061 0.777 0.603 0.181 110 98 82 0
61.4223 -32.5320 -12.3037 0.768 0.606 0.210 110 97 82 0
61.3608 -32.4547 -12.3011 0.765 0.610 0.207 109 97 81 0
61.2839 -32.3708 -12.2990 0.780 0.608 0.147 110 97 82 0
61.2215 -32.2925 -12.2963 0.781 0.608 0.142 111 99 83 0
61.1503 -32.2101 -12.2939 0.781 0.609 0.139 111 98 83 0
59.6514 -30.3285 -12.2300 0.783 0.611 0.119 113 100 84 0
59.5834 -30.2385 -12.2267 0.800 0.598 0.039 112 99 84 0
59.5222 -30.1511 -12.2231 0.803 0.595 0.039 111 98 83 0
59.4550 -30.0606 -12.2197 0.803 0.595 0.039 110 98 83 0
59.3824 -29.9672 -12.2164 0.800 0.598 0.041 111 98 83 0
59.3292 -29.8824 -12.2125 0.763 0.578 0.290 111 98 83 0
59.2557 -29.7878 -12.2091 0.760 0.578 0.299 110 98 83 0
59.1883 -29.6955 -12.2055 0.726 0.577 0.373 111 99 83 0
59.1072 -29.5964 -12.2023 0.737 0.582 0.344 111 99 84 0
59.0239 -29.4958 -12.1991 0.737 0.582 0.343 112 99 84 0
58.9421 -29.3954 -12.1959 0.737 0.582 0.343 111 99 83 0
58.8588 -29.2939 -12.1926 0.738 0.583 0.341 111 98 84 0
58.6194 -28.9913 -12.1822 0.732 0.581 0.355 113 100 85 0
58.5393 -28.8894 -12.1787 0.732 0.581 0.357 113 99 85 0
58.4543 -28.7846 -12.1752 0.732 0.581 0.357 112 99 85 0
58.3750 -28.6820 -12.1716 0.733 0.579 0.358 111 98 85 0
58.2832 -28.5729 -12.1682 0.753 0.590 0.292 112 99 86 0
58.2053 -28.4700 -12.1644 0.749 0.593 0.295 111 100 85 0
58.1157 -28.3609 -12.1609 0.760 0.589 0.277 110 99 84 0
58.0356 -28.2560 -12.1571 0.761 0.589 0.272 110 99 84 0
57.9517 -28.1487 -12.1533 0.759 0.587 0.283 110 99 84 0
57.8728 -28.0434 -12.1494 0.758 0.588 0.284 110 100 84 0
57.7861 -27.9337 -12.1456 0.756 0.587 0.290 110 100 84 0
57.7031 -27.8253 -12.1417 0.759 0.586 0.285 110 100 84 0
57.6104 -27.7115 -12.1380 0.751 0.589 0.300 109 100 84 0
57.5200 -27.5983 -12.1342 0.748 0.588 0.309 110 100 85 0
57.4273 -27.4834 -12.1303 0.747 0.589 0.307 110 100 84 0
57.3369 -27.3692 -12.1264 0.749 0.589 0.305 113 100 84 0
57.2415 -27.2518 -12.1226 0.750 0.589 0.302 113 100 84 0
57.1501 -27.1358 -12.1186 0.750 0.590 0.298 112 99 83 0
57.0646 -27.0224 -12.1144 0.747 0.579 0.327 112 99 83 0
56.9786 -26.9082 -12.1101 0.744 0.579 0.333 112 100 83 0
56.8909 -26.7925 -12.1059 0.737 0.581 0.344 111 99 84 0
56.8087 -26.6793 -12.1014 0.703 0.550 0.451 111 99 84 0
56.7102 -26.5568 -12.0973 0.703 0.550 0.451 111 100 85 0
56.6107 -26.4333 -12.0932 0.703 0.550 0.451 112 101 85 0
56.5056 -26.3061 -12.0892 0.706 0.551 0.445 112 101 85 0
56.3799 -26.1674 -12.0856 0.737 0.581 0.346 111 100 85 0
56.2764 -26.0398 -12.0814 0.739 0.582 0.341 111 100 85 0
56.1720 -25.9110 -12.0772 0.738 0.581 0.342 112 101 86 0
56.0684 -25.7821 -12.0729 0.739 0.582 0.340 113 102 87 0
55.9602 -25.6501 -12.0686 0.739 0.581 0.341 112 101 86 0
55.8539 -25.5184 -12.0642 0.740 0.581 0.339 112 101 86 0
55.7523 -25.3886 -12.0597 0.736 0.579 0.351 113 101 87 0
55.6645 -25.2658 -12.0548 0.704 0.552 0.446 114 101 87 0
55.5559 -25.1310 -12.0503 0.704 0.552 0.446 114 101 87 0
55.4487 -24.9963 -12.0457 0.704 0.553 0.446 114 101 87 0
55.3443 -24.8624 -12.0410 0.703 0.553 0.447 114 101 87 0
55.2322 -24.7235 -12.0364 0.703 0.552 0.448 115 102 88 0
55.1195 -24.5837 -12.0318 0.703 0.552 0.448 114 102 87 0
55.0187 -24.4498 -12.0268 0.693 0.546 0.470 114 102 87 0
54.9028 -24.3068 -12.0221 0.693 0.546 0.470 115 102 88 0
54.7858 -24.1625 -12.0173 0.693 0.546 0.470 115 103 88 0
54.6763 -24.0216 -12.0123 0.694 0.544 0.472 115 102 88 0
54.5583 -23.8752 -12.0075 0.694 0.544 0.472 114 102 87 0
54.4340 -23.7245 -12.0027 0.696 0.545 0.469 113 102 87 0
53.8302 -22.9696 -11.9772 0.709 0.555 0.435 115 103 88 0
53.6945 -22.8076 -11.9722 0.710 0.560 0.427 115 103 89 0
53.5845 -22.6599 -11.9666 0.657 0.531 0.535 115 103 88 0
53.4474 -22.4953 -11.9615 0.657 0.531 0.535 116 103 89 0
53.2910 -22.3186 -11.9566 0.698 0.562 0.444 116 104 89 0
53.1535 -22.1521 -11.9513 0.698 0.562 0.444 116 104 89 0
53.0153 -21.9843 -11.9460 0.696 0.561 0.448 116 104 89 0
52.8802 -21.8176 -11.9405 0.704 0.562 0.433 116 104 89 0
52.6812 -21.6115 -11.9360 0.787 0.596 0.157 116 104 89 0
52.5583 -21.4502 -11.9302 0.789 0.596 0.149 116 104 89 0
52.4414 -21.2918 -11.9241 0.791 0.577 0.204 115 103 88 0
52.2083 -20.9731 -11.9118 0.794 0.576 0.192 113 102 88 0
51.8427 -20.4792 -11.8929 0.777 0.593 0.209 113 103 88 0
51.7283 -20.3176 -11.8864 0.738 0.571 0.359 113 104 89 0
51.5761 -20.1316 -11.8804 0.758 0.599 0.259 113 104 89 0
51.4285 -19.9474 -11.8742 0.758 0.599 0.259 113 103 89 0
51.2672 -19.7538 -11.8682 0.758 0.598 0.261 112 103 88 0
51.1140 -19.5643 -11.8619 0.758 0.598 0.260 113 103 89 0
50.9622 -19.3746 -11.8555 0.758 0.598 0.260 113 104 90 0
50.8087 -19.1828 -11.8490 0.758 0.598 0.260 114 104 90 0
50.6488 -18.9860 -11.8426 0.758 0.598 0.260 114 104 90 0
50.4964 -18.7929 -11.8359 0.758 0.599 0.259 114 103 90 0
50.3259 -18.5872 -11.8294 0.754 0.597 0.273 114 103 90 0
50.1616 -18.3844 -11.8227 0.754 0.597 0.274 114 103 90 0
49.9998 -18.1822 -11.8159 0.754 0.597 0.272 114 104 90 0
49.8321 -17.9751 -11.8091 0.754 0.597 0.274 114 104 90 0
49.6650 -17.7672 -11.8022 0.754 0.597 0.274 114 104 90 0
49.4960 -17.5570 -11.7951 0.754 0.597 0.274 114 104 90 0
49.3094 -17.3342 -11.7882 0.758 0.597 0.263 114 105 90 0
49.1358 -17.1187 -11.7811 0.761 0.598 0.252 114 105 90 0
48.9620 -16.9019 -11.7738 0.759 0.599 0.254 114 105 90 0
48.7913 -16.6860 -11.7664 0.760 0.598 0.254 114 105 90 0
48.6093 -16.4615 -11.7590 0.759 0.599 0.255 114 105 90 0
48.4335 -16.2399 -11.7514 0.758 0.600 0.256 115 105 90 0
48.2515 -16.0130 -11.7438 0.758 0.600 0.256 114 105 90 0
48.0579 -15.7770 -11.7362 0.759 0.600 0.252 114 105 90 0
47.8721 -15.5450 -11.7284 0.758 0.600 0.256 114 105 90 0
47.6650 -15.2974 -11.7207 0.761 0.601 0.244 115 106 91 0
47.4706 -15.0570 -11.7128 0.760 0.601 0.246 115 106 91 0
47.2781 -14.8167 -11.7047 0.760 0.601 0.246 115 106 91 0
47.0668 -14.5621 -11.6967 0.762 0.603 0.237 115 106 91 0
46.8689 -14.3154 -11.6884 0.763 0.603 0.234 115 106 92 0
46.6698 -14.0665 -11.6800 0.763 0.603 0.234 116 106 93 0
46.4623 -13.8105 -11.6716 0.703 0.577 0.416 116 106 93 0
46.2436 -13.5452 -11.6631 0.697 0.577 0.425 116 106 93 0
46.0080 -13.2667 -11.6547 0.706 0.577 0.410 116 106 92 0
45.7729 -12.9869 -11.6461 0.735 0.592 0.331 116 107 92 0
45.5613 -12.7222 -11.6371 0.723 0.578 0.379 116 107 92 0
45.3258 -12.4391 -11.6283 0.723 0.572 0.386 116 107 92 0
45.1141 -12.1714 -11.6191 0.740 0.580 0.341 116 107 92 0
44.8923 -11.8950 -11.6098 0.740 0.581 0.339 116 107 92 0
44.6600 -11.6096 -11.6005 0.741 0.581 0.336 116 107 92 0
44.4280 -11.3229 -11.5910 0.749 0.586 0.308 116 107 92 0
44.2068 -11.0423 -11.5813 0.739 0.581 0.341 116 107 92 0
43.9669 -10.7467 -11.5716 0.739 0.582 0.340 116 107 92 0
43.7382 -10.4576 -11.5617 0.738 0.580 0.345 116 107 92 0
43.5000 -10.1600 -11.5517 0.738 0.581 0.343 116 107 92 0
36.9626 -2.0091 -11.2782 0.756 0.586 0.292 116 107 91 0
7.1460 35.3100 -10.0179 0.781 0.623 0.052 114 103 88 0
6.1514 36.5468 -9.9766 0.781 0.622 0.050 113 103 89 0
-2.6888 47.5936 -9.6045 0.781 0.623 0.046 113 104 88 0
-10.7713 57.7118 -9.2627 0.781 0.623 0.052 113 103 86 0
-12.2847 59.6041 -9.1989 0.781 0.623 0.052 113 103 87 0
41.9605 64.6659 -4.7419 0.314 -0.452 0.835 44 43 42 0
55.5020 -24.9454 -12.1040 0.738 0.618 0.272 235 215 178 0
55.4078 -24.8169 -12.0993 0.751 0.620 0.226 238 216 179 0
55.3139 -24.6879 -12.0945 0.743 0.618 0.258 236 216 179 0
55.2213 -24.5590 -12.0896 0.726 0.608 0.321 235 215 178 0
55.0954 -24.4107 -12.0855 0.726 0.608 0.321 235 215 178 0
54.9814 -24.2684 -12.0810 0.721 0.609 0.331 238 217 180 0
54.8411 -24.1105 -12.0771 0.737 0.612 0.288 237 217 181 0
54.7135 -23.9589 -12.0728 0.737 0.612 0.288 235 216 180 0
54.5933 -23.8108 -12.0683 0.755 0.607 0.249 236 217 183 0
54.4694 -23.6598 -12.0638 0.754 0.607 0.250 237 218 184 0
54.3629 -23.5182 -12.0588 0.764 0.616 0.193 236 217 183 0
54.2404 -23.3664 -12.0541 0.777 0.606 0.167 238 218 184 0
54.1225 -23.2167 -12.0492 0.777 0.606 0.167 239 219 184 0
53.8755 -22.9084 -12.0395 0.756 0.604 0.252 239 219 183 0
53.7440 -22.7483 -12.0347 0.724 0.600 0.341 239 218 182 0
53.6128 -22.5876 -12.0299 0.709 0.598 0.374 240 219 183 0
53.4647 -22.4160 -12.0253 0.707 0.600 0.375 240 220 182 0
53.3197 -22.2454 -12.0205 0.714 0.600 0.361 240 220 182 0
53.1717 -22.0721 -12.0158 0.714 0.600 0.360 241 221 183 0
53.0347 -21.9045 -12.0107 0.715 0.601 0.358 241 221 182 0
52.8928 -21.7331 -12.0057 0.714 0.600 0.360 243 223 184 0
52.7330 -21.5499 -12.0009 0.732 0.601 0.321 243 223 184 0
52.5862 -21.3737 -11.9958 0.732 0.601 0.321 244 223 185 0
52.4488 -21.2023 -11.9904 0.740 0.599 0.306 244 223 184 0
52.2814 -21.0116 -11.9855 0.754 0.603 0.261 242 224 184 0
52.1381 -20.8347 -11.9801 0.754 0.603 0.261 242 223 184 0
52.0081 -20.6651 -11.9743 0.745 0.603 0.284 241 223 183 0
51.8609 -20.4840 -11.9688 0.746 0.603 0.284 242 225 185 0
51.7340 -20.3146 -11.9628 0.750 0.594 0.291 243 226 186 0
51.5656 -20.1184 -11.9575 0.756 0.602 0.256 243 226 187 0
51.4120 -19.9305 -11.9518 0.759 0.597 0.260 242 224 187 0
51.2642 -19.7452 -11.9459 0.759 0.597 0.260 241 223 186 0
51.1119 -19.5560 -11.9400 0.756 0.602 0.256 243 224 188 0
50.9602 -19.3664 -11.9340 0.757 0.603 0.253 244 225 189 0
50.7730 -19.1530 -11.9286 0.758 0.603 0.249 245 226 190 0
50.3238 -18.5786 -11.9097 0.752 0.590 0.292 246 227 190 0
50.1736 -18.3848 -11.9032 0.761 0.586 0.279 245 227 189 0
50.0191 -18.1872 -11.8967 0.766 0.576 0.284 245 227 189 0
49.8684 -17.9911 -11.8901 0.757 0.579 0.301 244 226 188 0
49.5361 -17.5755 -11.8770 0.751 0.595 0.285 245 227 188 0
48.8072 -16.6885 -11.8505 0.759 0.597 0.259 245 227 186 0
48.6297 -16.4668 -11.8435 0.759 0.598 0.259 245 227 187 0
48.4413 -16.2368 -11.8366 0.758 0.598 0.259 245 227 188 0
48.2819 -16.0250 -11.8291 0.750 0.602 0.275 246 228 189 0
48.1021 -15.7983 -11.8219 0.747 0.603 0.280 245 228 189 0
33.0931 2.9026 -11.2363 0.765 0.586 0.265 245 229 188 0
4.0969 39.1430 -10.0947 0.782 0.623 0.013 240 222 180 0
-1.5443 46.1837 -9.8735 0.781 0.623 0.047 237 222 181 0
-2.7690 47.7138 -9.8253 0.781 0.623 0.047 237 221 180 0
-5.3965 50.9801 -9.7235 0.781 0.623 0.038 238 222 179 0
-6.7298 52.6483 -9.6708 0.781 0.623 0.038 238 222 179 0
60.0909 -30.8128 -12.3509 0.704 0.541 0.459 225 204 162 0
59.8436 -30.4699 -12.3388 0.636 0.456 0.622 227 205 163 0
59.7770 -30.3811 -12.3358 0.636 0.456 0.622 227 204 163 0
59.7080 -30.2907 -12.3329 0.641 0.464 0.611 227 204 164 0
58.7483 -29.0479 -12.2939 0.505 0.400 0.765 232 211 167 0
54.9497 -24.1674 -12.1427 0.613 0.520 0.595 242 221 183 0
54.3549 -23.5084 -12.1285 0.757 0.605 0.247 242 222 187 0
54.2409 -23.3616 -12.1240 0.773 0.607 0.186 243 223 188 0
54.1034 -23.2003 -12.1199 0.776 0.608 0.166 244 224 187 0
54.0155 -23.0672 -12.1146 0.754 0.605 0.255 244 224 186 0
53.1773 -21.9843 -12.0807 0.580 0.504 0.640 247 225 186 0
53.0135 -21.7999 -12.0765 0.592 0.506 0.627 248 226 187 0
52.8585 -21.6199 -12.0721 0.594 0.504 0.627 247 225 186 0
52.8092 -21.5031 -12.0653 0.435 0.337 0.835 248 226 187 0
52.6641 -21.3275 -12.0605 0.437 0.341 0.832 249 226 187 0
52.5521 -21.1712 -12.0549 0.422 0.327 0.846 247 227 187 0
52.4021 -20.9907 -12.0500 0.419 0.326 0.848 245 226 186 0
52.3315 -20.8583 -12.0435 0.359 0.283 0.889 245 226 186 0
52.0711 -20.6077 -12.0407 0.493 0.389 0.778 246 227 187 0
51.9161 -20.4212 -12.0357 0.493 0.389 0.778 247 228 188 0
51.1840 -19.5947 -12.0168 0.715 0.588 0.378 247 227 188 0
51.0095 -19.3906 -12.0117 0.719 0.599 0.353 248 228 189 0
50.2261 -18.4113 -11.9830 0.762 0.578 0.292 249 228 188 0
50.0662 -18.2102 -11.9770 0.766 0.576 0.284 248 227 188 0
40.9792 -6.8266 -11.6418 0.708 0.555 0.436 249 231 189 0
40.6851 -6.4663 -11.6316 0.710 0.555 0.433 249 231 189 0
40.4058 -6.1151 -11.6212 0.704 0.557 0.441 249 231 189 0
40.0726 -5.7206 -11.6110 0.731 0.580 0.358 250 231 190 0
39.8020 -5.3722 -11.6001 0.705 0.556 0.439 250 231 190 0
39.4622 -4.9683 -11.5896 0.724 0.580 0.374 250 231 190 0
39.1379 -4.5740 -11.5787 0.755 0.585 0.298 250 231 190 0
12.0838 28.8181 -10.6256 0.777 0.627 0.062 241 223 183 0
11.2009 29.9052 -10.5947 0.776 0.628 0.067 241 223 183 0
10.2551 31.5915 -10.5146 0.546 0.409 0.731 242 220 180 0
6.6924 36.0963 -10.3794 0.565 0.421 0.709 240 222 179 0
-1.7681 46.7640 -10.0610 0.539 0.413 0.734 239 222 178 0
-3.1777 48.4846 -10.0131 0.551 0.419 0.722 239 222 178 0
-6.0771 52.0389 -9.9131 0.616 0.473 0.629 240 223 179 0
60.9749 -31.4813 -12.3962 0.406 0.333 0.851 227 206 163 0
60.9239 -31.4038 -12.3933 0.438 0.353 0.827 227 206 163 0
60.9984 -31.3811 -12.3855 0.560 0.349 0.751 227 206 163 0
60.9426 -31.3011 -12.3827 0.559 0.348 0.752 227 206 163 0
59.4358 -29.4994 -12.3389 0.394 0.290 0.872 229 208 166 0
59.3597 -29.4015 -12.3361 0.398 0.280 0.873 229 210 165 0
59.2772 -29.3001 -12.3334 0.397 0.284 0.873 229 211 165 0
59.1998 -29.2007 -12.3305 0.397 0.284 0.873 230 212 165 0
59.1144 -29.0969 -12.3279 0.412 0.309 0.857 231 213 166 0
58.9407 -28.9494 -12.3282 0.342 0.248 0.906 231 213 167 0
58.8159 -28.8252 -12.3268 0.345 0.237 0.908 232 213 168 0
58.7186 -28.7137 -12.3244 0.350 0.259 0.900 233 212 168 0
58.6019 -28.5921 -12.3226 0.378 0.276 0.884 233 211 168 0
58.6000 -28.5269 -12.3170 0.404 0.294 0.866 233 210 169 0
58.4802 -28.4027 -12.3152 0.403 0.312 0.860 233 210 169 0
58.4038 -28.2996 -12.3119 0.418 0.318 0.851 234 212 170 0
58.2755 -28.1699 -12.3103 0.465 0.377 0.801 233 212 168 0
58.1580 -28.0450 -12.3083 0.467 0.383 0.797 233 212 167 0
58.0418 -27.9201 -12.3061 0.473 0.389 0.791 233 212 167 0
57.9607 -27.8124 -12.3028 0.486 0.409 0.773 233 212 167 0
55.4445 -24.8282 -12.2318 0.759 0.624 0.185 247 225 184 0
52.6741 -21.4150 -12.1423 0.743 0.599 0.298 249 225 187 0
52.6613 -21.1438 -12.1192 0.419 0.326 0.848 248 226 189 0
52.5077 -20.9607 -12.1148 0.415 0.324 0.850 247 226 189 0
52.2810 -20.7314 -12.1119 0.493 0.389 0.778 247 227 190 0
52.1279 -20.5465 -12.1073 0.493 0.389 0.778 247 227 190 0
51.6667 -20.1683 -12.1093 0.758 0.604 0.248 248 228 190 0
51.3585 -19.7909 -12.0995 0.751 0.595 0.286 248 229 189 0
51.1058 -19.3507 -12.0799 0.593 0.523 0.612 247 228 188 0
50.7889 -19.0541 -12.0780 0.713 0.595 0.371 248 228 188 0
50.6123 -18.8456 -12.0731 0.713 0.595 0.371 250 228 189 0
50.4229 -18.6277 -12.0684 0.749 0.578 0.324 250 228 189 0
50.2841 -18.4414 -12.0625 0.751 0.579 0.318 250 228 189 0
50.1221 -18.2390 -12.0570 0.770 0.573 0.280 250 228 189 0
40.8117 -6.5498 -11.7368 0.703 0.553 0.448 251 232 189 0
40.5258 -6.1938 -11.7272 0.703 0.553 0.448 250 231 188 0
40.1797 -5.7896 -11.7180 0.731 0.580 0.358 250 231 188 0
39.8584 -5.4021 -11.7084 0.729 0.580 0.362 250 231 188 0
39.5806 -5.0461 -11.6982 0.724 0.580 0.374 249 230 187 0
39.2704 -4.6630 -11.6881 0.733 0.574 0.364 249 230 187 0
38.9406 -4.2623 -11.6779 0.734 0.575 0.361 249 230 187 0
26.3028 11.8495 -11.2214 0.560 0.439 0.703 244 227 184 0
16.0013 23.7258 -10.9611 0.779 0.625 -0.045 241 224 181 0
18.0934 24.4258 -10.7369 0.045 -0.001 0.999 243 221 179 0
-16.7773 6.9577 -15.1890 0.098 0.006 0.995 229 209 168 0
-16.0531 7.2502 -15.1063 0.082 0.033 0.996 229 211 167 0
55.0385 -24.2082 -12.2765 0.624 0.522 0.582 248 226 187 0
54.8421 -24.0176 -12.2752 0.644 0.527 0.554 247 227 188 0
54.7311 -23.8749 -12.2714 0.638 0.523 0.566 247 226 188 0
54.3954 -23.6020 -12.2739 0.632 0.558 0.538 248 227 189 0
45.1031 -14.3092 -12.1884 0.341 0.388 0.856 249 231 189 0
44.5476 -13.8271 -12.1897 0.348 0.391 0.852 250 232 191 0
44.0348 -13.3704 -12.1899 0.348 0.391 0.852 251 233 191 0
43.6749 -13.0134 -12.1869 0.346 0.369 0.862 251 232 191 0
43.1171 -12.5210 -12.1875 0.388 0.395 0.833 251 232 191 0
14.4349 60.1862 -8.0544 -0.180 -0.979 0.098 220 198 142 0
26.2413 77.1451 -5.6347 0.941 0.318 0.119 198 169 112 0
36.4225 69.7549 -5.4830 0.837 0.227 -0.497 181 157 111 0
36.2722 70.5187 -5.4277 0.832 0.227 -0.507 181 157 111 0
42.2659 65.2266 -5.4211 0.985 -0.166 -0.054 254 255 255 0
-29.9994 20.2624 -15.2904 -0.052 -0.098 0.994 236 218 178 0
53.5109 -22.9222 -12.3557 0.660 0.554 0.508 251 229 190 0
10.3642 50.7065 -9.4211 0.636 -0.454 -0.624 232 212 163 0
10.4661 51.2538 -9.3655 0.392 -0.741 -0.546 233 212 160 0
10.8776 51.0950 -9.3464 0.458 -0.716 -0.526 233 212 159 0
10.8377 55.6050 -8.9584 0.969 -0.145 0.199 229 208 154 0
20.3196 51.4467 -8.5606 0.761 -0.505 0.407 220 199 142 0
16.1263 58.6420 -8.2720 -0.017 -0.981 -0.195 217 194 142 0
26.6916 75.9296 -5.9274 0.950 0.297 0.096 196 167 113 0
26.2289 77.2622 -5.8489 0.941 0.318 0.119 194 164 111 0
36.1662 70.3953 -5.6495 0.789 0.199 -0.581 180 156 110 0
38.9133 68.0116 -5.6365 0.863 -0.359 -0.355 174 150 106 0
39.1556 67.9200 -5.6251 0.990 -0.092 -0.102 173 148 105 0
42.2500 64.9261 -5.6372 0.861 -0.465 -0.207 244 244 243 0
-4.8167 -10.8074 -16.1324 0.947 -0.309 0.089 222 201 165 0
6.3821 -6.0857 -14.8181 -0.019 -0.004 1.000 228 207 165 0
-16.8462 7.4384 -15.5490 -0.001 0.033 0.999 231 212 167 0
-14.7851 13.9357 -14.8255 -0.182 -0.421 0.889 247 228 188 0
9.8240 50.7297 -9.6765 0.583 -0.245 -0.775 234 214 166 0
10.2868 50.5149 -9.6573 0.678 -0.233 -0.697 235 215 166 0
10.6280 51.1099 -9.5786 0.936 -0.152 -0.319 232 212 160 0
11.0356 51.2905 -9.5300 0.700 -0.589 -0.404 230 210 157 0
6.6331 57.3171 -9.3722 0.486 0.322 0.812 230 211 155 0
39.8211 61.8954 -6.2826 -0.150 -0.822 -0.550 180 157 109 0
35.8406 70.7368 -5.8496 0.880 0.266 -0.394 179 156 108 0
35.8595 71.1442 -5.8132 0.791 0.202 -0.578 179 156 110 0
39.2534 67.3629 -5.8609 0.570 -0.654 -0.498 173 150 107 0
42.2528 65.0174 -5.8178 0.841 -0.484 -0.243 245 245 244 0
42.2138 65.5425 -5.7760 0.997 -0.033 -0.065 254 255 255 0
-30.9520 1.5135 -17.4127 0.857 0.239 0.457 226 202 162 0
-23.5200 15.8414 -15.5895 0.876 0.199 0.439 238 217 176 0
10.1613 51.0477 -9.8361 0.540 -0.672 -0.507 234 214 165 0
10.3353 52.5268 -9.6969 0.665 0.424 0.616 230 211 156 0
15.5844 62.5163 -8.4202 0.184 -0.908 0.377 216 195 140 0
16.3343 61.8204 -8.4170 0.042 -0.515 0.856 216 195 139 0
42.2546 65.1112 -5.9986 0.841 -0.484 -0.243 245 245 243 0
-23.2645 15.7195 -15.7954 0.811 0.289 0.509 238 220 179 0
2.9734 63.7646 -9.5949 0.407 0.215 0.888 230 208 158 0
11.4797 54.9603 -9.6143 0.483 -0.616 -0.622 230 209 154 0
11.1816 55.6878 -9.5787 0.489 -0.536 -0.688 228 207 153 0
11.5594 55.5612 -9.5576 0.430 -0.531 -0.730 228 207 154 0
11.5335 55.9469 -9.5276 0.455 -0.572 -0.683 228 207 154 0
13.0255 55.0920 -9.4737 -0.278 -0.483 0.830 227 206 151 0
8.9284 63.3686 -9.1283 0.331 -0.880 -0.342 226 204 151 0
15.1427 59.4559 -8.9328 0.322 -0.764 -0.559 220 199 146 0
15.5945 59.1983 -8.9163 0.032 -0.850 -0.525 218 197 144 0
18.1518 60.3878 -8.6028 0.414 0.240 0.878 215 194 140 0
34.7629 74.1346 -6.0650 0.519 -0.130 -0.845 176 152 108 0
36.2221 73.2902 -6.0129 0.639 0.042 -0.768 171 148 104 0
42.2564 65.2051 -6.1798 0.841 -0.484 -0.243 245 245 243 0
-11.9541 0.3166 -16.3133 0.968 0.008 -0.252 230 208 167 0
-14.2777 3.5380 -16.2468 0.280 -0.657 -0.700 233 213 171 0
-23.5791 16.8727 -15.9445 0.554 -0.832 -0.042 240 221 178 0
-23.3647 17.0022 -15.9156 0.563 -0.826 -0.029 241 222 179 0
-22.8978 16.9947 -15.8765 0.604 -0.752 0.264 242 223 181 0
-19.6455 16.4298 -15.6458 0.626 -0.714 0.314 248 231 188 0
15.7288 45.1365 -10.2762 0.752 -0.622 -0.219 232 214 162 0
11.4026 54.7623 -9.8546 0.345 -0.587 -0.732 227 208 153 0
10.9868 55.6367 -9.8182 0.467 -0.504 -0.726 229 209 154 0
10.7450 56.2957 -9.7847 0.510 -0.450 -0.733 229 208 155 0
11.3029 55.9424 -9.7662 0.454 -0.560 -0.693 230 209 156 0
12.8153 56.1255 -9.6224 0.716 -0.256 -0.650 227 205 154 0
10.9325 58.9327 -9.5523 0.091 -0.783 0.615 227 204 155 0
9.1721 62.7280 -9.3907 0.577 -0.755 -0.313 224 201 150 0
16.0244 62.3965 -8.8343 0.278 -0.912 0.301 227 205 154 0
25.7875 73.9573 -7.0537 -0.018 -0.966 0.258 198 168 118 0
38.8205 65.1267 -6.6683 0.774 0.187 -0.605 179 152 109 0
36.2036 73.4321 -6.2095 0.597 -0.045 -0.801 172 146 103 0
42.2628 65.2887 -6.3618 0.846 -0.486 -0.219 245 245 243 0
-21.7302 16.1346 -16.0632 0.313 -0.367 0.876 241 222 179 0
31.7209 21.8971 -10.9744 0.789 0.557 0.260 234 216 173 0
15.5564 45.3908 -10.4712 0.844 -0.536 0.040 232 214 163 0
11.0585 55.9543 -10.0054 0.566 -0.441 -0.696 229 208 155 0
11.0046 56.3771 -9.9759 0.457 -0.578 -0.676 230 209 156 0
12.5194 56.2104 -9.8584 0.689 -0.256 -0.678 230 208 158 0
12.6985 56.3337 -9.8329 0.716 -0.256 -0.650 229 207 158 0
12.8493 56.4935 -9.8069 0.745 -0.233 -0.625 230 206 158 0
15.3570 53.5715 -9.8265 -0.081 -0.996 0.033 231 207 159 0
15.7402 53.4153 -9.8060 0.251 -0.950 0.183 231 208 158 0
9.1568 62.8095 -9.6152 0.577 -0.755 -0.313 229 206 156 0
8.9031 63.5258 -9.5792 0.499 -0.858 -0.118 233 209 161 0
9.1384 63.5951 -9.5532 0.344 -0.824 -0.451 234 212 163 0
16.1972 58.4846 -9.3563 0.256 -0.965 -0.056 234 213 159 0
16.6614 58.2039 -9.3389 0.240 -0.929 -0.282 234 213 160 0
38.5537 67.0851 -6.7269 0.831 0.261 -0.491 174 150 105 0
36.9167 71.5214 -6.5095 0.329 -0.548 -0.769 173 147 104 0
-12.5113 0.1839 -16.7419 0.705 -0.321 -0.632 230 208 168 0
-22.2760 4.8301 -17.2286 -0.241 -0.894 -0.378 232 210 169 0
-21.9023 15.7582 -16.3242 0.281 -0.355 0.892 240 221 179 0
-21.8839 15.9894 -16.3041 0.310 -0.333 0.891 241 222 179 0
-21.3792 15.9589 -16.2623 0.313 -0.367 0.876 241 222 179 0
-22.9162 17.0324 -16.3116 0.609 -0.759 0.232 245 226 184 0
18.7714 40.0764 -10.8143 0.758 0.535 0.373 236 215 170 0
15.5033 45.1866 -10.6936 0.776 -0.622 0.103 237 217 170 0
15.3455 45.6918 -10.6671 0.826 -0.560 -0.068 234 216 167 0
11.0636 56.0033 -10.2206 0.449 -0.538 -0.713 238 217 166 0
9.9227 58.8966 -10.0900 0.642 -0.457 -0.616 238 216 167 0
10.0717 59.0696 -10.0632 0.642 -0.457 -0.616 240 218 169 0
10.4272 58.9754 -10.0395 0.091 -0.864 -0.495 240 218 169 0
10.6158 59.0962 -10.0133 0.033 -0.977 -0.213 238 216 167 0
10.7438 59.2956 -9.9861 0.046 -0.969 -0.244 240 216 168 0
15.7273 53.1425 -10.0394 0.019 -0.999 0.029 241 217 169 0
9.1840 62.8349 -9.8408 0.652 -0.592 -0.474 239 216 166 0
8.5983 63.9922 -9.7999 0.457 -0.708 -0.538 239 216 167 0
9.0403 63.7879 -9.7774 0.442 -0.714 -0.543 239 217 168 0
8.8834 64.3813 -9.7438 0.386 -0.818 -0.427 239 217 168 0
12.5647 60.9439 -9.6948 -0.140 -0.871 -0.470 236 214 163 0
20.9881 67.1539 -8.4601 0.081 -0.486 0.870 208 183 127 0
13.5819 93.4676 -7.0117 0.953 0.265 -0.147 199 173 119 0
17.7546 88.4134 -7.0484 0.496 -0.796 -0.349 193 169 115 0
29.0806 80.6657 -6.6721 0.353 -0.589 -0.727 181 156 109 0
37.3509 72.0396 -6.6341 0.882 -0.269 -0.388 172 146 103 0
42.2692 65.4710 -6.7262 0.842 -0.494 -0.217 245 245 243 0
42.3815 65.6519 -6.7019 0.842 -0.494 -0.217 254 255 255 0
0.2823 -11.1981 -16.6821 0.783 0.421 0.458 223 205 162 0
-22.9350 15.8392 -16.6256 0.953 -0.226 -0.202 241 221 179 0
-21.6633 15.4035 -16.5466 0.750 -0.416 0.515 240 223 181 0
-21.0221 15.3005 -16.4975 0.576 -0.243 0.781 242 222 182 0
-20.8236 15.6728 -16.4506 0.362 -0.358 0.861 241 222 181 0
-23.3687 17.2914 -16.5501 0.415 -0.782 0.464 245 225 185 0
-1.1267 68.2926 -10.5606 0.929 0.145 -0.340 242 221 174 0
11.0191 56.4704 -10.4077 0.441 -0.570 -0.693 241 221 169 0
9.9466 59.2891 -10.2817 0.635 -0.457 -0.623 238 217 169 0
10.7135 59.3938 -10.2052 0.216 -0.884 -0.414 238 216 169 0
8.6534 63.5984 -10.0583 0.550 -0.714 -0.433 237 215 166 0
8.4534 64.2469 -10.0251 0.571 -0.781 -0.253 238 216 167 0
8.7894 64.1846 -10.0001 0.481 -0.826 -0.293 238 216 167 0
8.8097 64.5428 -9.9701 0.037 -0.997 -0.068 238 216 167 0
9.3017 64.2692 -9.9478 0.018 -0.999 -0.036 238 216 166 0
22.9321 66.4923 -8.5588 -0.018 -0.993 0.114 205 179 122 0
22.0490 68.7706 -8.4584 0.157 -0.946 -0.285 205 178 122 0
22.2304 68.8829 -8.4335 0.062 -0.927 -0.371 204 178 122 0
22.5862 69.1180 -8.3833 0.432 -0.725 -0.535 204 178 121 0
19.1235 86.4910 -7.3265 0.457 -0.806 -0.377 192 166 116 0
33.6129 69.2871 -7.3877 0.268 -0.793 -0.547 181 157 108 0
28.3138 82.3382 -6.8341 0.446 -0.300 -0.843 180 156 109 0
37.4365 71.9524 -6.8376 0.874 -0.231 -0.428 170 146 103 0
-18.3313 3.9533 -17.3471 0.348 -0.852 -0.390 232 210 168 0
-49.9247 18.5123 -19.0757 0.925 -0.277 0.260 230 209 166 0
-49.7698 18.7133 -19.0461 0.928 -0.266 0.261 229 208 165 0
-21.3315 15.2398 -16.7445 0.720 -0.479 0.502 241 224 182 0
-20.6606 15.1203 -16.6931 0.580 -0.161 0.799 240 222 182 0
-20.6802 15.3695 -16.6756 0.608 -0.447 0.656 241 222 183 0
-20.6411 15.5878 -16.6551 0.618 -0.435 0.655 244 224 185 0
-23.3414 17.5369 -16.7483 0.326 -0.780 0.534 249 230 190 0
14.6761 47.5584 -10.9877 0.684 0.449 0.574 243 222 176 0
11.6120 51.9609 -10.9238 0.733 0.507 0.454 242 221 177 0
0.8393 65.5406 -10.8462 0.937 -0.022 -0.347 242 221 176 0
-2.1614 70.8421 -10.7070 -0.527 -0.687 0.500 241 220 171 0
9.9960 58.9179 -10.5313 0.509 -0.636 -0.579 239 216 170 0
10.5783 59.6291 -10.4236 0.186 -0.848 -0.497 238 215 169 0
7.7954 65.1837 -10.2451 0.787 -0.420 0.452 237 215 167 0
7.9071 65.4237 -10.2164 0.787 -0.420 0.452 237 215 167 0
22.0885 64.7338 -8.9880 -0.051 -0.686 0.726 208 183 128 0
22.2074 64.9398 -8.9613 0.072 -0.310 0.948 207 183 128 0
19.2228 85.4322 -7.6446 0.395 -0.761 -0.515 191 170 113 0
19.6904 86.0326 -7.5558 0.476 -0.737 -0.480 193 167 118 0
30.3626 66.7142 -8.0868 0.864 0.014 0.503 193 167 118 0
31.0623 66.6589 -8.0278 0.930 0.164 -0.328 190 163 114 0
32.3852 70.5212 -7.6092 0.349 -0.755 -0.554 181 158 105 0
34.0807 67.5789 -7.6837 0.497 -0.638 -0.588 181 158 105 0
36.9747 71.6951 -7.1035 0.513 -0.380 -0.770 170 146 102 0
37.0320 72.0265 -7.0727 0.434 -0.456 -0.777 170 146 102 0
37.4244 72.0806 -7.0330 0.879 -0.223 -0.422 170 146 103 0
42.1343 63.3765 -7.2811 0.997 0.054 -0.059 162 138 92 0
-22.7438 6.3539 -17.7664 0.989 -0.014 -0.144 232 211 168 0
-50.1109 19.4209 -19.2794 0.307 -0.853 0.423 235 213 172 0
-11.6335 4.5865 -16.8824 0.705 -0.408 -0.580 236 216 174 0
-23.8050 17.5557 -17.0095 0.845 -0.023 0.534 249 230 190 0
-3.2034 42.9442 -13.1846 0.673 0.047 0.738 240 222 182 0
-2.8919 43.2722 -13.1310 0.496 0.007 0.868 241 223 183 0
40.5364 9.7075 -11.7082 0.848 0.525 0.076 238 220 177 0
20.1956 53.8612 -10.2066 -0.071 -0.846 -0.528 228 210 160 0
20.5187 53.7572 -10.1849 -0.094 -0.877 -0.471 230 208 161 0
33.5946 52.5437 -9.0784 0.973 -0.122 -0.195 205 175 124 0
19.0461 85.8526 -7.8726 0.429 -0.761 -0.486 190 168 111 0
30.8404 67.1607 -8.2164 0.942 0.157 -0.296 190 163 114 0
34.3957 64.9360 -8.0601 0.497 -0.533 -0.684 183 159 107 0
32.0100 70.9184 -7.8227 0.331 -0.797 -0.506 181 157 104 0
32.3626 70.6583 -7.8102 0.349 -0.755 -0.554 181 157 104 0
34.9662 72.9232 -7.3987 0.344 -0.806 0.483 173 150 102 0
37.3884 68.2174 -7.5354 0.708 -0.036 -0.705 172 150 101 0
-22.0998 6.0736 -17.9340 0.950 -0.083 -0.301 233 212 169 0
-22.1912 6.3318 -17.9231 0.927 -0.112 -0.358 234 213 170 0
-49.3825 18.8299 -19.5135 -0.098 -0.938 0.333 234 212 171 0
-33.1354 15.8972 -18.2227 0.883 -0.324 0.339 235 218 175 0
-33.0648 16.1132 -18.1999 0.883 -0.324 0.339 235 218 175 0
-38.3467 19.4859 -18.4379 0.052 -0.202 0.978 237 218 176 0
-25.8969 16.4627 -17.5071 0.247 -0.961 0.124 241 222 182 0
-20.0658 15.3042 -17.0518 0.296 -0.851 0.433 248 229 191 0
-18.9700 15.1865 -16.9587 0.958 0.280 0.068 249 230 190 0
4.1427 28.4765 -13.8114 0.037 -0.796 -0.604 243 228 185 0
3.9523 28.8995 -13.7973 -0.013 -0.865 -0.501 244 226 186 0
4.3804 29.0605 -13.7454 0.013 -0.842 -0.539 244 225 185 0
4.5018 29.2198 -13.7222 0.667 -0.679 -0.307 244 225 185 0
4.2783 29.6758 -13.7087 0.089 -0.838 -0.539 245 226 186 0
-15.5487 49.0416 -14.0986 0.356 -0.928 -0.111 244 226 186 0
-16.2476 49.9941 -14.0921 0.648 -0.761 -0.045 244 226 188 0
10.9967 31.0423 -12.9813 0.638 -0.767 -0.066 238 222 180 0
30.0170 73.1571 -8.0504 0.866 0.115 0.487 185 159 110 0
27.4111 86.0059 -7.3280 0.548 -0.233 -0.803 175 151 105 0
3.1921 -12.8569 -17.1534 0.276 0.123 0.953 225 207 170 0
-23.0618 6.5124 -18.1977 0.915 -0.056 -0.400 233 211 170 0
-36.8157 18.4793 -18.6103 0.094 -0.150 0.984 237 220 177 0
-37.5192 19.0882 -18.6316 0.164 -0.213 0.963 238 221 178 0
-25.8943 16.9680 -17.6920 0.483 -0.838 0.254 242 222 183 0
-21.4520 15.1041 -17.4109 0.595 -0.788 0.158 241 225 182 0
-20.9602 15.0813 -17.3662 0.801 -0.459 0.386 241 227 184 0
-20.4346 15.0389 -17.3197 0.658 -0.472 0.587 243 226 186 0
-20.1838 15.1427 -17.2884 0.296 -0.851 0.433 247 229 191 0
-19.9869 15.2751 -17.2601 0.286 -0.861 0.421 248 230 192 0
-9.9267 36.8159 -14.7192 0.094 -0.955 0.282 244 230 185 0
3.5851 28.4515 -14.0632 -0.068 -0.828 -0.557 242 227 184 0
3.9263 28.6875 -14.0136 0.199 -0.821 -0.535 242 227 184 0
4.3961 29.3391 -13.9211 0.643 -0.706 -0.296 244 225 185 0
-16.8873 49.9234 -14.4069 0.518 -0.725 -0.454 243 225 186 0
-17.1453 50.8273 -14.3644 0.698 -0.691 -0.187 243 225 187 0
-14.1562 48.8422 -14.2292 0.709 -0.473 -0.523 243 223 188 0
-14.0038 49.0386 -14.2003 0.709 -0.473 -0.523 243 224 189 0
11.1695 30.9104 -13.1662 0.924 -0.375 0.073 236 221 179 0
19.8323 83.6463 -8.4515 0.931 0.315 -0.184 191 169 111 0
