ply
format ascii 1.0
element vertex 821
property float x
property float y
property float z
property float nx
property float ny
property float nz
property uchar diffuse_red
property uchar diffuse_green
property uchar diffuse_blue
property uchar class
end_header
44.4979 79.3455 -46.9684 0.950 -0.267 -0.165 169 153 138 0
44.8017 80.3254 -47.0328 0.816 -0.477 -0.327 50 50 50 0
44.9807 80.4235 -46.9913 0.422 -0.795 -0.435 247 247 245 0
-14.1812 -7.3165 -51.7510 -0.179 -0.977 -0.115 231 220 212 0
-39.5951 15.3226 -63.7827 0.933 -0.139 -0.333 238 231 229 0
-12.1887 21.6711 -55.9533 0.328 -0.883 0.336 233 227 225 0
-12.0120 39.3634 -58.8553 0.903 -0.084 -0.421 197 192 199 0
-11.3088 39.4203 -58.6366 0.946 -0.195 -0.257 195 190 200 0
-11.1867 39.6474 -58.6350 0.945 -0.322 -0.051 194 191 198 0
-11.2942 40.0759 -58.7416 0.829 -0.447 -0.336 190 187 194 0
-6.2650 41.5844 -57.3623 0.242 -0.712 0.659 159 149 157 0
-6.1630 41.8281 -57.3700 0.968 -0.251 -0.002 159 149 157 0
-6.0589 42.0704 -57.3767 0.912 -0.384 -0.141 160 150 158 0
-5.2055 44.3551 -57.4820 0.295 -0.414 -0.861 180 170 178 0
3.1586 37.4413 -53.6120 0.679 -0.592 0.433 183 178 175 0
5.4521 35.4739 -52.5389 0.805 0.207 0.556 184 178 172 0
9.8310 33.2159 -50.7406 0.358 -0.934 0.002 187 173 105 0
9.9759 33.3735 -50.7199 0.583 -0.813 0.006 199 185 93 0
9.8636 33.7969 -50.8271 0.677 -0.559 0.478 205 193 88 0
11.1845 33.0401 -50.2720 0.640 -0.630 0.440 215 204 84 0
11.2241 33.3047 -50.3034 0.566 -0.728 0.387 218 209 81 0
8.3940 36.9025 -51.8234 0.966 0.018 0.256 222 215 74 0
15.0072 36.3571 -49.5867 0.277 -0.896 0.347 238 236 74 0
14.4397 37.6504 -49.9871 0.848 -0.179 0.499 236 234 72 0
14.6592 37.7211 -49.9277 0.770 -0.257 0.584 237 235 73 0
14.7841 37.9011 -49.9173 0.782 -0.257 0.568 237 235 74 0
14.9784 38.0004 -49.8709 -0.207 -0.932 0.297 237 235 75 0
16.0254 38.0743 -49.5436 0.504 -0.840 0.201 237 231 80 0
15.9578 38.4811 -49.6335 0.460 -0.883 0.098 236 231 77 0
16.3646 38.3245 -49.4754 0.699 -0.705 -0.122 235 230 76 0
15.4040 39.8013 -50.0340 0.755 -0.402 -0.518 234 229 73 0
15.6183 39.8774 -49.9772 0.768 -0.429 -0.476 233 228 72 0
15.5492 40.2945 -50.0694 0.763 -0.396 -0.512 231 226 72 0
15.7739 40.3582 -50.0072 0.901 -0.304 -0.310 231 226 70 0
20.4805 42.9187 -48.9085 0.659 -0.751 -0.037 174 162 54 0
20.6387 43.0559 -48.8801 0.661 -0.743 0.107 172 160 58 0
20.8456 43.4777 -48.8836 0.447 -0.879 0.166 159 152 65 0
21.0301 43.5795 -48.8407 0.447 -0.879 0.166 149 148 66 0
21.2717 43.6034 -48.7664 0.490 -0.841 0.230 117 129 57 0
24.4421 64.2340 -51.1886 0.173 -0.969 0.177 185 187 182 0
33.5144 74.2351 -49.9182 0.030 -0.971 -0.236 185 176 163 0
43.3477 53.5992 -43.2763 0.968 0.224 -0.112 186 176 166 0
30.6912 85.1277 -52.6561 -0.137 -0.844 0.519 182 172 166 0
30.8497 85.3489 -52.6416 -0.158 -0.857 0.490 183 172 167 0
35.4161 79.7580 -50.2250 0.894 0.132 -0.428 180 170 159 0
35.0410 81.2453 -50.5955 0.886 0.130 -0.444 179 169 158 0
43.7713 75.5122 -46.8042 0.764 -0.644 -0.043 170 158 144 0
43.8960 75.7537 -46.8041 0.701 -0.711 -0.059 170 158 144 0
44.3163 75.7562 -46.6682 0.646 -0.681 -0.344 170 157 144 0
43.9866 78.4999 -47.2341 0.666 -0.084 -0.741 170 156 143 0
43.8668 80.7001 -47.6410 -0.100 -0.824 -0.557 168 154 140 0
44.4941 79.4945 -47.2358 0.949 -0.266 -0.170 169 153 140 0
44.7032 80.1288 -47.2741 -0.006 -0.880 -0.475 107 99 92 0
44.9696 80.5981 -47.2661 0.402 -0.810 -0.427 247 247 245 0
-15.9402 -6.8323 -52.6123 -0.191 -0.979 -0.076 231 221 212 0
-14.1635 -7.3229 -51.9505 -0.191 -0.978 -0.078 231 221 212 0
-16.9710 36.9120 -60.3269 -0.023 -0.857 0.514 218 212 212 0
-18.3099 38.3124 -60.9995 0.088 -0.971 0.221 217 211 212 0
-17.9809 38.3800 -60.9036 0.050 -0.979 0.200 216 210 214 0
-7.9435 33.0492 -56.7331 0.442 -0.897 0.026 206 202 207 0
-8.1622 33.5425 -56.8876 0.247 -0.965 0.088 204 202 206 0
-11.4045 39.5333 -58.9548 0.510 -0.816 -0.272 196 193 200 0
-11.3279 40.1356 -59.0315 0.954 -0.298 0.039 196 193 199 0
-6.4645 42.1460 -57.7856 0.938 -0.171 -0.301 184 174 182 0
-7.0664 43.4038 -58.1939 0.852 0.248 -0.461 184 174 181 0
8.2593 33.6210 -51.5490 0.563 -0.442 0.699 191 186 174 0
8.4384 36.8915 -52.0422 0.979 0.004 0.204 223 215 73 0
14.5907 37.5160 -50.1425 0.827 -0.284 0.485 238 235 75 0
14.8583 37.5307 -50.0577 0.792 -0.224 0.568 239 236 77 0
14.9419 37.7579 -50.0688 0.778 -0.258 0.573 239 237 80 0
16.6731 37.0262 -49.3812 0.892 -0.452 -0.009 238 232 84 0
16.0808 38.0495 -49.7468 0.571 -0.815 -0.095 239 233 84 0
16.2616 38.1614 -49.7068 0.568 -0.817 -0.104 237 231 82 0
16.3227 38.4157 -49.7298 0.749 -0.613 -0.252 237 231 81 0
15.5195 40.0385 -50.2653 0.955 -0.191 -0.227 235 228 77 0
15.7193 40.4671 -50.2724 0.901 -0.304 -0.310 232 224 69 0
17.2207 39.3096 -49.5879 0.972 0.099 0.212 228 222 64 0
20.8727 41.7540 -48.8100 0.833 -0.355 0.423 183 169 48 0
20.7594 42.2488 -48.9304 0.377 -0.923 -0.077 179 167 51 0
20.8894 43.4679 -49.0936 0.620 -0.785 -0.005 161 154 64 0
21.0991 43.5356 -49.0367 0.604 -0.794 0.071 153 152 68 0
15.5938 61.0587 -53.7866 0.937 -0.346 0.036 91 130 111 0
15.8227 64.1777 -54.2381 0.876 -0.067 0.477 178 190 190 0
24.1684 65.2487 -51.6989 0.060 -0.998 -0.012 186 188 182 0
30.9729 85.1805 -52.8432 -0.121 -0.833 0.540 182 171 165 0
51.4257 44.3718 -39.2940 0.558 -0.045 -0.829 177 164 156 0
44.9700 80.7387 -47.5322 0.402 -0.810 -0.427 247 247 245 0
45.1438 80.8538 -47.4950 0.436 -0.785 -0.439 254 255 255 0
-14.2636 -7.2838 -52.1964 -0.191 -0.978 -0.078 231 221 212 0
-11.3896 34.3557 -58.3378 0.511 -0.848 0.140 210 205 209 0
-8.3225 33.3913 -57.1696 0.532 -0.846 -0.038 207 205 210 0
-8.5484 33.8921 -57.3288 0.430 -0.902 -0.030 205 203 208 0
-7.9636 33.7145 -57.1071 0.490 -0.872 0.009 203 201 206 0
-8.6761 34.6283 -57.4958 0.158 -0.956 -0.248 204 200 205 0
-11.5088 40.3244 -59.3920 0.527 -0.746 -0.406 198 196 201 0
-10.8932 40.4558 -59.2128 0.947 -0.279 0.159 198 195 201 0
-8.9756 39.0922 -58.3531 0.889 -0.118 -0.443 197 194 200 0
-2.0435 34.8086 -55.3550 0.726 -0.503 0.469 194 190 199 0
-4.7391 39.5504 -57.0440 0.654 0.295 0.697 192 186 193 0
-4.5763 39.7306 -57.0214 0.587 0.202 0.784 192 186 193 0
-6.1791 41.5702 -57.8590 0.772 -0.591 -0.234 192 185 192 0
-6.5767 42.2855 -58.1108 0.943 -0.158 -0.292 192 186 193 0
8.3414 33.2635 -51.6922 0.929 -0.157 0.336 192 192 181 0
9.3963 33.4209 -51.3736 -0.255 -0.956 0.143 186 175 122 0
10.6160 33.0859 -50.9173 0.451 -0.469 0.760 213 201 97 0
17.5348 31.7170 -48.4193 0.725 -0.439 -0.530 237 233 73 0
17.5393 32.0135 -48.4683 0.525 -0.491 -0.695 237 233 74 0
15.2704 36.4523 -49.9661 0.497 -0.857 0.139 242 237 79 0
14.7218 37.4044 -50.3077 0.815 -0.324 0.481 241 236 80 0
15.1048 37.2852 -50.1620 0.736 -0.336 0.587 242 238 83 0
15.7645 36.8427 -49.8707 0.815 -0.536 0.220 242 239 86 0
16.5128 37.2554 -49.6959 0.879 -0.477 0.013 241 235 89 0
16.1906 37.9604 -49.9213 0.547 -0.835 -0.056 241 235 89 0
16.2241 38.2470 -49.9591 0.590 -0.798 -0.119 240 234 87 0
15.5246 40.4096 -50.5559 0.955 -0.191 -0.227 235 228 76 0
10.7488 48.7140 -53.5320 0.047 -0.391 0.919 221 215 57 0
20.9268 40.7057 -48.8377 0.918 -0.392 0.058 194 184 51 0
20.9561 41.3484 -48.9374 0.892 -0.301 0.338 186 175 47 0
21.0282 41.5956 -48.9558 0.817 -0.469 0.336 183 171 49 0
20.7763 42.2743 -49.1537 0.377 -0.923 -0.077 179 168 51 0
20.7040 43.4160 -49.3716 0.603 -0.748 -0.279 170 160 61 0
20.8787 43.5317 -49.3341 0.599 -0.765 -0.238 163 156 64 0
21.1633 43.4982 -49.2352 0.595 -0.803 0.041 157 153 66 0
20.2426 46.9127 -50.1174 0.848 0.389 0.361 52 114 58 0
22.1525 45.6975 -49.2854 0.250 -0.320 0.914 48 112 62 0
21.3955 47.1314 -49.7771 0.942 -0.251 -0.224 46 114 63 0
19.9509 49.5523 -50.6618 0.384 -0.296 0.874 45 113 65 0
15.6741 61.0036 -54.0098 0.937 -0.348 0.038 94 131 114 0
13.3910 69.3786 -56.1817 0.934 0.323 0.154 173 186 186 0
24.3791 64.4993 -51.7544 0.077 -0.970 0.230 186 188 183 0
24.2407 65.1996 -51.9188 0.031 -0.998 -0.056 187 189 183 0
29.3387 70.4085 -51.1357 0.651 0.395 0.648 190 186 177 0
34.0635 63.7162 -48.4506 0.758 0.072 -0.648 188 182 174 0
34.7038 67.7045 -48.9193 0.771 0.099 -0.629 186 179 171 0
33.3655 71.6218 -50.0237 0.595 -0.572 0.565 185 176 167 0
31.0370 85.1494 -53.0869 -0.201 -0.875 0.440 181 170 163 0
44.5189 80.3242 -47.8523 -0.068 -0.877 -0.475 165 150 138 0
44.6891 80.4509 -47.8182 0.032 -0.892 -0.451 106 98 91 0
44.9559 80.9229 -47.8111 0.429 -0.787 -0.443 247 247 245 0
45.1434 80.9978 -47.7624 0.429 -0.787 -0.443 254 255 255 0
-18.0832 38.8490 -61.5712 0.480 -0.553 -0.681 214 210 213 0
-8.1653 33.5979 -57.4088 0.490 -0.872 0.009 206 204 209 0
-7.9991 33.7708 -57.3838 0.212 -0.970 0.120 203 202 205 0
-8.6942 34.6704 -57.7667 0.124 -0.968 -0.216 202 200 204 0
-11.9668 40.7564 -59.8868 0.513 -0.777 -0.364 199 196 203 0
-9.6044 39.6804 -58.9253 0.974 -0.100 -0.203 197 194 201 0
-8.6875 39.1981 -58.5410 0.890 -0.253 -0.379 197 195 202 0
-6.4743 38.2044 -57.6427 0.687 -0.613 -0.391 197 194 201 0
-6.2581 38.3371 -57.5944 0.716 -0.585 -0.382 196 193 200 0
-6.2173 38.6287 -57.6309 0.719 -0.570 -0.397 195 192 199 0
-5.5936 38.3899 -57.3849 0.551 -0.821 -0.147 195 192 199 0
-5.1522 38.3145 -57.2268 0.673 -0.695 -0.252 195 193 199 0
0.6302 36.4711 -55.0089 0.816 -0.429 -0.388 195 191 197 0
5.7741 35.5668 -53.1621 0.625 -0.771 0.120 194 194 185 0
13.2527 32.1851 -50.1226 0.063 -0.971 0.229 228 222 78 0
17.4399 31.8588 -48.6896 0.611 -0.499 -0.615 238 234 74 0
17.1553 32.4803 -48.8897 0.580 -0.589 -0.563 238 234 75 0
14.8392 37.3085 -50.4795 0.831 -0.318 0.457 243 238 85 0
15.7008 36.6352 -50.0807 0.822 -0.528 0.211 243 238 88 0
15.8813 36.7466 -50.0404 0.787 -0.570 0.236 242 239 90 0
15.7839 37.1816 -50.1470 0.850 -0.507 -0.142 243 240 92 0
16.6537 38.4307 -50.0752 0.765 -0.563 -0.312 239 234 84 0
15.9138 39.9826 -50.5847 0.836 -0.546 0.064 235 229 76 0
11.7310 48.6429 -53.4455 0.255 -0.258 0.932 221 212 57 0
15.7061 47.2235 -51.8948 0.987 0.134 -0.083 196 187 50 0
20.7932 42.2998 -49.3773 0.377 -0.923 -0.077 180 169 50 0
20.8433 43.6290 -49.5888 0.611 -0.741 -0.277 164 157 63 0
20.7919 46.5668 -50.1095 0.858 0.119 0.500 52 113 61 0
20.2386 48.4494 -50.6144 0.921 0.165 0.353 47 114 63 0
19.6654 51.9328 -51.4003 0.779 0.100 0.619 73 125 92 0
14.9596 61.7077 -54.6243 0.940 -0.330 0.081 92 132 114 0
15.2921 61.6400 -54.5034 0.959 0.281 -0.029 99 135 120 0
13.9184 67.7113 -55.9963 0.936 0.143 0.322 175 188 188 0
13.6797 68.5398 -56.2169 0.925 0.304 0.229 172 186 186 0
22.9040 65.7812 -52.7102 0.968 -0.168 -0.186 186 187 182 0
22.8716 66.2980 -52.8094 0.980 -0.166 -0.107 186 188 183 0
24.5062 64.3534 -51.9383 0.333 -0.942 -0.053 186 188 182 0
24.2590 65.2456 -52.1727 -0.062 -0.998 -0.007 187 189 182 0
17.8231 78.1321 -56.4993 0.449 -0.374 -0.811 190 191 183 0
22.3413 81.2620 -55.5501 0.680 0.473 0.560 199 188 183 0
25.4788 75.6335 -53.5530 0.835 0.454 0.311 198 188 181 0
33.6486 64.1839 -48.9025 0.763 -0.013 -0.646 192 184 176 0
34.1037 69.6034 -49.6823 0.510 -0.106 0.854 183 177 166 0
50.2843 44.4475 -40.0466 0.664 0.028 -0.747 175 165 155 0
44.2358 80.6674 -48.2475 -0.008 -0.866 -0.500 164 150 136 0
44.5266 80.4414 -48.1131 -0.012 -0.878 -0.478 164 150 137 0
44.6912 80.5853 -48.0837 0.032 -0.892 -0.451 106 97 91 0
44.9651 81.0381 -48.0712 0.320 -0.804 -0.502 247 247 245 0
45.1279 81.1875 -48.0433 0.478 -0.767 -0.428 254 255 255 0
-8.0646 33.5399 -57.6213 0.279 -0.952 0.128 206 204 207 0
-7.7975 33.6280 -57.5483 0.279 -0.952 0.128 205 205 206 0
-8.1292 34.5355 -57.8148 0.446 -0.895 0.010 205 204 206 0
-12.1601 40.9565 -60.2567 0.555 -0.741 -0.377 199 196 205 0
-11.7177 41.2462 -60.1607 0.961 -0.270 0.058 199 196 204 0
-2.9078 35.3358 -56.2282 0.824 -0.498 -0.271 197 195 200 0
-7.6500 40.9700 -58.7691 0.965 0.216 -0.149 195 194 202 0
-4.4551 39.6821 -57.4909 0.548 -0.804 -0.232 195 194 201 0
-2.8974 41.2148 -57.2413 0.890 0.116 0.441 194 194 196 0
5.6413 35.7336 -53.4726 0.113 -0.987 -0.116 195 195 187 0
17.0871 32.5930 -49.1483 0.603 -0.583 -0.545 241 237 78 0
17.8440 32.6529 -48.9086 0.760 -0.640 -0.114 242 239 83 0
15.0608 36.7709 -50.5401 0.965 0.258 -0.041 243 240 86 0
15.6166 36.7719 -50.3567 0.785 -0.616 -0.071 244 241 95 0
16.0483 36.5919 -50.1829 0.811 -0.519 0.270 242 241 97 0
15.6906 37.3304 -50.4288 0.866 -0.492 -0.088 243 241 98 0
15.8956 37.4143 -50.3756 0.805 -0.583 -0.107 243 242 100 0
16.0085 37.6061 -50.3715 0.803 -0.566 -0.187 243 242 100 0
16.0801 37.8468 -50.3894 0.820 -0.548 -0.165 244 243 101 0
17.1312 38.2266 -50.1078 0.949 -0.186 -0.255 238 235 82 0
18.5002 38.5300 -49.7080 0.986 -0.086 0.142 228 222 64 0
11.2530 48.1846 -53.7716 0.649 -0.586 0.485 223 217 60 0
20.6157 42.2375 -49.6502 0.463 -0.881 -0.098 185 175 50 0
20.7397 42.4192 -49.6407 0.401 -0.915 -0.041 182 171 52 0
21.3914 42.5889 -49.4547 0.419 -0.898 0.132 171 161 58 0
20.8377 43.6861 -49.8274 0.619 -0.738 -0.269 166 159 63 0
15.0789 61.1676 -54.7526 0.997 0.057 0.045 89 129 111 0
14.9834 61.7375 -54.8827 0.942 -0.220 0.254 92 132 114 0
15.2416 61.7809 -54.8049 0.959 0.281 -0.029 114 150 135 0
15.0043 62.5682 -55.0194 0.959 0.281 -0.029 146 177 164 0
14.7635 63.3655 -55.2368 0.960 0.276 -0.041 168 193 184 0
14.0810 67.0761 -56.1039 0.944 0.313 -0.105 174 187 185 0
13.8964 67.8167 -56.2929 0.952 0.098 0.289 172 187 186 0
13.9933 68.1234 -56.3140 0.924 0.268 0.273 171 187 186 0
47.9430 49.8044 -41.9306 0.665 0.028 -0.746 175 165 154 0
47.4910 53.6184 -42.7394 0.446 -0.122 -0.887 172 162 153 0
44.5048 80.6460 -48.3993 -0.035 -0.878 -0.478 163 148 135 0
44.6823 80.7530 -48.3592 0.054 -0.883 -0.467 105 97 91 0
44.9581 81.2020 -48.3457 0.308 -0.810 -0.499 247 247 245 0
45.1458 81.2775 -48.2967 0.467 -0.776 -0.424 254 255 255 0
-42.1646 3.7314 -63.9969 0.618 -0.719 -0.318 231 222 213 0
-11.5526 30.2324 -58.4580 0.579 -0.548 0.603 224 220 221 0
-11.4181 30.4307 -58.4479 0.540 -0.590 0.600 223 220 221 0
-8.2440 33.4044 -57.9130 0.422 -0.901 -0.098 207 205 209 0
-6.5103 32.5720 -57.1925 0.158 -0.937 0.311 206 206 206 0
-8.0204 34.1557 -57.9697 0.247 -0.956 0.160 206 206 207 0
-8.6326 34.9894 -58.3183 0.327 -0.907 -0.264 206 206 208 0
-8.2903 35.0160 -58.2093 0.531 -0.691 -0.490 205 204 207 0
-12.0770 40.9141 -60.4941 0.535 -0.755 -0.378 199 196 205 0
-12.7886 41.8810 -60.8988 0.316 -0.831 -0.457 199 196 205 0
-9.7810 40.2339 -59.6136 0.209 -0.815 0.541 199 198 205 0
-8.7604 39.6573 -59.1744 0.998 -0.019 -0.067 199 198 203 0
-3.1535 35.5879 -56.6043 0.848 -0.401 -0.347 198 196 202 0
-5.5772 38.1090 -57.8481 0.574 -0.688 -0.444 198 196 202 0
-5.6325 38.4874 -57.9324 0.664 -0.634 -0.396 198 197 203 0
-7.5317 41.5718 -59.1004 0.994 0.033 -0.103 197 195 205 0
-7.2592 41.6593 -59.0252 0.903 -0.008 -0.430 195 195 203 0
6.7168 32.5263 -52.7951 0.849 -0.510 -0.138 195 195 196 0
4.6437 35.4961 -54.0008 0.336 -0.680 -0.652 195 195 196 0
5.5268 35.5654 -53.7198 0.647 -0.735 0.202 196 195 190 0
18.1087 31.7831 -48.8851 0.824 -0.265 -0.501 243 238 81 0
17.9757 32.2359 -49.0081 0.748 -0.392 -0.536 242 238 81 0
17.6777 33.1852 -49.2725 0.835 -0.524 -0.169 241 239 84 0
14.5521 37.0717 -50.9873 0.975 0.211 0.074 243 240 86 0
15.0690 36.8004 -50.7685 0.966 0.257 -0.025 243 241 89 0
15.4120 37.0483 -50.6979 0.981 -0.182 -0.061 245 242 99 0
16.0039 37.6518 -50.6066 0.796 -0.582 -0.164 244 244 109 0
15.2557 39.5229 -51.1811 0.336 -0.685 0.646 244 244 103 0
11.3001 48.1741 -54.0019 0.669 -0.599 0.439 224 218 62 0
15.8667 46.3877 -52.1751 0.906 -0.270 -0.327 202 195 45 0
20.6794 42.2009 -49.8481 0.445 -0.891 -0.094 185 175 50 0
20.8715 42.2918 -49.8002 0.445 -0.891 -0.094 182 172 51 0
21.4892 41.8134 -49.5118 0.747 -0.662 -0.055 178 167 51 0
21.6772 41.9067 -49.4657 0.855 -0.502 0.133 176 164 54 0
21.6008 42.3556 -49.5693 0.467 -0.876 0.121 172 161 57 0
20.8403 43.7322 -50.0616 0.538 -0.787 -0.301 167 159 63 0
18.4301 51.8828 -52.2823 0.303 -0.588 0.750 53 120 76 0
18.3329 52.4098 -52.4064 0.305 -0.513 0.802 57 120 80 0
17.1467 56.1086 -53.4449 0.912 0.366 -0.186 78 122 96 0
15.4133 61.1612 -54.9009 0.970 0.242 -0.017 100 136 121 0
15.2324 61.8603 -55.0828 0.973 0.230 -0.025 133 167 153 0
15.1739 62.3794 -55.1927 0.992 0.113 -0.063 156 187 176 0
15.1610 62.8323 -55.2760 0.968 -0.071 -0.239 169 195 186 0
15.2268 63.1680 -55.3126 0.990 0.137 0.027 172 192 190 0
15.5882 64.3727 -55.4027 0.949 0.310 -0.058 173 186 185 0
37.0099 48.6038 -45.5449 0.676 -0.128 0.726 198 190 183 0
26.5426 70.7202 -52.8740 0.788 0.399 0.468 194 189 178 0
26.0267 72.2094 -53.3048 0.770 0.387 0.507 194 192 180 0
24.6640 79.0162 -54.9436 0.905 0.365 0.218 193 183 176 0
41.2532 47.1139 -43.8770 0.705 -0.660 0.260 192 183 178 0
44.9723 60.0076 -44.8905 0.445 -0.123 -0.887 171 160 152 0
39.6700 77.2131 -49.6494 0.390 -0.217 -0.895 169 155 148 0
43.5827 72.0415 -47.4495 0.578 -0.070 -0.813 168 155 147 0
44.2205 80.9928 -48.7983 0.001 -0.860 -0.510 160 147 133 0
44.5029 80.7926 -48.6696 -0.016 -0.867 -0.498 162 147 134 0
44.6903 80.8708 -48.6211 0.096 -0.871 -0.481 104 96 89 0
44.8610 80.9977 -48.5865 0.236 -0.821 -0.520 50 50 49 0
44.9684 81.3144 -48.6061 0.311 -0.811 -0.495 247 247 245 0
45.1282 81.4745 -48.5810 0.465 -0.769 -0.439 254 255 255 0
-9.4270 39.9491 -59.7136 0.135 -0.875 0.464 200 199 207 0
-4.8187 38.1026 -57.8529 0.176 -0.648 0.741 198 197 204 0
-7.5958 42.0055 -59.4645 0.915 0.034 -0.402 197 196 204 0
-7.4406 42.8913 -59.5685 0.908 -0.021 -0.419 197 194 201 0
-5.6743 41.5681 -58.7471 -0.151 -0.856 -0.494 197 194 201 0
-4.6357 40.9236 -58.2877 0.019 -0.768 -0.640 197 195 201 0
-2.1861 39.2595 -57.1787 0.071 -0.693 -0.717 197 195 200 0
9.0078 29.7260 -51.7718 0.779 -0.579 -0.242 195 195 196 0
3.5939 35.2968 -54.5555 0.386 -0.500 -0.776 196 196 196 0
5.6298 35.4957 -53.9118 0.506 -0.809 0.300 196 197 190 0
5.8207 35.6204 -53.8701 0.309 -0.842 -0.441 196 197 187 0
17.9181 32.0341 -49.2073 0.818 -0.278 -0.503 241 238 78 0
18.1079 32.4265 -49.2130 0.729 -0.652 -0.210 242 240 85 0
17.6701 33.2311 -49.5003 0.849 -0.503 -0.163 242 241 88 0
15.4543 37.0388 -50.9081 0.741 -0.636 -0.216 246 245 107 0
15.1609 38.0289 -51.1799 0.938 0.277 0.210 246 246 114 0
14.9340 39.2821 -51.4757 0.677 -0.482 0.557 248 247 119 0
15.1232 39.3898 -51.4316 0.669 -0.525 0.526 249 247 117 0
15.3717 39.4266 -51.3552 0.324 -0.683 0.655 249 246 114 0
11.5096 47.9619 -54.1427 0.630 -0.636 0.446 225 219 63 0
13.9686 46.3368 -53.0374 0.801 -0.507 -0.318 219 209 60 0
15.8267 46.8514 -52.5084 0.998 -0.068 0.001 199 193 46 0
21.5112 41.8321 -49.7314 0.768 -0.638 -0.048 178 168 50 0
21.5826 42.0820 -49.7515 0.789 -0.611 -0.058 176 165 52 0
21.6466 42.3427 -49.7761 0.765 -0.642 -0.053 172 160 56 0
15.4365 61.1917 -55.1586 0.921 0.361 -0.143 129 161 146 0
15.1957 61.9809 -55.3776 0.970 0.242 -0.007 158 190 177 0
15.1431 62.4919 -55.4849 0.994 0.107 -0.028 165 194 184 0
15.0850 63.0138 -55.5960 0.924 -0.101 -0.369 170 194 187 0
15.3109 63.1076 -55.5372 0.991 0.131 0.015 173 192 190 0
14.4634 67.5340 -56.5976 0.802 0.323 0.502 171 186 186 0
27.1133 69.2244 -52.6779 0.775 0.399 0.490 196 189 179 0
26.7337 70.4418 -53.0184 0.774 0.393 0.497 195 190 179 0
29.5088 66.5294 -51.4058 0.883 0.424 0.201 195 188 181 0
28.5894 68.8054 -52.1122 0.878 0.425 0.220 196 187 181 0
26.1783 75.0534 -54.0140 0.894 0.395 0.211 192 184 177 0
30.8426 71.2322 -51.7877 0.692 -0.036 -0.721 189 178 172 0
31.4605 74.5865 -52.1711 0.625 -0.058 -0.778 185 176 169 0
32.0492 73.8413 -51.8440 0.615 -0.034 -0.788 182 175 166 0
44.5415 79.5631 -48.6853 0.912 -0.316 -0.263 160 146 133 0
44.2215 81.1305 -49.0674 0.063 -0.811 -0.581 159 146 131 0
44.4700 81.0309 -48.9670 -0.026 -0.860 -0.509 159 145 130 0
44.6779 81.0494 -48.9010 0.224 -0.804 -0.551 101 93 85 0
44.8507 81.1712 -48.8648 0.236 -0.821 -0.520 50 50 50 0
44.9824 81.4160 -48.8639 0.165 -0.870 -0.464 247 247 245 0
-20.6617 28.7982 -61.7672 0.688 -0.695 -0.210 232 224 222 0
-17.1534 34.9401 -61.6806 0.284 -0.843 0.456 224 217 217 0
-10.6347 36.0955 -59.7026 -0.245 -0.947 -0.206 205 205 209 0
-7.1152 37.5908 -58.7890 0.028 -0.931 0.364 202 200 211 0
-6.5868 37.4463 -58.5865 0.049 -0.936 0.349 202 201 209 0
-8.9325 40.2087 -59.8613 0.998 -0.038 -0.055 200 199 205 0
-5.9198 38.1538 -58.4885 0.972 -0.181 -0.152 201 200 205 0
-5.6771 38.5904 -58.4846 0.544 -0.741 -0.393 201 200 206 0
-4.6297 37.9605 -58.0223 0.176 -0.648 0.741 199 198 204 0
-4.1046 37.8049 -57.8189 0.478 -0.849 0.225 198 198 206 0
-3.9664 38.0041 -57.8079 0.375 -0.901 0.216 197 197 205 0
-5.6043 41.5355 -58.9820 -0.115 -0.809 -0.577 197 196 201 0
-4.7120 41.0295 -58.5936 -0.016 -0.794 -0.608 198 197 201 0
-3.5605 40.6069 -58.1331 0.122 -0.768 -0.629 199 197 202 0
6.0328 34.8113 -53.8942 0.517 -0.550 0.656 196 196 194 0
8.3852 33.3828 -52.8535 0.608 -0.668 -0.429 195 197 182 0
17.9673 32.6230 -49.5105 0.603 -0.771 0.203 242 238 85 0
15.3416 37.8582 -51.3171 0.944 0.253 0.211 251 249 124 0
15.0388 39.1997 -51.6561 0.574 -0.154 0.804 252 250 129 0
15.3004 39.2213 -51.5724 0.701 -0.511 0.497 251 250 126 0
15.4946 39.3220 -51.5252 0.324 -0.683 0.655 248 247 122 0
17.7101 38.6374 -50.6621 0.438 -0.854 -0.282 233 229 77 0
8.5505 52.8373 -56.2446 0.913 -0.328 0.242 220 211 59 0
8.9853 52.6749 -56.0703 0.972 -0.237 -0.005 218 208 59 0
15.5599 46.1596 -52.7146 0.919 -0.285 -0.273 207 200 51 0
15.6967 46.3442 -52.7015 0.843 -0.490 -0.220 205 198 50 0
15.8148 46.9164 -52.7634 0.906 -0.399 -0.141 201 194 46 0
20.9865 43.2817 -50.3878 0.689 -0.545 -0.477 173 162 57 0
21.7850 42.5525 -49.9912 0.605 -0.790 -0.101 169 158 59 0
19.7709 51.2360 -52.2040 0.995 -0.071 0.076 73 120 90 0
15.0436 62.7080 -55.8192 0.986 0.095 -0.138 170 195 187 0
15.6334 62.6853 -55.6177 0.789 -0.256 -0.559 173 191 191 0
16.1741 63.6071 -55.5999 0.789 0.437 0.432 171 186 183 0
27.7283 63.8974 -51.7826 -0.002 -0.329 0.944 198 191 181 0
27.9728 70.5951 -52.8873 0.079 -0.853 -0.516 194 187 181 0
26.6074 74.2981 -54.0005 0.802 -0.596 -0.036 190 184 178 0
34.3925 65.8845 -49.9033 0.595 -0.018 -0.804 184 177 169 0
45.9096 50.9672 -43.4042 0.564 -0.055 -0.824 174 166 155 0
39.9520 70.0686 -48.7830 0.543 -0.063 -0.837 170 162 151 0
43.1854 66.2416 -47.0223 0.602 -0.059 -0.797 170 157 149 0
43.9944 75.7899 -48.4430 0.361 -0.385 -0.850 163 150 139 0
44.1514 80.8450 -49.2860 0.912 -0.264 -0.313 160 144 130 0
44.1995 81.3364 -49.3569 0.063 -0.811 -0.581 159 145 129 0
44.4625 81.1947 -49.2438 -0.026 -0.860 -0.509 157 143 127 0
44.6619 81.2394 -49.1849 0.224 -0.804 -0.551 101 93 85 0
44.8249 81.3915 -49.1573 0.280 -0.789 -0.547 50 50 50 0
44.9340 81.7054 -49.1764 0.317 -0.806 -0.500 246 246 245 0
45.1154 81.8024 -49.1328 0.419 -0.755 -0.504 254 255 255 0
-20.9055 28.6841 -62.0974 0.430 -0.889 0.157 230 222 220 0
-20.7332 28.8672 -62.0721 0.372 -0.924 0.088 229 222 220 0
-6.9257 37.4522 -58.9613 0.230 -0.928 0.292 203 201 212 0
-6.4654 37.3680 -58.7915 0.076 -0.942 0.326 203 201 210 0
-6.0039 37.2805 -58.6206 0.605 -0.733 0.311 202 201 207 0
-5.1507 38.1409 -58.4874 0.003 -0.693 0.721 202 201 207 0
-4.3900 37.7718 -58.1656 0.196 -0.659 0.727 201 200 206 0
-4.0186 37.7570 -58.0380 0.412 -0.896 0.168 200 200 207 0
-3.5867 37.6846 -57.8798 0.403 -0.888 0.220 199 199 207 0
-6.6580 42.5656 -59.7844 -0.119 -0.869 -0.480 198 198 203 0
17.8479 20.6764 -47.6336 0.938 -0.212 -0.273 198 197 202 0
17.9069 20.8793 -47.6500 0.942 -0.175 -0.286 197 196 201 0
6.0181 34.8590 -54.1449 0.333 -0.624 0.707 196 195 193 0
10.5325 33.0669 -52.3066 0.046 -0.931 0.363 220 212 114 0
15.8203 36.3728 -51.1185 0.324 -0.289 0.901 248 249 114 0
15.7331 36.7947 -51.2232 0.217 -0.486 0.847 250 250 122 0
15.1764 37.7653 -51.5837 0.963 0.254 0.088 251 250 126 0
15.3933 37.8381 -51.5238 0.944 0.253 0.211 253 251 131 0
15.1142 39.4839 -51.9115 0.791 -0.439 0.426 252 251 132 0
15.1192 39.8113 -51.9683 0.750 -0.484 0.450 249 249 127 0
17.2144 38.2933 -50.9926 0.632 -0.671 -0.388 240 236 98 0
8.5327 52.9108 -56.5228 0.890 -0.375 0.260 221 212 58 0
8.4797 53.3646 -56.6216 0.880 -0.419 0.226 220 210 59 0
15.5151 46.2661 -52.9879 0.918 -0.361 -0.166 208 200 51 0
15.4634 46.6948 -53.0818 0.835 -0.469 -0.288 205 198 49 0
15.6370 46.8333 -53.0481 0.876 -0.453 -0.165 202 195 46 0
19.7191 43.2694 -51.0388 0.989 0.149 -0.015 188 178 49 0
20.9355 43.3999 -50.6530 0.836 -0.298 -0.460 174 163 57 0
21.7115 45.1845 -50.7107 0.856 -0.080 0.510 51 117 62 0
21.6266 45.6644 -50.8249 0.872 0.083 0.483 53 123 68 0
19.8006 51.2504 -52.4366 0.989 -0.146 -0.033 74 120 90 0
15.0468 62.7697 -56.0925 0.978 0.075 -0.197 173 194 189 0
14.8146 63.5567 -56.3111 0.764 -0.111 -0.636 174 192 189 0
15.2259 64.2508 -56.2967 0.873 -0.235 -0.427 173 190 189 0
16.1457 64.1609 -55.9713 0.851 0.449 0.272 171 186 183 0
27.7277 63.0639 -51.8801 -0.266 -0.515 0.815 193 188 181 0
27.7874 70.5531 -53.1974 0.115 -0.831 -0.545 191 185 177 0
28.0150 70.6028 -53.1297 0.083 -0.848 -0.524 192 185 178 0
26.6328 73.8296 -54.1708 0.784 -0.553 0.282 192 185 178 0
26.8045 74.0015 -54.1437 0.740 -0.673 0.012 191 184 177 0
27.1276 73.8721 -54.0120 0.528 -0.754 -0.392 190 183 176 0
29.5373 76.7774 -53.7203 0.525 -0.065 -0.848 181 174 166 0
41.3404 62.7295 -47.2421 0.562 -0.051 -0.825 172 161 154 0
37.9913 72.2407 -50.0669 0.314 -0.216 -0.924 170 159 154 0
38.2106 72.2543 -49.9956 0.314 -0.216 -0.924 170 159 154 0
43.4495 63.1135 -46.6013 0.544 -0.068 -0.836 167 159 148 0
44.6319 81.4713 -49.4818 0.223 -0.807 -0.547 101 93 85 0
44.9556 81.7848 -49.4290 0.332 -0.815 -0.476 247 247 245 0
45.1050 81.9789 -49.4133 0.418 -0.759 -0.499 254 255 255 0
-40.8386 3.4640 -64.5607 -0.177 -0.967 -0.186 236 223 215 0
-38.5727 14.6130 -65.8020 0.955 0.037 0.293 238 230 227 0
-16.4283 34.1058 -61.8297 0.164 -0.985 0.045 223 219 218 0
-8.0846 33.3765 -58.8798 0.361 -0.530 0.768 208 206 212 0
-8.5996 34.4366 -59.2446 0.638 0.161 0.753 205 205 209 0
2.2155 28.4741 -54.5178 0.872 0.079 -0.483 203 202 210 0
-6.3668 36.9851 -58.9490 0.263 -0.741 0.617 203 201 212 0
-6.7796 38.0058 -59.2722 0.667 -0.549 0.503 202 201 208 0
-6.7742 38.3295 -59.3286 0.665 -0.516 0.540 201 200 206 0
-5.0013 37.7085 -58.6179 -0.151 -0.633 0.759 202 199 206 0
-4.3821 37.4697 -58.3657 -0.091 -0.552 0.829 203 201 209 0
-3.0702 38.8747 -58.1755 0.674 -0.374 -0.637 198 199 205 0
-3.3813 39.4998 -58.3931 0.778 -0.295 -0.555 198 199 204 0
-2.8001 39.2810 -58.1574 0.702 -0.668 -0.246 200 199 204 0
17.7913 21.0176 -47.9139 0.912 -0.252 -0.323 200 199 204 0
10.3201 36.4582 -53.2170 0.840 -0.322 0.436 236 233 75 0
13.5445 37.0831 -52.2402 0.628 0.353 0.693 241 239 80 0
15.0039 37.6804 -51.8547 0.983 0.184 -0.004 251 250 123 0
15.1361 37.8525 -51.8410 0.968 0.241 0.070 251 250 126 0
15.4682 37.7909 -51.7178 0.968 -0.246 -0.036 254 252 131 0
15.5178 38.0592 -51.7493 0.924 -0.298 0.240 255 252 135 0
15.3818 38.5472 -51.8831 0.845 -0.019 0.534 254 251 134 0
15.1952 39.0976 -52.0452 0.560 -0.146 0.815 253 250 133 0
15.5178 39.0464 -51.9270 0.916 -0.035 0.401 252 251 131 0
15.0956 40.2166 -52.2802 0.617 -0.727 0.302 247 246 120 0
17.0629 38.5179 -51.3099 0.663 -0.621 -0.419 239 237 99 0
18.2928 40.0021 -51.1615 -0.127 -0.954 0.271 223 216 63 0
8.2812 53.2785 -56.9333 0.602 -0.761 -0.241 221 212 56 0
8.5570 53.3185 -56.8473 0.851 -0.433 0.297 219 210 58 0
15.0360 47.2969 -53.5748 0.873 -0.445 -0.197 206 198 49 0
15.2226 47.4208 -53.5340 0.860 -0.421 -0.288 202 195 47 0
21.7948 45.1205 -50.8998 0.862 -0.074 0.501 53 113 60 0
15.5944 58.6187 -55.4240 0.091 -0.994 -0.059 82 125 104 0
23.8749 71.1772 -54.8871 0.215 -0.939 -0.267 195 191 182 0
21.8826 78.4647 -56.8719 0.640 -0.303 -0.705 195 188 178 0
27.7643 70.6888 -53.4853 0.084 -0.850 -0.520 191 184 174 0
41.0087 47.9074 -44.9105 0.471 -0.882 -0.032 188 181 170 0
40.7274 69.4477 -48.8827 0.539 -0.071 -0.840 166 158 145 0
44.2956 70.6003 -47.8848 -0.145 -0.945 -0.293 165 148 138 0
44.4116 70.8464 -47.8898 -0.073 -0.943 -0.325 165 148 138 0
46.3796 66.5796 -46.4570 -0.119 -0.988 0.094 164 148 138 0
44.9377 77.5821 -48.9245 0.739 -0.023 -0.674 161 145 132 0
45.3316 77.0460 -48.6950 0.615 -0.137 -0.777 160 144 131 0
44.9365 81.9870 -49.7178 0.343 -0.808 -0.480 247 247 245 0
45.1225 82.0716 -49.6702 0.405 -0.778 -0.480 254 255 255 0
-11.6905 28.9474 -59.5565 -0.103 -0.825 -0.556 225 219 219 0
-16.3572 34.0747 -62.0702 0.172 -0.984 0.047 220 218 216 0
-16.2985 34.3477 -62.0998 0.161 -0.984 0.074 220 219 217 0
-15.8748 34.3359 -61.9539 0.163 -0.986 0.047 219 219 217 0
-15.2834 36.7699 -62.1948 0.187 -0.944 0.273 217 212 214 0
-14.1473 36.1732 -61.7010 0.137 -0.721 0.680 214 210 211 0
-14.1187 36.4747 -61.7460 0.182 -0.627 0.758 212 210 211 0
-8.0514 33.3751 -59.1250 0.523 -0.125 0.843 209 207 212 0
-7.6298 33.3341 -58.9745 0.434 -0.385 0.814 209 207 212 0
-4.9334 33.5306 -58.0952 -0.145 -0.983 -0.115 204 203 207 0
-5.4009 35.1973 -58.5562 0.917 -0.390 -0.089 204 203 209 0
-6.5289 36.5113 -59.1773 0.881 -0.440 -0.173 204 203 209 0
-6.6160 37.5624 -59.3976 0.639 -0.573 0.514 204 202 211 0
-6.7079 37.9719 -59.5031 0.644 -0.657 0.392 203 202 210 0
-6.5315 38.8011 -59.5936 0.790 -0.441 -0.426 202 199 206 0
-3.5409 39.6837 -58.7390 0.777 -0.293 -0.557 200 200 207 0
-2.7316 39.5811 -58.4457 0.507 -0.836 -0.210 201 201 203 0
-2.3806 39.5785 -58.3262 0.776 -0.461 -0.430 201 201 203 0
10.0893 36.1029 -53.4644 0.817 -0.293 0.496 232 231 79 0
10.7327 36.6907 -53.3528 0.808 -0.420 0.413 237 233 75 0
12.8978 35.2870 -52.3634 0.146 -0.103 0.984 238 236 76 0
17.3363 33.7617 -50.5807 0.678 -0.697 0.235 243 241 90 0
15.5453 36.7693 -51.7340 0.955 0.256 -0.152 248 247 112 0
14.9738 37.7554 -52.1068 0.976 0.215 0.034 250 249 120 0
15.4951 37.7998 -51.9380 0.852 -0.451 0.267 252 251 127 0
15.6018 38.0013 -51.9384 0.852 -0.451 0.267 253 251 130 0
15.6551 38.2660 -51.9683 0.728 -0.467 0.503 252 250 130 0
15.9213 38.2797 -51.8804 0.887 -0.088 0.454 251 249 129 0
15.9431 38.5826 -51.9280 0.864 -0.045 0.502 252 249 128 0
18.1442 39.5608 -51.3586 0.295 -0.944 -0.147 228 221 66 0
8.2520 53.3666 -57.2197 0.618 -0.754 -0.223 221 212 55 0
8.6537 53.2479 -57.0619 0.856 -0.515 -0.045 220 210 58 0
8.8439 53.3953 -57.0241 0.838 -0.543 -0.063 219 210 59 0
9.0026 53.5826 -57.0042 0.833 -0.550 0.064 217 207 57 0
21.8924 45.0364 -51.0801 0.862 -0.074 0.501 55 110 60 0
12.7685 67.2432 -58.2046 0.568 -0.738 -0.364 175 187 187 0
15.8561 64.7488 -56.7044 0.848 0.045 -0.528 171 186 186 0
21.8329 77.0874 -56.9148 -0.029 -0.976 -0.218 192 188 177 0
22.3924 76.5504 -56.6276 -0.141 -0.989 -0.040 191 189 176 0
27.7909 70.7272 -53.7393 0.356 -0.871 -0.338 190 184 174 0
28.0296 70.7559 -53.6636 0.361 -0.870 -0.337 189 186 174 0
28.3922 70.5383 -53.5011 0.337 -0.888 -0.314 189 186 174 0
43.9917 65.0371 -47.2099 0.309 -0.894 -0.323 166 152 143 0
44.2564 70.8266 -48.1704 -0.027 -0.977 -0.212 163 147 138 0
44.4260 70.9285 -48.1313 -0.073 -0.943 -0.325 163 146 136 0
46.1056 66.9031 -46.8312 -0.222 -0.790 0.571 163 146 136 0
44.2141 81.0831 -50.0454 0.937 -0.230 -0.262 157 142 129 0
44.9447 82.1076 -49.9834 0.342 -0.808 -0.480 247 247 245 0
45.0723 82.3699 -49.9877 0.512 -0.725 -0.460 254 255 255 0
-13.5892 35.4233 -61.6437 0.274 -0.588 0.761 218 213 214 0
-13.9125 36.3329 -61.9202 0.172 -0.629 0.758 215 210 212 0
-13.0053 35.9144 -61.5345 -0.021 -0.931 0.365 212 209 211 0
-14.4178 37.7300 -62.3479 -0.336 -0.733 0.591 212 209 215 0
-8.3759 33.6728 -59.5469 0.626 -0.183 0.758 209 206 211 0
-6.1597 33.9903 -58.8497 0.817 -0.280 -0.505 206 204 211 0
-6.0736 34.2304 -58.8642 0.812 -0.271 -0.516 206 205 210 0
-6.2467 34.6956 -59.0083 0.865 -0.240 -0.440 206 206 208 0
-6.4560 36.1541 -59.3463 0.949 -0.097 -0.300 205 204 209 0
-6.5549 36.5635 -59.4548 0.815 -0.449 0.367 205 204 210 0
-3.9781 37.8134 -58.8051 0.537 -0.745 0.397 201 198 209 0
-3.6205 37.8100 -58.6826 0.455 -0.888 -0.068 201 198 209 0
-3.7161 39.5489 -59.0332 0.736 -0.344 -0.583 202 201 210 0
10.2238 36.3144 -53.6909 0.998 -0.046 -0.031 232 231 81 0
10.4384 36.7245 -53.6927 0.801 -0.298 0.519 234 234 80 0
10.5166 36.9617 -53.7095 0.835 -0.211 0.508 236 235 77 0
13.1737 35.6533 -52.5647 0.232 -0.534 0.813 239 239 76 0
16.2787 34.0693 -51.2168 0.925 -0.371 -0.085 241 240 79 0
17.4160 33.7083 -50.7632 0.786 -0.587 0.191 243 241 90 0
14.5808 37.9247 -52.5004 0.502 -0.315 -0.806 246 244 109 0
14.4160 38.7727 -52.7116 0.557 -0.277 -0.783 249 250 116 0
16.1078 38.0999 -52.0120 0.810 -0.143 0.569 248 248 121 0
16.0553 38.4906 -52.1014 0.887 -0.088 0.454 248 247 120 0
16.9952 38.6837 -51.8163 0.643 -0.724 -0.248 238 236 98 0
17.1267 38.8553 -51.8029 0.674 -0.630 -0.385 236 233 92 0
17.9732 39.8166 -51.6902 0.345 -0.930 -0.128 228 221 64 0
8.0883 53.6243 -57.5836 0.584 -0.722 -0.371 221 212 59 0
8.8902 53.3884 -57.2671 0.836 -0.516 -0.186 218 208 59 0
9.0092 53.6263 -57.2701 0.846 -0.505 -0.170 218 208 58 0
9.0763 53.9312 -57.3030 0.985 -0.162 -0.052 215 205 57 0
16.8814 55.6408 -54.9555 0.966 0.230 -0.118 80 124 98 0
12.3005 67.5694 -58.6977 0.996 -0.065 0.065 174 189 186 0
25.8598 68.1560 -54.1838 0.578 0.439 0.688 195 189 178 0
27.2360 71.4054 -54.3088 0.301 -0.354 -0.885 191 183 174 0
27.9304 71.0424 -54.0058 0.376 -0.876 -0.304 188 184 172 0
28.1471 71.1146 -53.9452 0.355 -0.889 -0.290 187 184 171 0
31.7291 65.9291 -51.7763 0.549 -0.280 -0.788 185 181 169 0
29.0294 73.9200 -54.1574 0.749 0.077 -0.659 184 179 168 0
28.2870 75.9736 -54.7859 0.762 0.087 -0.641 185 176 169 0
43.9255 64.7951 -47.4123 0.271 -0.897 -0.349 166 151 143 0
43.2898 72.4250 -49.0240 0.082 -0.997 -0.014 161 147 138 0
45.9403 68.0229 -47.3158 -0.181 -0.952 0.247 162 145 135 0
49.6645 64.0778 -45.3252 0.952 0.271 0.145 158 144 131 0
44.1435 81.4320 -50.3798 0.932 -0.288 -0.222 155 141 128 0
44.9250 82.3125 -50.2745 0.343 -0.808 -0.480 246 246 245 0
-41.1015 1.1481 -65.0142 0.326 -0.919 -0.220 255 255 255 0
-13.3213 35.5537 -61.8444 0.225 -0.672 0.705 214 210 211 0
-13.0906 35.6879 -61.7901 0.225 -0.672 0.705 213 210 211 0
-7.6973 35.0208 -59.8210 0.098 -0.104 0.990 207 204 213 0
-6.0100 35.4710 -59.3264 0.899 -0.363 -0.245 205 204 209 0
-6.5426 36.2593 -59.6540 0.949 -0.097 -0.300 206 205 211 0
-6.9110 36.9074 -59.8995 0.591 -0.805 0.059 206 205 211 0
-6.3428 36.7287 -59.6721 0.486 -0.604 0.631 205 205 212 0
-6.3111 37.3501 -59.7757 0.421 -0.670 0.612 204 203 211 0
-6.1212 37.8334 -59.7998 0.443 -0.549 0.709 204 203 211 0
-3.7388 37.9510 -59.0059 0.558 -0.747 0.360 201 199 210 0
13.4446 34.7607 -52.5360 0.308 -0.262 0.915 238 239 79 0
13.3324 35.5150 -52.7134 0.426 -0.424 0.799 239 240 77 0
13.5506 35.5904 -52.6527 0.386 -0.695 0.607 239 241 76 0
15.8121 34.9486 -51.7603 0.671 -0.417 -0.613 243 240 82 0
15.8394 39.1201 -52.5196 0.667 -0.736 0.117 242 242 111 0
16.9164 38.4908 -52.0349 0.617 -0.776 -0.128 239 236 103 0
16.9823 38.7414 -52.0586 0.642 -0.720 -0.264 237 235 95 0
17.1132 38.9140 -52.0455 0.635 -0.729 -0.255 236 233 91 0
17.3146 39.0010 -51.9926 0.517 -0.837 -0.177 234 231 87 0
17.9806 39.8513 -51.9213 0.345 -0.930 -0.128 228 222 65 0
18.5108 39.8623 -51.7419 -0.252 -0.968 -0.007 224 217 64 0
18.8803 39.7349 -51.5919 -0.257 -0.966 0.002 224 215 64 0
8.0749 53.6929 -57.8626 0.613 -0.656 -0.440 222 212 62 0
8.7916 53.1766 -57.5221 0.747 -0.646 -0.160 219 209 60 0
9.0183 54.0581 -57.6070 0.889 -0.373 -0.264 214 205 58 0
9.0587 54.3989 -57.6559 0.977 -0.135 -0.164 210 202 57 0
12.9356 65.3311 -58.3432 0.891 0.341 -0.300 176 192 184 0
13.5388 65.3147 -58.1337 0.805 -0.494 0.328 173 191 184 0
12.4457 67.4192 -58.8956 0.997 -0.077 0.028 172 189 183 0
14.0725 66.7480 -58.2151 0.599 -0.065 -0.798 171 185 185 0
29.1591 60.3099 -51.8645 0.594 0.452 0.666 192 187 179 0
29.7682 70.9712 -53.6205 0.604 -0.036 -0.796 184 180 168 0
25.4654 81.3524 -57.0062 0.790 -0.173 -0.588 183 179 167 0
40.5874 58.6070 -47.6387 0.429 -0.178 -0.886 171 164 153 0
38.4218 67.4466 -50.0088 0.497 -0.133 -0.857 168 158 151 0
45.8199 70.1544 -47.9753 -0.040 -0.954 0.298 160 144 133 0
47.9243 65.3622 -46.3720 0.026 -0.642 0.767 157 143 132 0
48.2591 64.9608 -46.1834 0.278 -0.510 0.814 158 145 134 0
49.6039 64.3762 -45.6153 0.952 0.278 0.127 157 143 130 0
44.9238 82.4623 -50.5499 0.341 -0.809 -0.480 246 246 245 0
-19.0309 26.8830 -62.4657 0.191 -0.243 0.951 230 224 224 0
-18.1683 26.5832 -62.1135 0.416 -0.102 0.904 231 225 225 0
-13.2475 34.8779 -61.9619 -0.364 -0.647 0.670 216 213 214 0
-6.0121 37.4387 -59.9498 0.419 -0.702 0.575 206 205 213 0
-5.8098 37.5833 -59.9071 0.408 -0.698 0.589 205 204 212 0
-6.1797 38.2453 -60.1572 0.628 -0.451 0.635 204 203 211 0
-0.0855 34.6005 -57.3852 0.671 -0.435 -0.601 204 203 213 0
-3.6167 39.1881 -59.4511 0.749 -0.428 0.506 203 202 212 0
9.5186 32.7392 -53.7376 0.780 -0.572 0.254 197 195 170 0
12.6261 31.9714 -52.5267 0.200 -0.823 0.532 227 222 99 0
17.0046 33.6319 -51.3296 0.364 -0.912 -0.190 242 241 83 0
17.0404 34.8408 -51.5418 0.497 -0.687 0.529 241 242 93 0
15.8756 39.1188 -52.7366 0.812 -0.565 0.148 239 240 104 0
16.1351 39.1404 -52.6514 0.718 -0.683 0.135 241 240 105 0
16.9255 38.8523 -52.3262 0.619 -0.751 -0.232 237 236 93 0
17.0465 39.0375 -52.3190 0.615 -0.754 -0.230 236 233 90 0
16.7905 39.6820 -52.5266 0.663 -0.732 0.155 233 231 86 0
16.9454 39.8280 -52.5005 0.620 -0.776 0.111 234 230 81 0
17.3113 39.7150 -52.3537 0.509 -0.809 0.294 232 228 76 0
16.0916 41.8967 -53.1782 0.063 -0.896 0.440 229 224 70 0
16.1987 42.1080 -53.1806 0.051 -0.912 0.407 228 221 68 0
8.0680 53.7533 -58.1383 0.514 -0.850 -0.113 220 212 62 0
16.9849 59.7503 -56.1861 0.228 -0.315 0.921 177 191 184 0
26.4359 73.6625 -55.5201 0.405 -0.291 -0.867 189 184 170 0
28.5660 71.9761 -54.4746 0.260 -0.392 -0.882 184 180 168 0
25.2032 81.9960 -57.4913 0.737 -0.199 -0.646 182 178 166 0
36.9372 70.9924 -51.4139 0.493 -0.135 -0.859 169 159 150 0
36.8498 71.7259 -51.5801 0.497 -0.133 -0.857 168 158 148 0
36.5183 73.5769 -52.0378 0.512 -0.125 -0.850 169 157 146 0
49.6261 64.4333 -45.8334 0.946 0.279 0.165 155 142 129 0
44.4184 82.1836 -50.9198 -0.022 -0.862 -0.506 154 140 126 0
44.5655 82.3896 -50.9075 -0.074 -0.881 -0.467 99 91 83 0
44.9351 82.5745 -50.8147 0.289 -0.852 -0.437 246 246 245 0
-41.8489 1.1845 -65.8014 0.249 -0.949 -0.193 255 255 255 0
-16.1636 25.5046 -61.4826 0.509 -0.114 0.853 230 225 224 0
-15.5229 31.9542 -62.4681 0.279 -0.580 -0.765 221 219 220 0
-12.8502 34.5826 -62.0370 -0.361 -0.633 0.685 215 213 214 0
-6.1266 38.2280 -60.3974 0.667 -0.447 0.596 205 204 212 0
-2.7839 36.1615 -58.8565 0.906 -0.291 -0.307 203 203 212 0
-0.2884 35.4522 -57.8620 0.748 -0.437 -0.499 202 203 208 0
7.8999 32.5609 -54.4935 0.805 -0.591 -0.054 200 201 199 0
9.9615 32.0178 -53.6800 0.820 -0.161 0.549 196 194 177 0
9.5827 32.7069 -53.9398 0.786 -0.564 0.255 196 194 168 0
9.7200 32.8736 -53.9236 0.775 -0.574 0.267 200 197 160 0
10.1190 32.7725 -53.7668 0.627 -0.495 0.602 204 201 148 0
12.4861 33.0690 -53.0050 0.223 -0.933 0.282 230 229 89 0
13.7607 32.0205 -52.3687 -0.245 -0.917 0.316 232 230 86 0
13.8400 34.3998 -52.7865 0.762 -0.426 0.489 238 240 82 0
17.3201 34.5564 -51.6141 0.481 -0.703 0.523 240 240 90 0
16.2121 37.4460 -52.5373 0.415 -0.606 0.678 243 242 99 0
15.9141 39.1147 -52.9524 0.735 -0.614 0.287 238 239 97 0
16.8056 38.7082 -52.5685 0.611 -0.759 -0.226 237 236 94 0
16.5817 39.6443 -52.8210 0.658 -0.735 0.166 234 233 88 0
16.7942 39.7206 -52.7619 0.662 -0.734 0.152 233 232 86 0
17.1894 39.5729 -52.5978 -0.006 -0.984 0.177 232 230 81 0
17.7167 40.9452 -52.6725 0.529 -0.836 -0.145 222 217 63 0
17.8027 41.1783 -52.6864 0.365 -0.926 -0.096 221 215 62 0
9.8608 55.0474 -58.0238 0.247 -0.742 -0.623 199 191 55 0
20.0736 43.0908 -52.2601 0.911 -0.111 -0.397 186 174 56 0
24.4343 38.2929 -49.8566 0.980 -0.181 -0.084 179 165 59 0
16.2804 60.8764 -56.8978 0.606 -0.360 0.709 176 190 183 0
18.9392 57.7001 -55.3854 0.147 -0.767 0.625 170 188 182 0
30.3275 69.0249 -53.5718 0.648 0.025 -0.761 183 179 167 0
24.9492 82.6235 -57.9734 0.737 -0.199 -0.646 180 176 164 0
44.5623 59.9760 -46.9633 0.789 0.155 0.595 163 153 141 0
49.9166 55.9269 -44.3568 0.743 -0.174 0.647 158 147 135 0
51.6489 52.6406 -43.1437 0.874 -0.225 -0.431 159 147 135 0
49.6447 64.5011 -46.0550 0.946 0.279 0.165 154 142 128 0
44.4259 82.3056 -51.1885 -0.009 -0.885 -0.466 154 140 126 0
44.5652 82.5358 -51.1835 -0.074 -0.881 -0.467 99 92 83 0
44.7505 82.6278 -51.1367 0.309 -0.839 -0.448 48 49 48 0
44.9657 82.6284 -51.0625 0.279 -0.853 -0.441 246 246 245 0
-41.9472 1.2204 -66.1049 0.249 -0.949 -0.193 255 255 255 0
-41.0972 1.3852 -65.8412 0.301 -0.930 -0.212 135 135 135 0
-21.4812 24.7419 -63.4418 0.587 -0.773 -0.240 232 227 223 0
-12.6238 34.4253 -62.1956 -0.363 -0.637 0.680 214 212 215 0
-7.6744 33.5044 -60.3054 -0.066 -0.978 -0.198 210 207 214 0
-5.6489 32.1091 -59.3399 0.408 -0.457 0.790 208 206 212 0
-6.3021 35.1740 -60.1443 0.981 -0.115 -0.157 207 206 213 0
-6.4036 35.5819 -60.2564 0.992 -0.107 -0.071 207 206 212 0
-2.6240 32.8953 -58.4391 0.684 -0.657 -0.317 206 205 210 0
-3.4909 33.9719 -58.9427 0.054 -0.983 -0.177 205 205 211 0
-0.2982 34.5430 -57.9431 0.722 -0.393 -0.570 204 204 209 0
-0.8300 35.3509 -58.2799 0.881 -0.468 -0.072 204 204 208 0
9.7037 32.9233 -54.1690 0.790 -0.325 0.519 201 198 160 0
10.0425 32.8841 -54.0441 0.596 -0.464 0.655 204 202 148 0
12.2904 32.6963 -53.2291 0.216 -0.550 0.807 226 224 93 0
11.9010 33.4145 -53.4996 -0.274 -0.883 0.382 229 228 92 0
12.4664 33.1244 -53.2488 -0.106 -0.900 0.422 229 229 89 0
12.7330 33.1491 -53.1610 -0.118 -0.932 0.343 231 230 86 0
12.9609 33.2141 -53.0942 -0.131 -0.919 0.372 231 232 84 0
13.8361 33.5067 -52.8459 0.225 -0.862 0.453 236 237 81 0
17.5178 34.3665 -51.7311 0.477 -0.745 0.465 240 241 88 0
17.6302 34.5502 -51.7268 0.515 -0.731 0.448 240 240 91 0
16.0771 37.3198 -52.7876 0.534 -0.624 0.571 241 239 94 0
16.2966 37.3871 -52.7241 0.458 -0.600 0.656 242 240 95 0
16.3170 37.6891 -52.7740 0.437 -0.580 0.688 242 241 95 0
15.1659 39.3821 -53.4924 0.001 -0.864 -0.504 241 239 94 0
16.0979 39.2693 -53.1479 0.449 -0.766 -0.460 238 237 93 0
16.3118 39.3453 -53.0880 0.439 -0.777 -0.451 235 235 90 0
16.7149 39.1917 -52.9193 0.315 -0.943 -0.103 234 234 88 0
16.6181 39.9784 -53.1012 0.537 -0.825 -0.174 232 231 86 0
16.6803 40.2391 -53.1287 0.492 -0.844 -0.216 232 229 80 0
16.1713 41.5444 -53.5514 0.825 -0.421 0.377 229 226 73 0
8.6611 55.8670 -58.8563 0.510 -0.526 -0.681 207 198 54 0
22.8237 38.8154 -50.7298 0.771 -0.179 0.611 194 183 56 0
22.8387 43.2637 -51.5632 0.937 0.017 0.350 94 118 69 0
12.7279 64.9551 -59.1593 0.896 0.386 -0.220 173 191 187 0
12.1740 66.2282 -59.5914 0.880 0.332 -0.340 175 189 184 0
17.1106 60.1156 -56.7270 0.950 -0.230 -0.211 173 187 183 0
34.2294 46.5118 -48.2252 0.906 0.418 0.064 186 185 180 0
27.0183 74.2379 -55.9534 0.664 -0.007 -0.747 182 178 166 0
33.1702 79.9567 -54.8981 0.632 -0.018 -0.775 167 155 146 0
48.0915 48.2445 -43.7443 0.960 0.227 0.162 164 153 146 0
44.5216 59.1994 -47.0478 0.924 0.054 0.379 162 152 143 0
42.7277 67.7604 -49.2840 0.552 -0.329 -0.766 159 149 139 0
42.9776 69.2748 -49.4828 0.647 -0.328 -0.688 161 148 139 0
42.4554 71.1829 -50.0237 0.506 -0.438 -0.743 161 149 139 0
49.6593 62.9433 -45.9719 0.998 -0.061 0.015 154 142 128 0
49.6634 64.5691 -46.2770 0.946 0.279 0.165 154 140 127 0
44.4211 82.4648 -51.4690 -0.013 -0.887 -0.461 154 139 126 0
44.7465 82.7861 -51.4167 0.316 -0.840 -0.441 48 49 48 0
44.9619 82.7870 -51.3422 0.284 -0.853 -0.438 246 246 245 0
45.1318 82.9247 -51.3093 0.253 -0.883 -0.394 254 255 255 0
-36.6502 13.4574 -66.8476 0.478 0.236 0.846 235 227 225 0
-17.1934 22.2346 -61.7379 0.650 -0.306 -0.696 232 228 223 0
-19.6237 24.6973 -63.0522 0.720 -0.195 -0.666 233 226 224 0
-22.0537 28.1108 -64.5471 -0.023 -0.759 -0.650 231 226 223 0
-10.8841 29.9660 -61.0090 -0.004 -0.639 -0.769 218 216 219 0
-9.4073 29.1168 -60.3333 0.006 -0.633 -0.774 218 216 219 0
-18.0243 37.8150 -64.9870 0.765 0.058 0.641 214 214 215 0
-18.0039 38.1315 -65.0400 0.765 0.058 0.641 216 214 217 0
-14.1352 35.9969 -63.2870 0.716 -0.681 -0.153 216 214 217 0
-14.1814 36.3596 -63.3720 -0.287 -0.814 0.505 216 214 217 0
-5.3300 32.1736 -59.4937 0.903 -0.037 0.428 209 208 214 0
-2.4855 33.1110 -58.6811 0.258 -0.724 -0.639 206 205 211 0
-0.8170 35.3696 -58.5290 0.893 -0.447 -0.053 207 207 209 0
-0.3529 35.2563 -58.3458 0.478 -0.557 0.679 207 207 207 0
10.5693 30.8658 -53.7074 0.998 -0.043 -0.048 195 197 186 0
9.7779 32.8807 -54.3658 0.675 -0.445 0.588 200 197 158 0
10.1400 32.8174 -54.2277 0.586 -0.465 0.663 203 201 147 0
12.3738 33.2573 -53.5332 0.194 -0.548 0.814 227 228 88 0
13.2363 32.9545 -53.1752 0.229 -0.534 0.814 229 232 83 0
14.1057 33.8691 -53.0461 0.543 -0.531 0.651 238 239 85 0
14.1324 34.1514 -53.0905 0.534 -0.508 0.676 235 238 86 0
17.6945 34.2007 -51.8591 0.751 -0.614 0.241 241 241 86 0
16.1773 37.2427 -52.9655 0.534 -0.624 0.571 241 240 91 0
15.6369 39.1970 -53.5249 0.359 -0.922 -0.144 237 238 86 0
15.0497 40.2329 -53.9262 0.434 -0.767 -0.472 237 238 90 0
15.8742 39.5803 -53.5151 0.408 -0.676 -0.614 237 237 91 0
16.2277 39.4891 -53.3746 0.382 -0.703 -0.600 234 234 87 0
13.7503 43.5199 -55.0033 0.753 -0.171 -0.636 232 231 86 0
16.6435 40.3278 -53.3891 0.491 -0.849 -0.197 232 228 79 0
22.9204 38.7339 -50.9000 0.770 -0.267 0.579 193 183 51 0
22.8869 39.7870 -51.1118 0.714 -0.115 0.691 183 171 50 0
22.0745 42.9547 -51.9964 0.711 -0.659 -0.246 162 152 65 0
12.3948 65.5189 -59.6544 0.884 0.329 -0.332 174 190 188 0
35.7519 45.8075 -47.7743 0.706 0.484 0.516 183 184 173 0
48.3986 46.7419 -43.5469 1.000 -0.018 -0.024 164 154 145 0
48.1735 48.1355 -43.8900 0.965 0.251 -0.080 162 152 143 0
44.8591 58.9553 -47.0998 0.872 0.206 0.444 160 149 142 0
42.3042 71.6950 -50.4098 0.522 -0.418 -0.744 160 147 138 0
49.6684 63.0365 -46.2000 0.998 -0.061 0.015 155 141 128 0
44.4252 82.5977 -51.7422 -0.010 -0.887 -0.461 152 137 124 0
44.7470 82.9315 -51.6935 0.316 -0.840 -0.441 48 49 49 0
44.9604 82.9390 -51.6206 0.317 -0.836 -0.449 246 246 245 0
-28.2670 -0.9862 -61.4234 -0.164 -0.677 0.717 233 222 218 0
-26.5535 -1.0004 -60.8213 -0.229 -0.787 0.572 235 222 220 0
-33.8490 10.8038 -65.6327 0.360 -0.877 -0.318 233 225 221 0
-20.4377 25.2555 -63.7071 0.361 -0.909 0.210 230 225 222 0
-19.5556 25.2513 -63.3977 0.932 -0.217 -0.292 230 225 222 0
-17.8409 24.3896 -62.6330 0.860 -0.320 -0.397 230 225 222 0
-19.8712 35.3375 -65.4386 0.049 -0.581 -0.812 221 220 215 0
-18.3472 34.4968 -64.7445 0.049 -0.581 -0.812 220 219 214 0
-13.5181 35.1999 -63.1898 0.740 -0.495 -0.455 215 215 215 0
-13.5397 35.8631 -63.3243 0.843 -0.475 -0.251 213 213 215 0
-6.1929 32.9316 -60.1932 0.938 -0.099 0.331 209 207 215 0
-6.0956 33.1604 -60.2029 0.939 -0.095 0.331 209 207 215 0
-3.1356 33.4023 -59.2138 0.250 -0.806 -0.536 208 206 211 0
-0.2462 32.9944 -58.1250 0.177 -0.499 0.848 208 207 213 0
0.3677 33.6762 -58.0407 0.290 -0.363 0.886 207 206 212 0
-0.8479 35.4289 -58.8014 0.902 -0.429 -0.049 207 207 207 0
-0.1364 35.0857 -58.4868 0.399 -0.639 0.657 207 207 207 0
10.3678 31.4013 -54.1071 0.999 0.002 -0.051 196 195 183 0
9.9692 32.7185 -54.4986 0.704 -0.429 0.566 202 198 160 0
14.2184 32.2429 -52.9212 0.307 -0.511 0.803 232 233 85 0
13.7161 34.6454 -53.5567 0.305 -0.776 0.551 237 239 86 0
17.8222 34.0914 -52.0143 0.743 -0.618 0.255 240 240 82 0
16.6353 36.4229 -52.8757 0.807 -0.586 0.067 239 239 90 0
16.8736 36.4656 -52.8005 0.618 -0.761 0.197 239 239 91 0
16.9284 36.7237 -52.8307 0.865 -0.498 0.069 239 239 90 0
17.2892 36.6207 -52.6848 0.655 -0.445 0.611 238 238 89 0
17.3201 36.9074 -52.7289 0.737 -0.367 0.567 237 237 87 0
15.6657 39.2046 -53.7473 0.347 -0.927 -0.140 237 237 87 0
13.4967 43.5235 -55.3327 0.854 -0.037 -0.518 233 232 81 0
13.6128 43.7328 -55.3321 0.828 -0.220 -0.516 231 231 80 0
8.2220 56.9502 -59.7476 0.577 -0.557 -0.597 202 194 49 0
8.5674 56.9039 -59.6179 0.214 -0.820 -0.532 199 190 51 0
23.0489 38.2776 -50.9871 0.905 -0.210 0.371 195 185 52 0
23.1011 39.8867 -51.2768 0.712 -0.123 0.691 180 169 53 0
24.0178 38.9932 -50.7851 0.905 -0.341 -0.256 178 166 55 0
22.0332 43.0612 -52.2580 0.716 -0.653 -0.246 162 152 66 0
12.8339 64.4887 -59.5771 0.894 0.353 -0.275 171 189 188 0
21.5775 54.6871 -54.6425 0.974 -0.093 -0.208 172 182 181 0
48.3997 46.8253 -43.7549 0.999 -0.007 -0.035 165 155 143 0
42.5754 71.1048 -50.4393 0.516 -0.276 -0.811 159 146 137 0
49.0429 66.0744 -47.2141 0.970 0.243 0.007 154 140 127 0
44.4211 82.7551 -52.0234 -0.001 -0.883 -0.470 152 138 123 0
44.9572 83.0965 -51.9012 0.317 -0.839 -0.442 246 246 245 0
45.1520 83.1600 -51.8453 0.301 -0.840 -0.452 254 255 255 0
-29.7924 -0.8347 -62.2284 -0.269 -0.908 0.322 234 223 219 0
