ply
format ascii 1.0
element vertex 839
property float x
property float y
property float z
property float nx
property float ny
property float nz
property uchar diffuse_red
property uchar diffuse_green
property uchar diffuse_blue
property uchar class
end_header
-5.0619 27.6372 -46.4106 0.722 -0.590 -0.360 116 70 80 0
4.5369 32.3501 -44.5077 0.987 -0.118 0.110 88 27 37 0
3.8208 33.3588 -44.8241 0.628 -0.324 -0.707 85 26 33 0
3.9688 33.5214 -44.8063 0.901 -0.391 -0.189 83 25 32 0
6.5258 33.4275 -44.1263 0.868 -0.497 0.002 75 23 21 0
6.7360 33.5218 -44.0835 0.429 -0.881 0.200 76 22 20 0
7.6547 33.1963 -43.8017 0.668 -0.697 -0.263 79 22 22 0
8.1449 36.1236 -44.0492 0.879 -0.153 -0.451 70 20 18 0
7.9572 37.2887 -44.2478 0.884 -0.237 -0.402 71 20 17 0
5.8953 40.5254 -45.2017 -0.392 -0.913 -0.118 69 21 17 0
7.9843 39.5519 -44.5310 0.731 -0.622 -0.282 66 21 16 0
8.1328 39.7186 -44.5136 0.731 -0.622 -0.282 65 21 16 0
8.1793 39.9997 -44.5375 0.817 -0.471 -0.331 65 20 15 0
8.4505 40.6996 -44.5565 0.815 -0.399 -0.420 61 22 14 0
8.6045 40.8615 -44.5370 0.728 -0.509 -0.459 57 21 13 0
13.8423 69.4580 -46.8376 0.982 0.149 0.120 79 124 97 0
13.4260 71.0768 -47.1540 0.947 0.256 -0.193 83 125 102 0
46.5581 49.0529 -35.6730 0.181 -0.914 0.364 182 172 163 0
41.3058 64.8144 -39.0673 0.949 0.267 -0.166 183 173 164 0
41.4763 70.2794 -39.7239 -0.094 -0.958 -0.270 184 171 164 0
41.3740 79.9607 -40.9927 0.623 -0.656 -0.426 182 170 157 0
41.2435 82.2209 -41.3168 0.386 -0.915 -0.121 181 168 156 0
45.9072 71.7625 -38.7566 0.117 -0.925 -0.361 178 162 151 0
-5.3289 19.0657 -45.6034 0.139 -0.795 0.590 229 220 211 0
-16.3579 27.9968 -49.6584 0.911 -0.322 -0.259 228 217 211 0
-18.0590 29.5535 -50.3070 0.894 -0.283 -0.346 227 216 210 0
-17.9057 30.0431 -50.3303 -0.038 -0.966 0.256 226 215 208 0
-17.5165 30.0543 -50.2295 -0.038 -0.966 0.256 225 215 206 0
-17.9305 30.6690 -50.4180 0.880 -0.260 0.397 224 215 205 0
-17.8999 32.4917 -50.6463 0.108 -0.451 0.886 218 204 195 0
-6.8105 27.9284 -47.1419 -0.015 -0.702 -0.712 126 82 90 0
-5.6599 27.2809 -46.7557 0.884 -0.249 -0.396 124 78 86 0
-5.5575 27.4860 -46.7554 0.893 -0.187 -0.409 121 74 84 0
-5.5967 27.8080 -46.8075 0.903 -0.103 -0.418 119 73 83 0
-5.7795 29.1299 -47.0269 -0.430 -0.892 -0.140 110 64 75 0
-5.5064 29.1964 -46.9638 -0.476 -0.862 -0.172 107 60 72 0
-0.3168 27.9680 -45.4415 -0.005 -0.938 -0.347 103 52 59 0
4.1321 28.0194 -44.2796 0.375 -0.879 0.296 90 32 44 0
4.6605 32.2561 -44.6903 0.883 -0.327 0.338 88 29 37 0
3.5744 33.6285 -45.1535 0.942 -0.238 -0.236 84 27 33 0
3.5887 33.9242 -45.1881 0.643 -0.716 0.270 82 27 32 0
9.5647 28.3147 -42.8911 0.769 -0.492 0.407 82 27 32 0
6.4029 33.2729 -44.3645 0.848 -0.454 -0.274 76 25 24 0
6.5365 33.4453 -44.3518 0.868 -0.497 0.002 76 24 23 0
7.5168 33.3672 -44.0842 0.555 -0.313 0.770 80 22 22 0
7.7089 33.4775 -44.0480 0.538 -0.363 0.761 82 22 23 0
7.9104 39.6686 -44.7980 0.740 -0.595 -0.313 67 23 17 0
8.2029 41.0163 -44.8959 0.977 -0.109 -0.186 59 23 11 0
8.1929 44.4778 -45.3475 0.461 0.292 0.838 48 36 17 0
8.0860 56.6739 -46.9572 0.409 -0.345 -0.845 47 109 54 0
8.4232 56.6273 -46.8626 0.335 -0.462 -0.821 47 110 55 0
11.4494 69.1229 -47.6882 0.115 -0.425 0.898 47 115 67 0
13.8781 66.6959 -46.7356 0.037 -0.612 0.790 51 117 74 0
33.3510 51.1772 -39.6086 0.712 0.194 0.675 194 192 180 0
45.8366 48.6713 -36.0042 0.889 -0.035 0.457 185 175 165 0
42.5252 60.8731 -38.4564 0.947 0.282 -0.157 182 171 165 0
44.5698 70.4708 -39.1640 0.971 0.221 0.095 182 171 157 0
44.2733 71.8864 -39.4255 0.970 0.220 0.100 182 170 154 0
41.1972 81.8462 -41.5250 0.306 -0.951 -0.040 181 169 154 0
41.2567 82.3124 -41.5699 0.296 -0.954 -0.050 180 168 153 0
42.4369 79.5494 -40.9016 0.541 -0.796 -0.273 181 169 154 0
43.5836 76.8547 -40.2509 0.890 -0.419 -0.179 183 169 156 0
45.9249 71.8323 -38.9847 0.069 -0.936 -0.345 178 164 152 0
-17.6199 29.8471 -50.4851 0.970 -0.224 0.096 227 216 209 0
-8.5389 29.0575 -47.9837 0.515 -0.823 -0.240 133 91 99 0
-8.3059 29.1642 -47.9361 0.359 -0.824 -0.438 127 85 89 0
-6.0849 27.9380 -47.1889 0.874 -0.070 -0.482 123 78 88 0
-5.7414 27.9470 -47.0994 0.897 -0.081 -0.436 122 76 86 0
-3.3100 27.9540 -46.4583 -0.183 -0.914 0.363 108 58 69 0
-2.6719 27.7035 -46.2570 0.761 -0.640 0.104 105 56 65 0
-2.4853 27.8343 -46.2248 0.882 -0.457 -0.114 104 55 64 0
-2.1306 27.8212 -46.1294 0.969 -0.219 -0.116 106 55 63 0
-2.1656 28.1412 -46.1806 0.962 -0.235 -0.137 110 59 66 0
-2.1543 28.4225 -46.2145 0.283 -0.953 -0.109 109 58 65 0
-1.7514 28.3662 -46.1007 -0.249 -0.969 -0.004 100 49 55 0
0.6286 29.1930 -45.5807 0.012 -0.747 -0.665 92 39 52 0
4.1945 27.9854 -44.4808 0.377 -0.884 0.276 91 35 44 0
4.3843 28.0988 -44.4455 0.387 -0.881 0.273 92 33 43 0
5.4238 29.1592 -44.3100 0.570 -0.814 -0.114 88 29 39 0
5.1179 31.8350 -44.7415 0.578 -0.343 0.741 83 28 34 0
3.1786 34.0455 -45.5433 0.937 -0.148 -0.318 82 28 33 0
3.7689 33.7742 -45.3519 0.561 -0.810 0.172 80 28 32 0
8.9914 28.9089 -43.3351 0.794 -0.095 -0.601 79 28 32 0
8.6125 56.4241 -47.0416 0.884 -0.409 -0.228 47 110 55 0
8.8855 56.4611 -46.9744 0.908 -0.392 -0.144 47 110 55 0
14.3150 68.3652 -47.1010 0.985 -0.001 0.173 78 125 99 0
12.9997 70.9554 -47.7878 0.921 0.330 -0.209 80 124 101 0
42.8455 50.4294 -37.2164 0.976 0.108 -0.189 188 179 170 0
35.1175 88.4511 -44.2406 0.505 -0.710 0.490 187 175 164 0
43.9548 73.4965 -39.9469 0.953 0.222 0.207 178 169 153 0
-17.3594 30.2747 -50.7280 0.639 -0.533 0.555 224 215 205 0
-6.1868 28.0415 -47.4662 0.829 -0.460 -0.319 125 82 91 0
-5.8243 28.0353 -47.3692 0.904 -0.367 -0.221 124 79 90 0
-5.5520 28.1023 -47.3057 0.801 -0.532 -0.274 120 74 87 0
-3.1164 27.8113 -46.6206 -0.161 -0.858 0.488 115 65 75 0
-2.6487 27.7048 -46.4824 0.749 -0.655 0.101 109 60 69 0
-2.5824 27.9381 -46.4957 0.953 -0.289 0.090 106 56 65 0
-2.3016 28.2793 -46.4663 0.703 -0.264 0.660 113 63 69 0
-2.1532 28.4431 -46.4486 0.234 -0.967 0.099 119 69 76 0
0.2905 29.5199 -45.9425 -0.252 -0.900 -0.355 92 40 53 0
6.4461 29.0845 -44.2507 0.573 -0.810 0.123 84 30 39 0
6.7745 29.3531 -44.1991 0.591 -0.800 0.107 85 31 40 0
7.0094 29.4185 -44.1454 0.581 -0.797 0.165 85 31 37 0
5.1123 31.8673 -44.9734 0.602 -0.355 0.716 83 32 35 0
8.0116 33.2233 -44.3834 0.538 -0.363 0.761 85 26 27 0
7.7672 37.2685 -44.9841 0.951 -0.212 0.226 68 23 17 0
8.1174 40.1741 -45.2760 0.955 -0.240 -0.174 63 27 18 0
8.0260 43.3502 -45.7209 0.578 -0.724 -0.375 53 37 15 0
3.1598 53.9367 -48.4151 0.957 -0.291 0.001 72 83 48 0
8.5351 56.5780 -47.3379 0.471 -0.633 -0.615 47 110 54 0
14.4255 67.7916 -47.2596 0.866 -0.156 0.475 76 126 99 0
25.5314 86.4496 -46.7827 0.266 0.179 0.947 189 180 171 0
41.7211 71.0796 -40.4489 -0.210 -0.898 -0.388 185 172 164 0
43.9849 73.5308 -40.1726 0.954 0.225 0.200 180 170 157 0
43.8625 74.4767 -40.3304 0.982 0.177 0.059 180 171 157 0
45.9482 72.0075 -39.4497 0.083 -0.922 -0.378 177 163 151 0
46.7101 72.1365 -39.2645 0.091 -0.927 -0.364 50 50 50 0
-49.8827 8.4222 -56.7389 0.206 -0.967 0.151 234 222 216 0
-9.7707 25.1402 -48.2714 0.872 -0.338 0.353 223 212 208 0
-7.7978 28.4965 -48.1941 -0.231 -0.762 -0.604 138 98 107 0
-6.4165 28.2498 -47.7924 0.828 -0.425 -0.366 125 84 92 0
-6.6214 28.7115 -47.9089 0.821 -0.451 -0.351 123 80 90 0
-3.0009 27.7344 -46.8119 -0.194 -0.978 0.082 124 75 85 0
-2.5673 27.9463 -46.7245 0.909 -0.394 0.139 110 60 67 0
-2.1552 28.1750 -46.6452 0.696 -0.263 0.668 107 57 65 0
-2.1495 28.4616 -46.6820 0.236 -0.968 0.087 108 59 68 0
-1.2624 28.2772 -46.4206 -0.199 -0.979 -0.033 101 53 61 0
-1.1868 30.2724 -46.6675 -0.194 -0.896 -0.400 93 43 55 0
5.1969 28.2579 -44.6941 0.128 -0.944 0.304 88 35 45 0
7.8644 31.2725 -44.3857 0.514 -0.737 0.439 75 26 28 0
8.1471 31.2879 -44.3123 0.465 -0.787 0.405 77 27 30 0
8.6314 33.5341 -44.4837 0.741 -0.617 0.266 74 23 22 0
8.7843 33.6834 -44.4629 0.737 -0.619 0.273 73 23 22 0
8.9168 33.8541 -44.4504 0.748 -0.615 0.250 71 21 20 0
7.8306 39.1961 -45.4553 0.840 -0.432 -0.328 68 25 18 0
8.0404 40.2957 -45.5465 0.769 -0.517 -0.375 63 30 17 0
8.1638 40.4927 -45.5399 0.814 -0.487 -0.316 62 31 17 0
13.0925 38.4788 -43.9550 0.947 -0.318 0.049 57 48 17 0
13.1348 38.7592 -43.9812 0.933 -0.355 0.061 58 49 18 0
13.3431 38.8438 -43.9370 0.849 -0.521 0.084 57 52 19 0
13.5760 38.8985 -43.8821 0.729 -0.683 -0.033 57 54 19 0
3.0568 53.7175 -48.6730 0.927 -0.366 -0.078 77 88 51 0
3.1603 53.9806 -48.6806 0.959 -0.282 -0.011 56 71 35 0
14.2496 64.5037 -47.1296 0.808 -0.227 0.544 47 116 66 0
14.3151 64.8485 -47.1583 0.809 -0.221 0.545 49 119 70 0
25.5837 86.4393 -47.0408 -0.039 -0.431 0.902 191 182 173 0
41.7851 69.3482 -40.4293 0.642 -0.733 0.225 183 172 162 0
41.8870 69.6340 -40.4403 0.684 -0.718 0.125 183 172 163 0
41.9029 71.2711 -40.6552 -0.248 -0.891 -0.380 182 171 162 0
41.8668 79.6881 -41.7915 0.470 -0.768 0.435 179 169 157 0
41.7435 80.6678 -41.9555 0.612 -0.674 0.415 178 168 156 0
45.6166 72.5084 -39.8297 0.160 -0.823 -0.545 179 167 155 0
46.7148 72.2471 -39.5016 0.099 -0.931 -0.352 50 50 50 0
-9.8279 21.8629 -48.0818 0.702 -0.557 -0.444 233 224 216 0
-9.6843 22.0316 -48.0661 0.702 -0.557 -0.444 233 223 216 0
-5.9320 28.4568 -47.9283 0.550 -0.827 0.120 120 77 88 0
-2.0837 28.4265 -46.8917 0.290 -0.953 0.086 101 53 62 0
-1.6985 28.6779 -46.8224 0.598 -0.771 0.219 98 51 60 0
-1.0962 28.7381 -46.6689 -0.021 -0.947 -0.319 96 49 59 0
-0.4321 28.4479 -46.4515 0.855 -0.354 -0.379 96 49 58 0
5.1773 28.3006 -44.9266 0.179 -0.983 -0.041 90 37 47 0
7.9600 31.2039 -44.5726 0.511 -0.741 0.435 77 28 30 0
8.1492 33.4479 -44.8254 0.828 -0.503 0.250 75 24 23 0
7.2464 35.0127 -45.2792 0.683 -0.705 0.190 74 23 22 0
7.6661 39.4123 -45.7616 0.798 -0.520 -0.305 68 28 18 0
7.8332 39.5595 -45.7367 0.805 -0.513 -0.297 69 31 20 0
9.5712 38.2811 -45.0975 0.652 -0.750 0.115 67 30 17 0
9.6531 38.5177 -45.1075 0.673 -0.728 0.131 64 30 18 0
11.8031 39.3637 -44.6451 0.382 0.063 0.922 59 49 15 0
13.2899 38.6125 -44.1446 0.616 -0.776 -0.136 62 53 19 0
17.0850 35.0752 -42.6480 -0.184 -0.973 0.137 61 59 20 0
3.1551 53.6421 -48.8964 0.979 -0.069 0.192 64 75 35 0
3.2802 53.8785 -48.8947 0.955 -0.296 0.011 52 70 29 0
13.9938 62.3146 -47.1612 0.271 -0.264 0.926 46 115 66 0
15.3112 62.4770 -46.8298 0.953 -0.240 0.184 47 116 66 0
14.2539 64.5599 -47.3951 0.795 -0.250 0.552 46 117 67 0
26.4572 84.6198 -46.8339 0.970 0.232 0.079 190 182 173 0
26.9756 84.6381 -46.6973 0.138 -0.328 0.935 188 179 170 0
27.1696 86.5630 -46.9056 0.070 -0.387 0.920 186 177 168 0
27.1696 87.1612 -46.9865 -0.064 -0.434 0.899 185 177 168 0
47.0386 50.9855 -36.7633 -0.031 -0.973 -0.228 180 169 163 0
41.1557 71.6649 -41.1383 -0.175 -0.959 -0.224 182 172 162 0
45.7156 72.3399 -40.0062 -0.077 -0.994 -0.083 179 167 155 0
45.9371 72.2852 -39.9394 -0.116 -0.943 -0.311 177 165 154 0
-10.4317 21.7682 -48.4658 0.950 -0.189 0.250 234 225 218 0
-10.1161 22.0868 -48.4241 0.985 -0.169 0.034 233 224 217 0
-9.5484 21.9477 -48.2520 0.790 -0.546 -0.280 234 224 217 0
-9.8370 22.7072 -48.4337 0.884 0.264 0.386 233 222 216 0
-7.2570 30.1697 -48.7574 -0.177 -0.848 -0.500 116 72 82 0
-6.2151 29.5986 -48.3984 -0.159 -0.835 -0.527 113 69 78 0
-2.8060 28.1922 -47.2867 0.220 -0.888 -0.403 106 59 68 0
-2.1060 28.4674 -47.1355 0.231 -0.957 0.179 103 55 66 0
-1.6430 28.6516 -47.0358 0.584 -0.792 0.178 100 51 63 0
-1.5838 28.8932 -47.0529 0.603 -0.770 -0.207 98 50 62 0
-0.0561 29.3100 -46.6978 0.312 -0.765 -0.563 92 44 55 0
7.0292 34.9549 -45.5580 0.273 -0.962 -0.014 75 24 23 0
7.2902 34.9973 -45.4935 0.683 -0.705 0.190 74 23 22 0
7.8298 37.2981 -45.6623 0.964 -0.189 0.186 70 26 18 0
7.6337 39.1505 -45.9683 0.928 -0.302 -0.217 71 31 20 0
12.3426 38.7697 -44.6462 0.407 0.108 0.907 64 52 14 0
11.1797 42.1695 -45.4244 0.489 0.237 0.839 81 75 20 0
11.6957 42.2396 -45.2948 0.639 -0.231 0.734 90 85 26 0
11.6177 42.6794 -45.3759 0.827 -0.121 0.550 103 97 36 0
3.7972 52.5189 -48.8296 0.704 -0.205 0.680 93 91 32 0
3.8415 52.8501 -48.8629 0.701 -0.203 0.684 79 83 27 0
12.9110 45.6676 -45.4354 -0.238 -0.617 0.750 54 103 48 0
16.3293 42.7081 -44.1091 0.911 0.022 0.411 46 109 52 0
16.8131 42.4312 -43.9407 0.925 -0.322 0.202 46 108 51 0
18.5153 40.5667 -43.2269 0.814 -0.267 0.516 47 107 52 0
20.3474 38.5169 -42.4527 0.754 -0.379 -0.536 47 108 54 0
21.2962 37.6077 -42.0726 0.401 -0.836 -0.374 47 109 52 0
21.6990 37.7389 -41.9818 0.773 -0.609 -0.177 50 111 54 0
13.9614 62.4241 -47.4415 -0.188 -0.802 0.567 45 115 65 0
15.1604 62.7722 -47.1657 0.922 -0.243 0.302 46 116 66 0
27.4338 86.6690 -47.1205 -0.069 -0.440 0.895 185 176 167 0
28.7696 84.2178 -46.4253 -0.143 -0.440 0.887 185 176 167 0
47.6864 45.5201 -36.0359 0.769 0.044 0.638 183 177 164 0
47.7228 46.7172 -36.1896 0.841 0.113 0.528 181 172 163 0
44.1494 73.4219 -40.8021 0.925 -0.315 0.210 178 168 157 0
44.9857 73.3999 -40.5736 0.991 -0.055 -0.126 180 167 158 0
42.8164 80.3523 -42.1086 0.782 -0.557 -0.279 180 168 157 0
45.9537 72.3592 -40.1703 -0.116 -0.943 -0.311 177 165 153 0
46.3924 72.2571 -40.0380 0.070 -0.941 -0.332 175 165 152 0
-31.2964 0.7275 -51.4535 0.035 -0.766 -0.641 232 221 215 0
-50.3706 9.4089 -57.8233 -0.090 -0.926 -0.366 235 224 218 0
-11.9550 33.1661 -50.6869 0.166 -0.854 -0.494 130 89 100 0
-7.3907 30.3022 -49.0541 -0.157 -0.841 -0.517 116 75 84 0
-1.6054 28.3486 -47.2159 0.487 -0.823 -0.292 101 54 66 0
-0.0706 29.3460 -46.9374 0.322 -0.782 -0.534 91 46 53 0
0.1666 29.4289 -46.8846 0.328 -0.764 -0.556 90 46 53 0
0.4648 29.4564 -46.8075 0.276 -0.833 -0.480 90 46 53 0
1.8930 28.7545 -46.3234 0.264 -0.909 -0.324 90 43 53 0
1.6930 29.2294 -46.4432 0.249 -0.672 -0.697 90 42 54 0
5.3372 29.0734 -45.4336 0.082 -0.989 -0.126 87 33 44 0
7.5981 39.2238 -46.2216 0.847 -0.521 -0.104 71 33 20 0
10.8031 38.6017 -45.2668 -0.383 -0.812 0.439 68 47 18 0
13.3620 37.2884 -44.3917 0.511 0.159 0.845 100 88 31 0
15.4905 36.0839 -43.6484 -0.219 -0.938 0.269 139 124 46 0
12.6097 40.4979 -45.0387 0.542 -0.034 0.839 146 134 49 0
11.9108 42.0192 -45.4381 0.620 -0.113 0.776 150 134 48 0
11.7831 42.5186 -45.5417 0.664 0.129 0.737 149 136 47 0
12.3578 44.9744 -45.7249 -0.058 -0.680 0.731 83 105 40 0
12.7661 44.8188 -45.5927 -0.218 -0.917 0.334 77 103 41 0
13.9761 62.4624 -47.6999 -0.082 -0.852 0.517 42 115 64 0
15.5006 62.3066 -47.2650 0.495 -0.381 0.781 48 118 71 0
12.7323 71.2570 -49.2510 0.261 -0.956 -0.131 90 129 106 0
27.5133 80.7920 -46.5595 0.774 0.299 0.558 191 185 170 0
26.9817 87.2045 -47.5887 -0.146 -0.456 0.878 187 178 169 0
27.3171 87.0428 -47.4755 -0.048 -0.480 0.876 188 178 168 0
27.6983 87.3755 -47.4181 -0.023 -0.493 0.870 188 177 168 0
37.5792 68.2838 -42.1039 0.814 -0.510 0.277 184 176 165 0
41.8286 76.4868 -42.0840 0.106 -0.959 0.264 182 169 160 0
44.9546 73.6132 -40.8398 0.990 -0.059 -0.126 177 167 157 0
45.9703 72.4333 -40.4016 -0.116 -0.943 -0.311 174 164 152 0
46.4045 72.3452 -40.2717 0.062 -0.945 -0.322 172 164 150 0
46.5701 72.4528 -40.2416 -0.004 -0.944 -0.331 113 107 100 0
47.0434 72.2357 -40.0834 -0.042 -0.933 -0.356 246 247 245 0
-10.5762 23.5590 -49.2249 0.810 0.072 -0.582 231 222 215 0
-10.7466 24.2452 -49.3670 0.806 -0.015 -0.592 231 222 215 0
-8.4985 23.9614 -48.7147 0.863 -0.474 -0.175 227 216 210 0
-8.3762 24.1483 -48.7075 0.865 -0.469 -0.178 228 215 209 0
-11.7390 33.0096 -50.8594 0.150 -0.848 -0.509 131 91 103 0
-9.0346 31.0843 -49.8539 -0.152 -0.866 -0.476 126 84 95 0
-6.0520 30.1007 -48.9039 0.020 -0.847 -0.531 112 70 77 0
-0.0640 29.3631 -47.1690 0.208 -0.848 -0.487 89 47 52 0
0.4470 29.2008 -47.0071 0.119 -0.925 -0.361 88 47 52 0
0.9732 29.0224 -46.8388 0.504 -0.500 0.704 89 47 52 0
1.4548 29.1752 -46.7289 0.639 -0.016 0.769 89 44 53 0
1.4429 29.4807 -46.7747 0.249 -0.672 -0.697 89 42 54 0
6.9586 32.2967 -45.6641 0.775 -0.624 -0.096 80 29 34 0
11.5769 34.5490 -44.7194 0.618 -0.527 0.583 71 33 20 0
12.8047 40.6407 -45.2340 0.403 -0.044 0.914 170 150 50 0
12.1706 41.7448 -45.5608 0.724 0.228 0.651 171 152 47 0
11.5099 42.8883 -45.9003 0.841 0.441 0.313 169 152 45 0
12.5706 44.7496 -45.8707 -0.057 -0.684 0.727 145 145 71 0
12.7945 44.8248 -45.8202 -0.212 -0.919 0.333 131 134 67 0
13.2190 44.6463 -45.6796 0.161 -0.807 -0.568 109 123 57 0
13.3162 44.8798 -45.6856 0.227 -0.711 -0.666 87 109 46 0
14.2247 46.2343 -45.6269 -0.230 -0.970 0.084 51 110 54 0
13.4300 47.6369 -46.0390 0.349 -0.839 0.418 51 111 54 0
15.9944 63.3591 -47.5321 0.906 0.009 0.423 72 126 91 0
27.1842 81.0433 -46.9479 0.887 0.293 0.356 191 183 170 0
27.8287 80.2042 -46.6553 0.783 0.292 0.550 190 184 170 0
27.4714 85.6083 -47.5061 0.228 -0.065 0.971 187 181 169 0
28.1961 84.5591 -47.1623 0.182 -0.115 0.977 188 179 169 0
27.8185 86.6074 -47.5508 -0.011 -0.609 0.793 188 177 167 0
37.4843 68.6061 -42.4067 0.731 -0.401 0.552 184 176 165 0
41.7823 76.7358 -42.3687 0.027 -0.991 0.130 181 168 159 0
41.9945 76.7490 -42.3127 0.027 -0.991 0.130 182 169 160 0
46.4127 72.4452 -40.5085 0.070 -0.943 -0.327 170 162 148 0
46.5846 72.5342 -40.4741 -0.004 -0.944 -0.331 111 106 99 0
46.7716 72.5773 -40.4291 0.083 -0.942 -0.324 50 50 50 0
-18.1824 -5.6958 -47.4272 0.385 -0.877 -0.288 230 219 213 0
-18.0879 -5.5363 -47.4238 0.367 -0.871 -0.327 231 220 214 0
-9.6376 25.1239 -49.4262 0.863 -0.469 -0.187 227 217 210 0
-6.2813 30.0157 -49.1955 0.860 -0.280 -0.426 115 73 79 0
-5.8730 30.2705 -49.1195 0.826 -0.301 -0.476 110 67 76 0
-0.7178 28.7885 -47.4985 0.229 -0.967 -0.108 94 52 62 0
-0.8801 29.8176 -47.6878 0.154 -0.770 -0.620 90 49 55 0
1.2275 29.7005 -47.0939 0.260 -0.666 -0.699 90 44 55 0
6.1677 28.3351 -45.5482 0.764 -0.290 0.576 90 40 49 0
6.9394 32.3442 -45.9014 0.746 -0.662 -0.066 80 31 34 0
7.5141 36.7654 -46.3665 0.248 -0.694 0.676 70 29 21 0
7.0818 38.8650 -46.7806 0.953 -0.264 0.151 70 33 19 0
9.0494 37.0387 -45.9843 0.795 -0.354 0.493 71 34 21 0
12.4663 41.4269 -45.6662 0.746 0.206 0.634 181 160 47 0
11.8669 42.4956 -45.9809 0.894 0.439 0.091 180 160 45 0
12.8978 44.3812 -45.9640 0.024 -0.568 0.823 168 157 68 0
12.9028 44.7305 -46.0118 -0.212 -0.919 0.333 164 157 75 0
13.0119 44.9498 -46.0128 0.214 -0.775 -0.595 155 157 76 0
13.5658 44.9627 -45.8628 0.584 -0.383 -0.715 102 119 45 0
14.8208 45.5021 -45.5950 -0.253 -0.967 -0.033 54 111 55 0
15.1685 45.4090 -45.4866 0.702 -0.702 -0.121 53 112 57 0
15.4413 45.4124 -45.4124 0.987 -0.140 0.077 53 112 56 0
17.5239 58.0199 -46.6171 0.162 -0.717 0.678 45 114 68 0
15.4155 61.6883 -47.7113 0.850 0.194 0.489 47 116 71 0
16.1609 62.2782 -47.5902 0.422 -0.399 0.814 57 120 83 0
16.1917 62.6696 -47.6369 0.922 0.016 0.387 69 128 92 0
16.1108 63.2390 -47.7392 0.941 0.036 0.338 74 127 96 0
17.4280 77.7953 -49.4281 0.615 -0.528 -0.586 188 188 183 0
18.0615 77.6785 -49.2381 0.275 -0.797 -0.537 189 189 179 0
28.6996 77.8519 -46.3480 0.780 0.356 0.515 192 183 172 0
34.4326 69.4656 -43.5965 0.463 -0.411 0.785 187 181 167 0
41.6526 76.6127 -42.6249 -0.168 -0.917 0.362 180 168 159 0
-17.7955 -5.6562 -47.5345 0.483 -0.833 -0.270 230 219 213 0
-9.6970 25.4707 -49.7309 0.937 -0.213 -0.275 226 217 208 0
-18.9723 36.3769 -53.8362 -0.109 -0.677 -0.727 208 194 185 0
-9.3315 31.6777 -50.5130 -0.084 -0.830 -0.552 123 86 94 0
-6.1756 30.8501 -49.5262 0.808 -0.297 -0.509 108 66 78 0
-0.8536 28.9304 -47.7876 0.260 -0.962 -0.086 96 53 63 0
0.4524 28.6548 -47.3887 0.548 -0.648 0.528 92 51 59 0
0.7126 28.7156 -47.3257 0.520 -0.568 0.638 92 51 59 0
0.6767 31.4277 -47.7213 -0.176 -0.796 -0.579 88 43 50 0
7.9459 36.9786 -46.5089 0.859 -0.459 -0.229 72 35 23 0
7.2734 38.6892 -46.9374 0.891 -0.455 -0.007 69 37 22 0
13.1002 44.1691 -46.1121 -0.007 -0.629 0.778 179 167 60 0
13.0791 44.5505 -46.1721 -0.226 -0.909 0.351 181 171 70 0
12.9549 45.0640 -46.2794 0.239 -0.770 -0.592 181 172 74 0
15.1065 45.1737 -45.7024 -0.377 -0.904 -0.199 59 110 51 0
15.5283 44.9825 -45.5591 -0.344 -0.932 -0.114 56 113 56 0
15.9010 44.8529 -45.4380 0.160 -0.972 -0.172 54 113 57 0
15.9414 45.1592 -45.4704 0.185 -0.933 -0.308 53 111 55 0
18.9033 41.6012 -44.1488 0.704 -0.706 0.077 52 111 55 0
19.2387 41.5030 -44.0425 0.299 -0.862 0.410 53 111 55 0
17.2207 57.7034 -46.9021 0.261 -0.901 0.346 42 115 63 0
17.4507 57.7711 -46.8484 -0.006 -0.677 0.736 43 115 64 0
16.3224 62.0876 -47.7730 0.517 -0.370 0.772 67 128 92 0
15.9149 63.1675 -48.0388 0.638 -0.770 0.012 69 125 93 0
15.8865 63.6562 -48.1161 0.867 -0.479 0.140 75 125 97 0
13.0637 73.8326 -50.3407 0.062 -0.398 0.915 172 185 178 0
18.3254 77.2773 -49.3815 0.432 -0.788 -0.438 188 189 179 0
28.6587 78.5910 -46.7227 0.779 0.359 0.514 193 182 172 0
34.7658 68.8092 -43.6498 0.443 -0.351 0.825 188 179 167 0
28.8548 83.2762 -47.3350 -0.028 -0.185 0.982 186 178 165 0
43.5822 77.9967 -42.5285 0.429 -0.885 -0.179 177 164 155 0
46.6244 72.6656 -40.9326 -0.010 -0.952 -0.307 113 108 100 0
-19.5379 37.1785 -54.3762 -0.056 -0.657 -0.752 207 192 184 0
-0.3161 29.9549 -48.0181 -0.019 -0.935 -0.354 93 53 61 0
-0.1676 31.3208 -48.1732 0.313 -0.710 -0.631 90 46 56 0
0.4618 31.3483 -48.0029 0.227 -0.659 -0.717 89 44 51 0
5.0369 29.4586 -46.4651 0.166 -0.986 0.025 91 44 53 0
3.9095 31.4314 -47.0605 -0.132 -0.986 -0.103 90 41 47 0
6.0763 32.3495 -46.5925 0.663 -0.605 -0.441 80 34 37 0
6.2497 32.4821 -46.5636 0.671 -0.611 -0.420 78 34 35 0
3.7068 36.6232 -47.8622 0.981 0.006 -0.195 80 33 33 0
12.7135 38.5164 -45.6410 0.051 -0.389 0.920 198 179 47 0
11.7396 39.9924 -46.1225 0.306 -0.469 0.828 199 180 48 0
12.2563 40.0560 -45.9886 0.007 -0.585 0.811 202 181 53 0
11.5709 44.6933 -46.8443 0.612 0.420 0.670 195 177 49 0
11.7616 44.8134 -46.8088 0.716 0.450 0.534 193 178 51 0
13.2467 44.0268 -46.2847 -0.022 -0.639 0.769 190 176 58 0
13.1078 44.5562 -46.3992 -0.223 -0.921 0.320 189 176 62 0
14.6167 45.4942 -46.1162 -0.372 -0.906 -0.204 88 119 44 0
15.5398 45.0113 -45.7914 -0.343 -0.932 -0.114 65 111 50 0
15.8983 44.9004 -45.6762 -0.101 -0.995 -0.024 62 113 56 0
16.1068 44.9854 -45.6307 -0.146 -0.989 0.015 58 112 58 0
17.3456 57.5712 -47.0952 0.251 -0.898 0.362 42 115 64 0
18.1087 57.2394 -46.8364 0.324 -0.721 0.612 48 115 71 0
15.7974 61.6561 -48.1105 0.322 -0.626 0.710 49 119 75 0
16.1008 61.6212 -48.0214 0.367 -0.562 0.742 53 120 77 0
16.2465 61.8307 -48.0112 0.372 -0.565 0.737 59 120 84 0
16.3909 62.0427 -48.0017 0.638 -0.445 0.629 73 128 97 0
16.0850 62.9630 -48.2185 0.482 -0.875 -0.036 73 125 96 0
15.5274 64.2869 -48.5630 0.944 -0.330 -0.019 78 126 100 0
11.4980 71.6010 -50.7287 0.965 0.238 0.112 86 125 106 0
13.7530 73.2515 -50.3416 0.357 -0.261 0.897 170 183 179 0
23.6456 62.0287 -45.9915 0.137 -0.561 0.817 178 183 179 0
34.6787 69.0985 -43.9528 0.766 -0.244 0.595 190 180 171 0
43.4374 78.5485 -42.8854 0.873 -0.382 -0.305 180 167 157 0
-34.5008 0.2150 -53.4497 0.613 -0.756 -0.229 231 220 210 0
-7.0680 23.7758 -49.2337 0.979 -0.158 0.133 227 216 210 0
-6.2285 30.0355 -49.9078 0.744 -0.454 -0.490 121 86 92 0
-6.0327 30.1703 -49.8729 0.794 -0.424 -0.437 118 81 88 0
0.1779 31.3315 -48.3133 -0.309 -0.835 -0.454 90 47 54 0
3.7768 31.5851 -47.3488 -0.154 -0.971 -0.184 90 43 48 0
2.4602 34.4041 -48.1239 0.762 -0.208 -0.614 87 41 50 0
2.5245 34.6552 -48.1424 0.720 -0.288 -0.632 85 39 47 0
2.9791 34.8362 -48.0422 0.705 -0.169 -0.689 81 35 40 0
8.1659 36.4832 -46.8379 0.291 -0.955 -0.059 73 39 27 0
9.7694 35.3889 -46.2331 0.441 -0.891 -0.108 70 40 21 0
13.4580 39.3357 -45.7791 0.429 0.148 0.891 207 187 52 0
12.5079 46.4385 -47.0734 0.577 -0.302 -0.759 192 175 64 0
12.6863 46.5748 -47.0436 0.567 -0.326 -0.756 188 175 66 0
13.8833 45.7641 -46.5929 -0.214 -0.922 -0.323 174 171 67 0
16.1615 44.5985 -45.7901 0.131 -0.806 -0.577 75 114 52 0
16.4691 44.5516 -45.6977 0.121 -0.805 -0.581 66 112 56 0
18.1100 57.2958 -47.0892 0.301 -0.780 0.549 50 119 74 0
15.9834 61.4294 -48.2803 0.387 -0.639 0.664 51 122 78 0
16.4223 62.0557 -48.2490 0.729 -0.509 0.458 73 125 95 0
16.1098 62.9871 -48.4710 0.482 -0.875 -0.036 77 125 96 0
15.2051 64.8602 -48.9943 0.862 -0.504 0.056 80 125 99 0
18.3429 73.3383 -49.3507 0.808 -0.344 0.478 182 184 181 0
18.5264 73.5106 -49.3246 0.814 -0.333 0.476 182 184 180 0
38.2488 57.8219 -41.5623 0.704 0.402 0.586 192 182 172 0
34.3128 77.6800 -45.5370 0.491 -0.746 0.450 187 175 169 0
34.4909 77.8240 -45.5083 0.483 -0.758 0.438 186 174 168 0
34.8898 77.4328 -45.3406 0.420 -0.787 0.452 185 174 169 0
35.1636 77.3409 -45.2511 0.334 -0.840 0.427 184 173 168 0
32.9187 85.2302 -47.0197 0.940 0.267 -0.211 182 172 163 0
45.5535 74.2934 -41.9184 0.734 -0.625 -0.265 177 166 155 0
45.6991 74.4728 -41.9039 0.735 -0.622 -0.269 175 165 154 0
-34.5788 0.2444 -53.7161 0.615 -0.753 -0.236 230 220 209 0
-8.9987 -1.7826 -46.2658 -0.242 -0.944 0.224 233 225 220 0
2.5230 33.4347 -48.1999 0.949 -0.307 0.070 89 43 49 0
2.3979 33.8671 -48.2982 0.888 -0.185 -0.420 89 43 49 0
2.5012 34.0787 -48.3003 0.854 -0.241 -0.461 91 46 51 0
2.3758 34.5146 -48.3992 0.988 0.112 -0.110 85 41 47 0
2.4729 34.7339 -48.4041 0.767 -0.275 -0.579 84 41 46 0
2.5875 34.9364 -48.4017 0.945 -0.032 -0.326 83 40 45 0
1.6494 38.7853 -49.2276 0.619 -0.662 -0.423 81 39 39 0
5.6091 35.3724 -47.6205 0.774 -0.413 0.479 82 37 36 0
9.2894 35.6227 -46.6280 0.473 -0.875 -0.105 75 44 25 0
13.4571 40.0463 -46.1102 0.388 0.173 0.905 207 190 51 0
13.3656 40.4950 -46.2014 0.445 0.187 0.876 208 190 51 0
12.2662 46.0622 -47.3240 0.371 -0.645 0.668 201 182 58 0
11.8796 47.2827 -47.6108 0.280 -0.948 0.153 195 178 60 0
16.9917 41.1084 -45.2772 0.803 -0.596 -0.025 191 176 61 0
17.1707 41.2229 -45.2439 0.826 -0.562 0.033 186 174 60 0
17.4204 41.2458 -45.1774 0.629 -0.778 -0.011 183 174 63 0
17.4034 57.1818 -47.5154 0.430 -0.728 0.534 46 114 68 0
16.0661 60.0670 -48.3118 0.899 -0.210 0.384 46 116 71 0
16.4027 62.1489 -48.5225 0.806 -0.468 0.362 76 125 96 0
12.0818 70.3341 -50.9292 0.942 0.310 0.131 83 125 101 0
18.6369 73.3914 -49.5437 0.814 -0.323 0.482 182 184 179 0
19.0113 73.2212 -49.4141 0.828 -0.401 0.392 184 186 181 0
34.1964 67.7846 -44.3715 0.624 0.396 0.674 189 180 171 0
32.6822 71.6532 -45.3614 0.468 0.358 0.808 189 180 171 0
34.5169 69.6511 -44.5552 0.408 -0.802 0.437 189 180 171 0
34.9212 77.4640 -45.5860 0.390 -0.758 0.523 185 174 166 0
34.8458 78.2229 -45.7182 0.247 -0.928 0.279 186 174 167 0
37.2305 73.5232 -44.3632 0.797 0.054 -0.602 185 173 164 0
32.3426 87.4000 -47.7619 0.950 0.249 -0.187 182 174 163 0
45.6950 74.6122 -42.1556 0.738 -0.608 -0.291 172 162 152 0
-34.7158 0.2974 -54.0030 0.647 -0.721 -0.249 229 221 209 0
-6.9719 31.3106 -50.7890 0.018 -0.841 -0.541 118 83 91 0
-6.6986 31.3831 -50.7229 0.104 -0.791 -0.604 115 78 87 0
-5.9710 31.3706 -50.5165 -0.125 -0.879 -0.461 113 73 83 0
-6.0448 31.7392 -50.5918 -0.182 -0.909 -0.376 111 71 81 0
-5.3078 31.7135 -50.3808 -0.205 -0.964 -0.171 107 68 77 0
-4.7475 31.5316 -50.1964 -0.220 -0.939 -0.262 104 68 76 0
-0.7263 32.2114 -49.1666 -0.373 -0.875 -0.309 94 51 59 0
2.3804 33.6001 -48.4987 0.883 -0.387 0.267 83 42 46 0
2.3339 34.2696 -48.6107 0.888 -0.185 -0.420 89 46 51 0
2.3521 34.8810 -48.6960 0.712 -0.622 -0.325 86 44 48 0
2.5796 34.9726 -48.6456 0.710 -0.633 -0.308 83 42 46 0
2.7123 35.1576 -48.6356 0.624 -0.396 -0.673 82 39 46 0
1.5446 38.9234 -49.5205 0.666 -0.655 -0.356 76 35 36 0
5.5956 35.0993 -47.8166 0.753 -0.437 0.492 79 37 38 0
5.7097 35.2988 -47.8140 0.753 -0.437 0.492 79 36 35 0
6.1908 37.6912 -48.0324 0.225 -0.944 -0.240 74 37 28 0
8.4579 35.9123 -47.1322 0.717 -0.607 0.342 73 40 26 0
8.8308 40.7684 -47.7452 0.890 0.042 -0.454 202 182 55 0
13.4133 37.1506 -45.9224 0.207 -0.978 -0.014 211 193 55 0
14.1599 38.5717 -45.9226 0.379 0.043 0.924 211 196 52 0
14.8924 41.7383 -46.1848 0.421 -0.428 0.800 206 193 57 0
16.9015 40.9213 -45.4993 0.927 -0.025 -0.373 197 182 58 0
17.1463 40.9516 -45.4350 0.893 -0.421 -0.160 193 180 61 0
17.2220 41.1983 -45.4502 0.906 -0.394 -0.156 189 177 61 0
17.4632 41.2321 -45.3874 0.736 -0.637 0.229 187 176 62 0
17.0734 45.6400 -46.1485 0.551 -0.758 0.348 59 114 59 0
17.3420 57.3330 -47.8014 0.638 -0.646 0.420 45 113 68 0
15.9309 59.9050 -48.5781 0.943 -0.251 -0.221 46 114 70 0
12.1127 70.3529 -51.1957 0.942 0.310 0.131 85 128 104 0
11.8712 71.2125 -51.3906 0.948 0.310 0.074 91 130 109 0
13.8898 71.7823 -50.9075 0.005 -0.408 0.913 173 185 181 0
45.6891 74.7570 -42.4091 0.714 -0.613 -0.337 170 160 151 0
-34.8051 0.3313 -54.2744 0.653 -0.714 -0.253 229 221 209 0
-4.8137 20.2124 -48.7683 0.545 0.008 0.839 230 222 216 0
-16.8230 36.3764 -54.5729 0.060 -0.593 -0.803 201 185 180 0
-16.4811 36.4222 -54.4832 0.077 -0.571 -0.818 199 181 177 0
-5.3171 31.7445 -50.6313 -0.252 -0.929 -0.270 109 71 82 0
-1.5593 32.6930 -49.7112 -0.298 -0.919 -0.258 94 53 60 0
-1.1550 32.6303 -49.5876 -0.325 -0.905 -0.274 97 56 62 0
-0.0237 31.8953 -49.1584 0.251 -0.644 -0.723 100 58 64 0
3.0491 32.0582 -48.3146 0.233 -0.956 -0.177 85 44 51 0
3.1174 32.2984 -48.3312 0.633 -0.755 0.171 86 45 52 0
1.9745 34.0208 -48.9111 0.699 -0.691 0.185 83 41 49 0
2.1500 34.4770 -48.9295 0.410 -0.881 0.235 86 44 50 0
2.4141 34.8481 -48.9103 0.778 -0.628 -0.016 84 43 47 0
2.5096 35.0701 -48.9164 0.719 -0.618 -0.319 81 40 45 0
2.5264 35.3706 -48.9565 0.646 -0.387 -0.658 82 39 46 0
5.5729 35.1524 -48.0633 0.585 -0.517 0.625 80 39 40 0
5.8482 37.7611 -48.3748 0.210 -0.946 -0.246 75 39 30 0
8.4181 36.3077 -47.4319 0.000 -0.893 -0.450 75 45 28 0
8.7714 40.1956 -47.9123 0.834 0.263 0.485 204 185 54 0
8.9455 40.6736 -47.9344 0.885 0.027 -0.464 208 190 55 0
13.7005 36.2050 -45.9243 0.612 -0.599 0.516 214 197 58 0
13.7560 36.4634 -45.9472 0.761 -0.643 0.079 216 199 58 0
13.5583 37.0173 -46.0857 0.223 -0.974 -0.029 215 199 57 0
15.0995 36.1851 -45.5261 0.287 -0.957 -0.042 218 202 57 0
17.3414 41.0861 -45.6241 0.888 -0.271 -0.373 193 179 57 0
17.8139 40.8209 -45.4510 0.738 -0.571 0.360 192 179 59 0
19.0346 54.4098 -47.1339 0.872 -0.064 0.486 44 113 66 0
16.4547 59.1647 -48.5722 0.829 -0.263 0.494 46 115 71 0
16.4917 60.8248 -48.8094 0.762 0.073 0.644 64 124 90 0
16.3725 61.4448 -48.9356 0.732 0.149 0.664 72 127 94 0
12.0160 71.0502 -51.5996 0.951 0.291 -0.110 94 132 113 0
14.2014 71.3402 -51.0256 -0.067 -0.354 0.933 173 184 182 0
14.4118 71.4748 -50.9862 0.101 -0.204 0.974 172 183 181 0
34.4825 81.6930 -46.8409 0.629 -0.032 -0.777 182 174 161 0
31.4966 89.7507 -48.8867 0.808 0.073 -0.584 182 174 162 0
45.6664 74.9528 -42.6756 0.712 -0.605 -0.357 174 164 155 0
44.9681 81.5735 -43.8608 0.878 -0.372 -0.300 255 255 255 0
-34.5843 0.0146 -54.4055 0.472 -0.854 -0.219 230 221 212 0
-9.8503 -1.7694 -47.1140 0.156 -0.890 0.429 229 222 213 0
-18.1429 35.5178 -55.0848 0.964 0.040 0.261 214 204 202 0
-17.3848 37.1850 -55.1207 0.068 -0.575 -0.815 199 184 180 0
-6.1644 31.8875 -51.1369 -0.162 -0.717 -0.678 120 80 91 0
-4.2501 31.4482 -50.5272 0.347 -0.583 -0.735 110 74 82 0
-3.9779 31.5143 -50.4599 0.356 -0.577 -0.735 109 72 80 0
-1.9195 32.1236 -49.9672 0.343 -0.612 -0.712 100 57 68 0
-1.7500 32.8927 -50.0349 -0.325 -0.914 -0.242 95 54 61 0
-1.1893 32.6870 -49.8447 -0.332 -0.906 -0.264 99 58 64 0
-0.1852 32.0693 -49.4666 0.169 -0.737 -0.654 100 58 64 0
0.3437 32.1915 -49.3348 0.629 -0.295 -0.719 94 52 60 0
3.0707 32.0639 -48.5413 0.249 -0.951 -0.181 85 43 53 0
3.1497 32.2939 -48.5535 0.485 -0.835 -0.259 87 45 54 0
1.9340 34.0875 -49.1689 0.748 -0.642 -0.169 85 43 53 0
2.4601 35.4650 -49.2270 0.899 -0.396 -0.185 86 43 50 0
1.7634 36.8002 -49.6259 0.430 -0.056 0.901 84 44 46 0
2.9068 36.6193 -49.2740 0.540 -0.705 0.459 85 45 45 0
1.8706 38.9830 -49.9242 0.937 0.315 0.152 83 43 42 0
5.8900 37.4224 -48.5480 0.020 -0.840 -0.542 77 43 33 0
6.5408 37.3823 -48.3571 -0.280 -0.918 -0.282 79 44 33 0
14.9220 36.4297 -45.8340 0.180 -0.910 0.373 219 204 56 0
14.8102 36.8859 -45.9344 0.232 -0.891 0.389 220 204 55 0
14.9512 37.0447 -45.9183 0.310 -0.725 0.615 220 204 54 0
9.1857 44.5943 -48.6924 0.220 -0.911 0.348 221 205 57 0
18.8709 44.0217 -45.8562 0.084 -0.793 -0.603 62 112 57 0
19.3851 44.0372 -45.7126 0.166 -0.763 -0.625 55 112 55 0
15.9711 59.1096 -48.9521 0.529 -0.532 0.662 43 115 66 0
16.5620 58.6359 -48.7130 0.853 -0.235 0.465 46 115 69 0
16.6511 58.9240 -48.7311 0.853 -0.235 0.465 48 117 72 0
11.9719 70.7129 -51.8353 0.963 0.262 -0.066 91 129 109 0
14.7655 70.4813 -51.0073 0.500 -0.079 0.862 173 183 183 0
14.5077 71.8711 -51.2898 -0.022 -0.438 0.898 171 183 182 0
22.1219 74.3068 -49.4947 0.564 0.097 0.820 193 190 183 0
34.1895 52.2707 -42.7493 -0.207 -0.954 -0.218 192 189 184 0
34.5567 51.9885 -42.6025 -0.151 -0.988 -0.025 194 191 185 0
40.0456 60.2984 -42.2957 0.981 0.191 0.030 185 176 167 0
39.8010 61.3580 -42.5247 0.977 0.213 0.002 186 176 167 0
34.7410 80.5682 -46.8549 0.683 0.013 -0.730 183 175 162 0
45.6611 75.0967 -42.9302 0.712 -0.605 -0.357 172 162 153 0
-34.7144 0.0644 -54.6912 0.499 -0.839 -0.218 230 222 211 0
-47.3955 6.6125 -59.3053 0.806 -0.541 0.240 232 224 213 0
-46.6908 6.5789 -59.0991 0.272 -0.843 -0.464 232 224 212 0
0.5549 15.7336 -47.0088 0.953 -0.283 -0.108 229 226 220 0
-17.3332 34.8929 -55.0261 0.939 0.003 0.343 216 204 203 0
-5.4979 31.9474 -51.2009 0.070 -0.598 -0.799 112 77 85 0
-5.0521 31.8661 -51.0614 0.081 -0.586 -0.806 112 78 85 0
-4.2963 31.8172 -50.8383 0.285 -0.608 -0.741 118 81 89 0
-2.1847 32.3882 -50.3225 0.343 -0.612 -0.712 98 56 66 0
-2.4776 32.9626 -50.4934 0.389 -0.567 -0.726 97 55 65 0
-2.0595 32.8913 -50.3633 -0.118 -0.836 -0.536 97 55 65 0
-0.4286 32.3190 -49.8108 0.169 -0.737 -0.654 100 57 64 0
0.7263 32.1668 -49.4581 0.095 -0.984 -0.148 94 52 61 0
1.1086 37.1591 -50.1080 0.007 -0.821 0.572 87 46 50 0
1.9217 38.9618 -50.1501 0.937 0.330 0.118 84 43 43 0
5.8527 37.4937 -48.8051 0.019 -0.830 -0.558 79 43 34 0
7.5004 36.3907 -48.1673 0.233 -0.931 -0.282 83 49 36 0
10.7405 37.7056 -47.4425 0.985 -0.164 0.058 211 193 55 0
12.0960 36.4969 -46.8720 0.566 -0.765 0.306 213 196 56 0
12.7409 36.0866 -46.6256 0.603 -0.573 0.555 216 199 58 0
6.8317 44.2139 -49.5474 0.894 0.115 0.434 219 205 57 0
14.3996 36.1082 -46.1555 0.262 -0.954 -0.145 220 206 55 0
14.5859 36.5366 -46.1675 -0.034 -0.859 0.511 220 206 54 0
14.9483 36.7586 -46.0978 0.348 -0.755 0.556 222 207 56 0
9.6735 45.1169 -48.8737 -0.304 -0.942 -0.138 222 207 56 0
10.0994 44.9581 -48.7281 -0.304 -0.942 -0.138 221 207 54 0
10.6873 44.5990 -48.5057 -0.295 -0.946 -0.134 220 206 54 0
14.2205 41.3148 -46.9982 0.869 -0.043 0.493 217 203 54 0
14.3681 41.4764 -46.9806 0.786 -0.061 0.615 216 201 54 0
9.9120 47.3616 -49.1469 -0.020 -0.997 -0.078 216 200 53 0
10.7976 46.6244 -48.7821 0.079 -0.983 -0.165 216 201 53 0
19.3121 44.5429 -46.0360 -0.112 -0.819 -0.562 53 111 54 0
18.1197 55.4985 -48.0418 0.710 0.123 0.694 43 115 68 0
16.2480 58.7484 -49.0700 0.802 -0.191 0.566 43 115 68 0
16.5264 60.8932 -49.3166 0.795 0.305 0.525 73 127 95 0
16.3041 61.6750 -49.4989 0.784 0.330 0.527 78 126 98 0
17.7982 59.7743 -48.7835 0.921 0.230 -0.313 81 125 100 0
36.6863 40.6690 -40.4891 -0.226 -0.910 0.347 185 187 182 0
34.2005 52.3185 -42.9695 -0.207 -0.954 -0.218 192 190 184 0
34.5854 52.0023 -42.8116 -0.177 -0.980 -0.096 194 191 185 0
35.1910 51.2564 -42.5254 -0.012 -0.940 0.341 194 189 182 0
26.2554 72.5107 -48.3065 0.044 -0.858 -0.511 196 187 180 0
26.2740 72.9885 -48.3738 0.053 -0.954 -0.296 195 186 179 0
45.4993 75.0896 -43.2071 0.712 -0.615 -0.338 173 160 151 0
45.6500 75.2585 -43.1897 0.710 -0.610 -0.352 174 161 152 0
46.5387 73.1986 -42.6230 -0.052 -0.939 -0.341 172 161 152 0
-34.7719 0.0855 -54.9523 0.506 -0.832 -0.228 230 221 211 0
-47.5390 6.6698 -59.6240 0.726 -0.678 0.112 232 224 213 0
-47.9932 7.1116 -59.8220 0.780 -0.477 -0.404 234 226 215 0
-43.6235 16.0989 -59.9478 0.830 -0.485 0.274 234 225 220 0
-0.4282 16.7292 -47.6565 0.864 0.228 0.448 230 223 220 0
-16.8843 34.8758 -55.1602 0.933 -0.068 0.355 215 204 202 0
-4.6281 32.1320 -51.2243 0.285 -0.608 -0.741 113 77 87 0
-4.3010 32.1514 -51.1334 0.288 -0.607 -0.741 111 74 84 0
-3.0209 33.1702 -50.9226 0.350 -0.612 -0.709 100 59 68 0
-2.7985 33.2792 -50.8756 -0.011 -0.754 -0.657 98 58 67 0
-2.4053 33.2319 -50.7556 -0.118 -0.806 -0.579 98 57 67 0
-1.9103 33.0897 -50.5918 -0.291 -0.898 -0.331 97 57 65 0
-0.6946 32.5899 -50.1665 0.275 -0.647 -0.711 107 66 72 0
2.2196 35.7613 -49.8173 0.740 -0.650 0.174 94 53 59 0
2.1570 36.1439 -49.8939 0.704 -0.611 0.361 90 49 54 0
2.3389 36.2835 -49.8632 0.908 -0.108 0.404 88 47 51 0
1.7255 37.2215 -50.1830 0.907 0.002 0.420 87 47 51 0
5.7259 36.3624 -48.9039 0.837 -0.327 -0.439 84 47 42 0
12.0913 36.2136 -47.0556 0.496 -0.790 0.362 214 197 56 0
12.2664 36.3378 -47.0244 0.496 -0.790 0.362 217 200 57 0
12.8380 36.0101 -46.8102 0.603 -0.573 0.555 218 202 58 0
6.8932 43.8285 -49.7147 0.971 -0.026 0.237 222 207 57 0
11.0664 45.9684 -48.8462 0.385 -0.869 0.310 218 203 55 0
11.3129 46.0235 -48.7840 0.384 -0.868 0.316 216 202 53 0
17.6105 45.0979 -46.8358 -0.098 -0.880 -0.465 95 116 41 0
18.2878 45.6320 -46.7236 -0.127 -0.912 -0.389 59 113 54 0
17.1970 57.3671 -48.8369 0.727 -0.025 0.686 43 116 70 0
12.5188 69.9792 -52.1137 -0.016 -0.597 0.802 98 133 114 0
15.0677 69.6478 -51.3319 0.030 -0.471 0.881 171 184 182 0
26.1789 72.7499 -48.6212 0.035 -0.853 -0.520 196 187 180 0
39.8927 62.8192 -43.1645 0.865 -0.500 0.039 186 176 166 0
45.4965 75.2258 -43.4610 0.712 -0.615 -0.338 173 160 149 0
45.6451 75.4018 -43.4454 0.711 -0.614 -0.342 173 160 150 0
-46.8835 6.1472 -59.6235 0.275 -0.617 -0.737 230 222 211 0
-48.2526 6.9596 -60.1438 0.780 -0.477 -0.404 232 224 213 0
-48.1247 7.1643 -60.1387 0.780 -0.477 -0.404 233 224 215 0
-16.2781 34.7307 -55.2282 0.968 -0.226 -0.113 215 204 202 0
-16.2892 35.0603 -55.2824 0.887 -0.316 -0.337 212 201 199 0
-9.1144 34.4990 -53.1275 -0.125 -0.687 -0.716 123 92 100 0
-3.4009 33.2277 -51.2840 0.519 -0.636 -0.571 102 65 75 0
-3.1320 33.2958 -51.2170 0.507 -0.636 -0.582 105 67 78 0
-2.9209 33.4156 -51.1747 0.314 -0.632 -0.708 104 66 77 0
-1.7237 32.6347 -50.7087 -0.246 -0.813 0.528 101 64 73 0
-1.5060 33.0539 -50.7109 -0.301 -0.915 -0.270 99 61 68 0
-0.7897 32.7030 -50.4501 0.519 -0.642 -0.564 103 63 71 0
-0.5615 33.1103 -50.4474 0.649 -0.285 -0.706 101 59 69 0
-0.4716 33.3371 -50.4566 0.642 -0.278 -0.715 100 58 68 0
0.1905 33.0277 -50.2178 0.992 0.110 0.057 99 57 69 0
0.2054 33.3239 -50.2594 0.982 0.161 0.098 97 55 67 0
-1.0496 35.7761 -51.0009 0.267 -0.962 -0.063 95 53 62 0
5.4592 36.3491 -49.2136 0.992 -0.119 -0.046 86 51 47 0
5.4152 36.7176 -49.2833 0.988 -0.151 -0.035 85 50 46 0
6.1366 36.2860 -49.0086 0.212 -0.972 -0.096 86 52 46 0
12.2542 36.3857 -47.2608 0.984 -0.074 0.164 218 202 57 0
13.0706 37.7276 -47.2333 0.919 -0.026 0.394 225 212 54 0
12.7800 38.3970 -47.4207 0.960 -0.166 0.226 224 212 53 0
12.8130 38.6902 -47.4565 0.959 -0.166 0.229 224 211 53 0
13.2012 40.5837 -47.6378 0.266 -0.948 0.176 226 212 56 0
11.2962 46.0867 -49.0390 0.195 -0.965 0.176 218 204 53 0
17.3447 42.2902 -46.7078 -0.161 -0.893 -0.421 198 183 53 0
16.7974 60.1622 -49.6329 0.925 -0.262 -0.274 75 127 95 0
12.7206 69.7257 -52.2887 -0.029 -0.595 0.803 101 133 117 0
13.0319 69.7012 -52.1952 -0.024 -0.592 0.806 131 159 146 0
13.2817 69.7738 -52.1344 -0.024 -0.592 0.806 162 185 176 0
13.5823 69.7636 -52.0462 0.016 -0.468 0.884 167 188 180 0
25.5896 64.6252 -47.7898 0.329 -0.730 -0.599 189 189 180 0
34.4344 52.4309 -43.3524 -0.101 -0.939 0.328 196 192 183 0
35.6486 50.9275 -42.7696 -0.182 -0.982 0.055 196 190 180 0
45.5868 43.0726 -38.6890 0.796 0.291 0.531 191 182 175 0
33.1196 81.3124 -48.2034 0.436 -0.335 -0.835 185 175 164 0
45.4896 75.3747 -43.7187 0.722 -0.600 -0.345 173 159 148 0
45.6401 75.5461 -43.7018 0.722 -0.600 -0.345 174 160 149 0
-16.9621 37.9174 -56.1885 -0.174 -0.746 -0.643 198 183 181 0
-16.7897 38.1058 -56.1680 0.031 -0.596 -0.802 194 178 178 0
-3.8513 32.4165 -51.5314 -0.006 -0.958 -0.287 108 75 86 0
-3.8830 33.3753 -51.6903 -0.442 -0.896 -0.045 103 69 79 0
-3.5492 33.3863 -51.5954 0.519 -0.636 -0.571 102 68 78 0
-3.2563 33.4333 -51.5179 0.505 -0.634 -0.587 103 69 79 0
-1.5144 32.4684 -50.8626 -0.248 -0.816 0.522 99 65 74 0
-0.9633 32.5798 -50.7203 -0.229 -0.904 0.361 97 61 69 0
-0.7059 32.6509 -50.6569 -0.238 -0.903 0.357 98 62 69 0
-0.7855 33.0340 -50.7398 0.709 -0.611 -0.352 100 64 71 0
-0.6627 33.2302 -50.7349 0.698 -0.613 -0.370 99 59 68 0
-0.4208 33.3155 -50.6781 0.649 -0.500 -0.573 98 57 67 0
0.1477 33.0938 -50.4789 0.973 0.181 0.143 98 57 68 0
0.2279 33.3289 -50.4923 0.985 0.150 0.089 98 58 68 0
1.8775 35.5187 -50.3567 0.520 -0.245 -0.818 97 57 65 0
0.8457 37.5098 -50.9667 0.523 -0.166 -0.836 96 59 63 0
5.1908 36.0149 -49.4745 0.262 -0.959 0.108 87 52 52 0
5.1250 36.4045 -49.5544 0.942 -0.315 0.119 86 52 50 0
5.1807 36.6695 -49.5797 0.962 -0.273 -0.009 87 55 50 0
6.1426 36.3107 -49.2450 0.212 -0.972 -0.096 90 58 51 0
13.1671 35.0647 -47.0157 0.271 -0.609 0.746 219 204 61 0
13.2258 36.9284 -47.2898 0.979 -0.162 -0.122 223 211 53 0
13.1389 38.0130 -47.4845 0.951 -0.187 0.248 227 215 54 0
12.8469 38.6869 -47.6744 0.940 -0.268 0.212 226 214 54 0
12.8508 39.0156 -47.7246 0.892 -0.336 0.304 227 214 54 0
13.1504 40.6834 -47.8984 0.148 -0.987 -0.058 226 214 55 0
11.6888 42.7964 -48.6519 0.622 -0.734 -0.272 225 215 57 0
13.8987 40.7993 -47.6998 0.747 -0.640 -0.178 223 214 57 0
11.1378 45.6022 -49.2500 0.545 -0.715 0.438 221 210 55 0
11.2511 45.8228 -49.2516 0.333 -0.941 0.059 220 209 54 0
11.3529 46.0582 -49.2589 0.195 -0.965 0.176 218 207 54 0
17.6072 45.1934 -47.3122 0.018 -0.855 -0.518 148 148 57 0
17.7798 58.2760 -49.3063 0.536 -0.835 -0.125 73 126 93 0
12.9281 69.4629 -52.4596 -0.021 -0.587 0.809 116 146 132 0
25.3865 65.0750 -48.1654 0.311 -0.746 -0.589 189 188 182 0
35.6600 50.9744 -42.9864 -0.246 -0.968 0.054 198 191 182 0
32.0047 81.7296 -48.8506 0.362 -0.360 -0.860 187 175 166 0
32.4797 81.7785 -48.7207 0.255 -0.491 -0.833 186 173 165 0
32.7968 81.6092 -48.6024 0.261 -0.487 -0.834 185 175 165 0
41.0585 63.7607 -43.4205 0.344 -0.414 0.842 188 175 166 0
40.2460 80.6281 -46.2914 0.967 0.214 0.141 182 169 160 0
38.4335 93.7905 -48.8730 0.086 -0.996 0.034 178 164 155 0
39.3154 93.3079 -48.5421 0.106 -0.805 0.583 175 161 150 0
-34.7382 0.2947 -55.7012 0.433 -0.857 -0.281 231 219 213 0
-18.0553 39.1837 -56.9763 0.007 -0.624 -0.782 196 180 180 0
-15.8740 39.3628 -56.3696 -0.092 -0.621 -0.779 162 144 148 0
-3.7605 32.3597 -51.7394 0.040 -0.978 -0.206 112 79 90 0
-3.8295 33.3518 -51.9159 -0.431 -0.901 0.057 107 74 85 0
-1.9438 33.1961 -51.3424 -0.331 -0.938 -0.102 100 66 74 0
-0.5601 32.5416 -50.8364 -0.238 -0.903 0.357 99 64 72 0
-0.7870 33.0610 -50.9844 0.628 -0.608 -0.485 98 62 71 0
-0.7294 33.3182 -51.0082 0.590 -0.627 -0.509 99 60 69 0
-0.6909 33.5940 -51.0404 0.579 -0.483 -0.656 98 58 67 0
-1.7393 35.8473 -51.7009 0.140 -0.816 -0.561 96 58 67 0
-1.1703 35.9467 -51.5509 0.362 -0.671 -0.647 99 60 69 0
2.6203 33.5585 -50.0710 0.769 -0.316 -0.556 98 58 67 0
1.5815 36.1600 -50.7835 0.635 -0.181 -0.751 97 60 67 0
0.5870 38.4555 -51.4349 0.616 -0.240 -0.750 91 58 62 0
0.8674 38.5035 -51.3609 0.648 -0.244 -0.721 91 59 62 0
0.9554 38.7454 -51.3734 0.422 -0.398 -0.814 92 60 63 0
5.3648 36.5089 -49.7373 0.962 -0.264 0.065 89 58 53 0
5.6926 36.4902 -49.6389 0.013 -0.999 0.040 89 58 53 0
11.4943 36.0201 -47.8759 0.767 -0.603 0.221 217 202 60 0
13.1881 37.9914 -47.6937 0.954 -0.180 0.242 227 215 53 0
13.0599 38.4729 -47.8069 0.962 -0.239 0.131 227 215 55 0
13.0609 38.8045 -47.8589 0.848 -0.287 0.445 228 216 56 0
13.4973 38.6216 -47.7031 0.409 -0.842 0.353 226 216 56 0
13.7259 38.6833 -47.6463 0.310 -0.946 0.094 226 216 56 0
13.8019 38.9263 -47.6624 0.761 -0.554 0.337 226 216 56 0
14.0195 39.0004 -47.6108 0.684 -0.449 0.575 226 215 55 0
13.7276 40.7050 -47.9645 0.804 -0.571 -0.163 225 215 58 0
14.1820 40.4922 -47.7987 0.752 -0.617 -0.233 224 214 59 0
10.9031 45.9352 -49.6113 0.513 -0.785 -0.348 225 213 57 0
11.1038 46.0483 -49.5707 0.513 -0.785 -0.348 222 210 54 0
11.3386 46.1184 -49.5134 0.288 -0.955 -0.066 219 208 55 0
11.9760 45.6825 -49.2591 0.274 -0.918 0.286 217 207 56 0
17.1818 42.9400 -47.3114 0.786 -0.618 0.035 197 185 50 0
17.2715 43.1758 -47.3224 0.829 -0.549 0.109 195 183 50 0
17.7543 45.4036 -47.5332 -0.125 -0.870 -0.478 145 143 55 0
20.9845 49.8241 -47.2898 0.893 -0.280 0.353 44 116 63 0
17.8854 56.9112 -49.3093 0.728 0.024 0.685 53 123 78 0
17.3292 59.0313 -49.8054 0.390 -0.909 0.151 74 125 95 0
30.8317 57.7137 -45.6673 0.706 0.423 0.568 194 190 181 0
39.3846 44.9842 -41.1707 0.421 0.042 0.906 193 189 180 0
39.3538 45.4415 -41.2517 0.386 0.034 0.922 193 189 180 0
43.3004 51.3480 -41.0342 0.813 0.138 0.566 186 179 169 0
31.4529 82.5552 -49.4030 0.365 -0.361 -0.858 186 176 164 0
31.6948 82.5751 -49.3357 0.362 -0.360 -0.860 187 175 165 0
32.0315 82.3673 -49.2049 0.255 -0.491 -0.833 188 175 167 0
40.2800 80.6588 -46.5345 0.967 0.204 0.154 181 169 157 0
46.7866 73.5735 -43.5235 -0.058 -0.953 -0.298 111 104 95 0
-35.3776 -0.1378 -56.0621 0.429 -0.883 -0.190 226 216 210 0
-15.8831 36.0877 -56.1220 0.667 -0.744 -0.033 206 195 194 0
-4.6602 33.4965 -52.4268 -0.007 -0.948 -0.318 113 80 91 0
-4.3985 33.5751 -52.3627 0.038 -0.982 -0.184 113 81 92 0
0.2518 32.4300 -50.8203 0.994 0.040 -0.103 99 62 70 0
0.2328 32.7562 -50.8777 0.994 0.040 -0.103 100 63 71 0
0.1286 33.1638 -50.9730 0.970 0.163 -0.178 99 62 70 0
-1.5716 36.0362 -51.9273 0.141 -0.819 -0.557 98 60 68 0
-1.3578 36.1537 -51.8834 0.352 -0.679 -0.644 98 61 69 0
2.6941 33.5142 -50.2783 0.706 -0.398 -0.586 100 62 71 0
-0.0045 38.4176 -51.8477 0.823 -0.222 -0.522 94 62 65 0
-0.1511 38.8954 -51.9666 0.874 -0.008 -0.485 93 61 64 0
-0.2147 39.2920 -52.0483 0.869 -0.014 -0.495 91 59 62 0
5.4363 35.8223 -49.8433 0.191 -0.943 0.272 91 60 58 0
13.1679 38.0513 -47.9362 0.963 -0.234 0.132 229 217 56 0
13.1457 38.4086 -47.9995 0.897 -0.442 0.005 228 218 58 0
13.1222 38.7689 -48.0637 0.846 -0.298 0.443 227 218 58 0
13.8173 38.2792 -47.7825 0.751 -0.611 0.250 227 218 58 0
14.3843 39.9444 -47.8815 0.944 0.327 -0.028 226 216 58 0
11.5838 44.0610 -49.3556 0.907 -0.132 -0.400 227 214 59 0
18.1363 39.3303 -46.6863 0.962 0.093 0.257 212 203 55 0
17.7080 42.2937 -47.2830 -0.060 -0.900 -0.432 198 187 51 0
17.3017 43.1794 -47.5427 0.788 -0.613 0.056 196 184 50 0
18.0220 45.4502 -47.6932 -0.343 -0.938 -0.051 139 141 56 0
20.8395 49.7054 -47.5459 0.936 -0.254 0.245 42 114 60 0
20.9858 49.8750 -47.5301 0.941 -0.217 0.258 43 115 62 0
43.3545 53.5688 -41.5743 0.255 -0.205 0.945 187 176 164 0
30.8037 83.6026 -50.0232 0.246 -0.563 -0.789 187 177 164 0
41.5733 64.2376 -43.7924 0.832 -0.038 0.553 182 174 162 0
40.3421 80.6113 -46.7572 0.964 0.228 0.133 180 168 156 0
51.6331 52.6616 -39.0083 0.750 0.146 0.645 175 166 155 0
-35.5357 -0.0776 -56.3613 0.510 -0.833 -0.214 226 218 210 0
-35.1711 0.0068 -56.2677 0.429 -0.883 -0.190 229 219 209 0
-34.6941 0.2738 -56.1703 0.320 -0.944 -0.075 230 221 213 0
-16.0450 36.2429 -56.4608 0.688 -0.725 0.005 208 197 197 0
-15.5774 36.1840 -56.3139 0.867 -0.484 -0.121 207 194 194 0
-5.4947 33.9512 -52.9916 -0.259 -0.869 -0.423 119 88 99 0
-3.1437 35.6198 -52.5683 0.941 0.002 -0.340 102 67 75 0
-0.0993 33.0927 -51.2678 0.980 0.145 -0.137 101 66 73 0
-0.3407 33.6306 -51.4251 0.967 0.146 -0.207 101 65 72 0
0.1440 34.1131 -51.3600 0.057 -0.668 -0.742 103 66 74 0
0.6144 33.9794 -51.2003 0.058 -0.666 -0.743 102 64 72 0
0.7653 34.1494 -51.1832 0.086 -0.674 -0.734 100 64 71 0
1.3230 33.9285 -50.9838 -0.023 -0.772 -0.635 98 63 70 0
-0.9030 37.0375 -52.1371 -0.173 -0.700 -0.692 98 63 70 0
0.6369 38.7972 -51.9669 0.872 -0.107 -0.477 90 60 62 0
0.3334 39.4373 -52.1588 0.833 -0.141 -0.535 92 61 64 0
0.4966 39.6062 -52.1380 0.838 -0.402 -0.368 96 65 67 0
8.7501 33.6688 -48.7589 -0.172 -0.969 0.176 97 68 60 0
10.2395 35.2305 -48.5717 0.872 -0.347 0.344 204 185 61 0
12.1289 35.3768 -48.0398 0.660 -0.744 0.101 220 209 56 0
12.2886 35.5174 -48.0154 0.729 -0.683 -0.038 222 212 57 0
10.0105 39.7436 -49.3633 0.230 -0.423 0.876 226 217 59 0
13.1470 38.1119 -48.1794 0.973 -0.228 -0.024 229 220 59 0
13.0889 38.5119 -48.2607 0.934 -0.347 0.088 229 221 61 0
12.2183 39.8733 -48.7351 0.703 -0.667 -0.246 227 220 60 0
14.1416 40.6195 -48.2895 0.983 0.103 -0.150 229 216 58 0
8.5786 48.1607 -51.1350 0.140 -0.958 0.249 229 215 60 0
11.3495 46.1898 -50.0042 0.295 -0.940 -0.172 222 211 57 0
17.8210 40.1134 -47.1267 0.971 -0.051 0.233 210 203 55 0
17.5478 40.8067 -47.3182 0.870 -0.431 0.240 211 201 54 0
17.6656 40.9996 -47.3145 0.868 -0.438 0.233 210 199 53 0
17.7218 41.2726 -47.3418 0.884 -0.386 0.262 209 198 51 0
17.7051 41.6415 -47.4060 0.834 -0.457 0.309 206 196 50 0
16.2632 47.1478 -48.7135 -0.447 -0.894 -0.030 171 158 55 0
17.2248 46.2143 -48.2810 -0.371 -0.927 -0.047 166 155 58 0
17.8820 45.6872 -48.0032 -0.419 -0.906 -0.055 151 148 59 0
