ply
format ascii 1.0
element vertex 833
property float x
property float y
property float z
property float nx
property float ny
property float nz
property uchar diffuse_red
property uchar diffuse_green
property uchar diffuse_blue
property uchar class
end_header
-28.9395 -2.2060 -24.7165 0.879 -0.438 -0.190 220 204 175 0
-18.0707 4.0737 -23.4956 -0.195 -0.548 0.814 235 218 188 0
-21.0785 34.1652 -23.6863 -0.226 -0.589 0.776 232 221 189 0
-13.2676 32.1047 -22.8392 -0.215 -0.561 0.800 146 89 82 0
-10.4008 30.0294 -22.5345 0.648 -0.752 0.122 143 86 79 0
-3.8014 39.8855 -21.7652 0.573 -0.478 0.665 137 63 52 0
0.3876 46.4892 -21.2752 0.910 -0.393 0.134 127 62 58 0
1.2589 45.8532 -21.1826 0.383 -0.838 -0.388 129 65 60 0
1.5103 46.6088 -21.1516 0.908 -0.340 0.243 117 56 50 0
1.4056 49.2057 -21.1510 0.326 -0.352 0.877 119 74 66 0
1.1609 57.3762 -21.1401 0.594 -0.766 -0.248 224 212 196 0
0.1798 59.4134 -21.2382 0.628 -0.730 -0.269 223 214 197 0
19.1587 49.5118 -19.2028 0.255 -0.956 0.144 222 211 192 0
9.1842 65.2368 -20.2239 0.034 -0.937 -0.346 220 209 191 0
9.0358 65.8940 -20.2371 -0.067 -0.821 -0.566 221 210 192 0
29.8675 55.6801 -17.9999 0.056 -0.890 -0.452 206 191 168 0
29.2958 58.9147 -18.0476 0.954 0.299 0.031 205 191 164 0
28.9758 59.9716 -18.0778 0.953 0.290 0.085 205 191 163 0
29.0196 60.3292 -18.0713 0.838 0.254 -0.483 205 191 163 0
29.0546 65.7587 -18.0424 0.586 -0.654 -0.479 208 193 164 0
33.9114 75.3174 -17.4656 0.734 -0.313 -0.603 180 158 119 0
42.5614 62.5887 -16.5759 0.596 -0.788 -0.151 171 147 111 0
42.6254 64.4775 -16.5601 0.277 -0.958 -0.076 167 143 107 0
42.8754 64.3332 -16.5334 0.650 -0.629 -0.425 167 141 106 0
43.0273 64.9739 -16.5137 0.631 -0.524 -0.572 168 142 109 0
-28.9456 -1.7965 -24.9211 0.918 -0.309 -0.249 225 207 174 0
-31.7055 -0.4390 -25.2227 0.964 -0.088 0.251 226 208 179 0
-30.8106 -0.3915 -25.1233 -0.094 -0.985 -0.144 227 210 180 0
-24.0335 -3.0439 -24.3803 -0.187 -0.796 -0.576 227 210 180 0
-50.2633 18.4531 -27.2181 -0.336 -0.901 -0.272 232 217 183 0
-25.2809 19.2979 -24.4441 0.006 -0.860 0.510 235 224 194 0
-10.5282 30.1509 -22.7713 0.634 -0.760 0.147 141 83 78 0
-6.1836 32.2740 -22.2823 0.504 -0.378 0.776 135 66 56 0
-4.2556 35.0167 -22.0592 0.702 -0.332 0.630 124 58 49 0
-4.1624 35.2345 -22.0482 0.702 -0.332 0.630 125 58 50 0
-3.7865 37.6658 -21.9983 0.606 -0.505 0.614 129 56 47 0
-3.9122 39.6987 -22.0055 0.576 -0.425 0.698 132 57 46 0
-2.7505 42.1081 -21.8686 0.646 -0.640 0.415 159 85 74 0
0.3716 46.5390 -21.5074 0.848 -0.520 0.102 128 61 58 0
2.2026 48.6620 -21.2972 0.589 -0.613 0.526 121 74 68 0
1.5050 56.5920 -21.3481 0.564 0.074 0.823 224 212 196 0
-1.2517 60.8751 -21.6396 0.506 0.275 0.818 223 213 196 0
10.2055 65.0468 -20.3547 0.006 -0.819 -0.574 220 209 190 0
18.2352 61.3858 -19.4763 0.015 -0.999 -0.032 217 205 181 0
30.5724 50.7522 -18.1432 0.930 0.037 -0.366 211 199 173 0
34.7677 58.1058 -17.6533 0.164 -0.757 0.632 207 188 164 0
35.1513 57.7392 -17.6120 0.268 -0.623 0.735 207 188 164 0
43.8998 59.6822 -16.6350 -0.037 -0.929 -0.367 170 146 110 0
42.8491 65.0227 -16.7337 0.392 -0.560 -0.730 168 142 109 0
-31.7535 -0.4228 -25.4392 0.959 -0.051 0.278 227 209 180 0
-41.0360 14.8758 -26.4491 -0.318 -0.892 -0.321 236 219 189 0
-25.2187 19.2654 -24.6655 0.006 -0.851 0.524 236 225 197 0
-4.0784 34.5675 -22.2622 0.511 -0.587 0.627 123 58 46 0
-3.2547 41.9943 -22.1545 0.732 -0.493 0.470 150 74 58 0
-2.9344 41.9946 -22.1186 0.740 -0.606 0.291 154 78 64 0
-2.5299 42.2372 -22.0727 0.865 -0.494 0.082 168 95 86 0
-0.6380 45.9624 -21.8528 0.877 -0.086 0.474 135 60 57 0
0.4648 46.1184 -21.7287 0.670 -0.733 0.116 128 58 56 0
2.3550 45.7080 -21.5175 0.633 -0.657 0.411 118 55 50 0
2.2494 48.6414 -21.5233 0.686 -0.525 0.504 120 70 67 0
3.0741 48.3808 -21.4313 0.324 -0.920 0.219 121 74 66 0
-0.0579 53.5858 -21.7720 0.508 -0.860 -0.042 121 83 69 0
-0.8913 59.6558 -21.8530 0.306 -0.062 0.950 223 211 195 0
26.8712 80.2536 -18.6959 0.455 -0.868 -0.199 204 185 160 0
27.0896 80.3196 -18.6712 0.462 -0.861 -0.213 203 185 161 0
42.0379 62.6071 -17.0306 0.362 -0.724 -0.587 172 149 110 0
-49.3127 18.2518 -27.6285 -0.330 -0.899 -0.287 236 219 190 0
-22.1562 31.1167 -24.5373 0.639 0.297 0.709 238 226 202 0
-18.7371 30.8896 -24.1496 0.996 -0.086 -0.015 236 222 197 0
-18.6638 33.5230 -24.1392 0.278 -0.927 0.252 149 117 98 0
-10.8010 30.7003 -23.2493 0.715 -0.662 0.225 139 78 74 0
-4.0858 35.5121 -22.4836 0.657 -0.375 0.654 128 58 47 0
-3.8643 36.8478 -22.4575 0.626 -0.551 0.553 131 60 48 0
-3.5135 40.3192 -22.4150 0.607 -0.603 0.517 146 73 53 0
-3.8496 40.9840 -22.4526 0.784 -0.532 0.321 148 75 55 0
-3.1610 41.9245 -22.3738 0.732 -0.493 0.470 151 74 57 0
-3.4746 44.5985 -22.4073 0.294 -0.894 0.339 157 84 78 0
0.8659 45.6995 -21.9140 0.737 -0.661 0.137 131 59 56 0
0.0118 53.5392 -22.0048 0.503 -0.864 -0.034 116 76 68 0
1.2888 58.1246 -21.8564 0.808 0.105 0.580 222 213 197 0
30.8071 53.6765 -18.5106 0.254 -0.966 0.041 207 195 169 0
35.4101 58.2292 -17.9848 0.586 -0.506 0.633 206 187 163 0
26.8842 80.3152 -18.9352 0.455 -0.868 -0.199 205 186 162 0
27.1519 80.2721 -18.9048 0.463 -0.861 -0.210 206 186 162 0
27.3353 80.4152 -18.8839 0.461 -0.864 -0.201 205 185 162 0
33.7266 78.8526 -18.1599 0.684 -0.246 -0.687 179 156 121 0
44.4423 54.6087 -16.9628 0.339 -0.796 -0.502 177 154 118 0
43.6110 59.6243 -17.0533 0.108 -0.875 -0.472 172 150 112 0
43.7823 59.6726 -17.0338 0.099 -0.868 -0.486 171 149 112 0
45.2512 57.7726 -16.8686 0.281 -0.748 -0.601 168 146 109 0
-31.7649 -0.4256 -25.8635 0.969 -0.208 0.131 229 210 181 0
-40.0758 6.2745 -26.8204 -0.345 -0.921 0.181 230 213 183 0
-17.0115 14.4349 -24.1785 -0.223 -0.545 0.808 235 223 197 0
-22.7505 33.3824 -24.8467 0.688 -0.586 -0.428 235 223 197 0
-19.6510 31.3100 -24.4900 0.747 -0.453 -0.488 235 223 197 0
-18.5925 33.4818 -24.3697 0.278 -0.927 0.252 147 109 95 0
-4.1742 35.3107 -22.7164 0.562 -0.803 -0.199 123 56 45 0
-4.0177 35.4695 -22.6985 0.678 -0.734 -0.039 123 55 43 0
-3.7339 39.9181 -22.6683 0.564 -0.824 -0.047 138 67 45 0
1.3060 53.1367 -22.0969 0.058 -0.654 -0.754 121 79 72 0
1.4008 58.0233 -22.0885 0.729 0.175 0.662 222 213 198 0
36.3342 57.6582 -18.0804 0.624 -0.769 0.137 206 188 164 0
36.5207 57.7032 -18.0590 0.593 -0.796 0.124 206 188 164 0
33.8007 78.7688 -18.3819 0.668 -0.276 -0.691 179 156 122 0
-16.4233 14.0747 -24.3218 -0.272 -0.599 0.753 235 223 198 0
-15.4586 13.7146 -24.2092 -0.141 -0.622 0.771 236 223 198 0
-23.2090 33.4416 -25.1438 0.328 -0.850 -0.413 235 223 197 0
-18.8955 32.2293 -24.6413 -0.203 -0.771 0.603 229 211 184 0
-18.9540 32.5750 -24.6487 0.972 0.082 -0.221 202 182 155 0
-19.0879 32.9814 -24.6650 0.978 -0.047 -0.201 170 146 122 0
-18.8117 33.3682 -24.6336 0.279 -0.937 0.212 143 109 94 0
-5.5072 31.7474 -23.0874 0.441 -0.498 0.747 126 54 48 0
-5.3560 31.9071 -23.0701 0.441 -0.498 0.747 121 51 46 0
-3.7707 35.2574 -22.8923 0.368 -0.873 0.320 124 58 45 0
-3.6191 39.8282 -22.8829 0.652 -0.750 -0.106 138 70 45 0
2.8981 45.1830 -22.1366 0.561 -0.770 0.304 124 58 52 0
3.2616 46.1486 -22.0962 0.845 -0.517 0.133 121 57 52 0
36.5693 57.2198 -18.2525 0.947 -0.322 0.002 206 187 163 0
37.4982 56.9819 -18.1443 0.202 -0.775 0.599 205 187 163 0
33.9981 78.3791 -18.5889 0.790 -0.004 -0.614 179 157 124 0
44.5742 55.3781 -17.3206 0.195 -0.915 -0.353 177 153 118 0
43.7805 66.0736 -17.4319 0.063 -0.748 -0.661 161 139 102 0
-14.9090 13.3772 -24.3532 -0.134 -0.621 0.773 235 223 199 0
-14.0656 13.0880 -24.2534 -0.224 -0.910 0.348 236 224 200 0
-18.6440 27.6717 -24.8354 0.802 0.072 0.593 237 226 200 0
-18.0993 30.4405 -24.7801 0.982 -0.053 -0.179 231 218 196 0
-18.7743 31.5528 -24.8627 0.552 -0.292 0.781 231 218 193 0
-18.5489 31.9732 -24.8375 -0.200 -0.780 0.592 206 187 163 0
-19.0759 32.6856 -24.9015 0.949 -0.037 0.314 158 134 112 0
-7.6969 29.5941 -23.5576 0.867 -0.139 0.479 137 66 64 0
-3.7942 35.6087 -23.1185 0.827 -0.433 0.360 128 60 45 0
-3.6446 36.0832 -23.1024 0.405 -0.645 0.648 128 62 45 0
-3.1991 41.3840 -23.0666 0.701 -0.623 0.346 153 83 57 0
-3.0500 41.5604 -23.0496 0.772 -0.537 0.339 153 80 55 0
3.4273 46.3375 -22.3048 0.884 -0.411 0.224 133 68 64 0
3.4714 46.6356 -22.3006 0.887 -0.397 0.236 136 72 67 0
3.4893 46.9657 -22.2995 0.926 -0.144 0.350 116 54 49 0
3.3723 51.0622 -22.3259 0.123 -0.841 0.527 117 76 70 0
1.7470 58.4563 -22.5393 0.635 0.213 0.743 223 212 200 0
22.2525 60.0331 -20.1395 0.158 -0.983 0.098 217 205 181 0
33.7579 79.0751 -18.8491 0.786 -0.009 -0.618 178 156 127 0
44.4107 55.4078 -17.5267 0.192 -0.905 -0.380 174 153 120 0
40.1733 71.0388 -18.0720 0.553 -0.191 -0.811 167 145 108 0
-18.6222 27.6677 -25.0645 0.510 -0.026 0.860 235 225 200 0
-18.7385 28.0394 -25.0799 0.238 -0.389 0.890 232 223 200 0
-18.7582 31.8526 -25.0989 -0.219 -0.763 0.608 210 192 170 0
-18.9631 32.3116 -25.1252 0.916 -0.101 0.388 167 144 124 0
-19.1031 32.7218 -25.1436 0.919 -0.120 0.376 141 111 94 0
-19.2478 33.1375 -25.1626 0.981 -0.058 -0.185 139 103 90 0
-19.0647 33.2960 -25.1416 0.657 -0.485 -0.578 137 99 88 0
-14.0017 30.4566 -24.5290 -0.145 -0.979 -0.144 135 86 83 0
-6.8908 29.7883 -23.6831 0.412 -0.617 0.671 129 56 55 0
-5.0738 31.1061 -23.4735 0.444 -0.778 0.444 126 52 53 0
-2.6655 34.2532 -23.2018 0.925 -0.375 -0.061 126 61 45 0
-2.7434 34.6310 -23.2127 0.882 -0.460 -0.100 129 64 47 0
-3.2650 35.7419 -23.2794 0.578 -0.695 0.428 128 64 44 0
-3.1877 36.5973 -23.2740 0.357 -0.592 0.722 128 64 46 0
-3.3190 41.5331 -23.3112 0.335 -0.840 0.427 155 88 59 0
-3.0339 41.5704 -23.2775 0.681 -0.626 0.381 158 88 59 0
-3.0038 41.8696 -23.2753 0.682 -0.661 0.314 155 83 58 0
3.0718 51.0980 -22.5955 0.182 -0.590 0.787 116 71 67 0
3.4656 50.9851 -22.5483 0.125 -0.839 0.529 117 74 69 0
4.7656 54.2291 -22.4084 0.903 -0.430 0.018 221 211 199 0
22.7175 59.7149 -20.3044 0.018 -0.587 0.810 213 202 180 0
22.1559 89.9794 -20.5036 0.907 0.104 0.409 204 185 162 0
22.1090 90.6757 -20.5122 0.930 0.163 0.330 204 186 162 0
32.0538 71.7687 -19.2505 0.524 -0.527 -0.669 203 183 159 0
33.0393 70.0465 -19.1261 0.886 0.047 -0.462 202 183 158 0
32.9007 70.8779 -19.1462 0.861 0.057 -0.505 202 182 157 0
33.7749 79.7075 -19.0813 0.778 -0.018 -0.628 179 154 127 0
33.8309 80.1451 -19.0765 0.657 -0.234 -0.717 179 153 126 0
34.2127 79.7647 -19.0296 0.582 -0.331 -0.743 178 154 125 0
40.0210 71.5443 -18.3051 0.558 -0.191 -0.808 167 145 108 0
-19.0185 29.7063 -25.3554 0.168 -0.944 0.283 229 222 205 0
-18.8370 29.8607 -25.3345 0.221 -0.849 0.480 227 221 204 0
-19.5318 30.6826 -25.4224 0.695 -0.638 -0.331 225 219 202 0
-19.0849 32.4216 -25.3787 0.918 -0.092 0.386 142 114 99 0
-18.8747 32.5576 -25.3543 0.588 -0.216 0.780 135 102 89 0
-19.0173 32.9712 -25.3738 0.913 -0.360 0.193 137 98 88 0
-18.7132 33.0335 -25.3377 0.638 -0.628 -0.445 135 95 87 0
-14.9178 30.3255 -24.8676 -0.293 -0.876 0.383 134 91 85 0
-12.7028 29.4301 -24.5971 -0.028 -0.708 0.705 136 85 83 0
-9.8524 29.1285 -24.2539 -0.044 -0.817 0.575 142 78 69 0
-3.0628 35.5705 -23.4769 0.719 -0.488 0.495 126 65 43 0
-3.0990 35.9138 -23.4832 0.740 -0.350 0.574 128 66 44 0
-3.1531 36.2757 -23.4918 0.706 -0.374 0.602 128 66 45 0
-3.2904 39.8973 -23.5287 0.681 -0.712 0.173 139 78 48 0
-3.6215 40.8821 -23.5740 0.735 -0.642 0.218 145 85 53 0
-3.0030 41.5653 -23.5038 0.655 -0.708 0.262 155 87 55 0
3.2766 50.8852 -22.8042 0.525 -0.439 0.729 111 66 63 0
3.4922 50.9896 -22.7790 0.234 -0.860 0.453 111 68 64 0
2.1857 52.9628 -22.9467 0.333 -0.942 0.030 113 72 67 0
2.4569 53.0046 -22.9145 0.335 -0.942 0.035 114 76 70 0
4.8508 54.1603 -22.6342 0.895 -0.446 0.031 219 210 196 0
4.9667 54.3937 -22.6217 0.895 -0.446 0.031 221 213 199 0
0.6222 60.8004 -23.1785 0.704 -0.007 0.711 223 214 200 0
33.7274 82.8622 -19.3372 0.615 -0.295 -0.731 174 153 122 0
33.6477 83.6648 -19.3513 0.560 -0.293 -0.775 172 151 119 0
33.7735 83.9440 -19.3378 0.569 -0.219 -0.792 171 151 117 0
39.9314 71.8837 -18.5316 0.312 -0.689 -0.653 169 147 111 0
-17.7494 26.7642 -25.4164 0.202 -0.160 0.966 231 223 205 0
-22.4994 32.9574 -26.0347 -0.330 -0.777 0.536 227 218 204 0
-18.6139 32.3678 -25.5601 0.380 -0.124 0.916 133 97 87 0
-18.8867 32.8834 -25.5967 0.949 -0.066 0.310 134 94 86 0
-12.6929 29.4372 -24.8227 -0.107 -0.879 0.465 138 85 81 0
-10.7727 28.7504 -24.5854 -0.076 -0.857 0.510 141 80 74 0
-6.6543 29.3328 -24.0908 0.387 -0.504 0.773 129 55 54 0
-6.3503 29.3596 -24.0542 0.144 -0.913 0.381 130 56 54 0
-5.9985 29.3444 -24.0115 0.220 -0.867 0.446 134 60 57 0
-5.8587 29.5110 -23.9957 0.336 -0.859 0.386 129 54 52 0
-3.2445 39.8765 -23.7514 0.674 -0.736 0.063 141 80 52 0
-3.2105 40.1665 -23.7493 0.778 -0.625 0.065 142 81 52 0
-3.5743 40.8601 -23.7981 0.735 -0.642 0.218 146 85 54 0
3.7754 51.7881 -22.9843 0.941 -0.141 0.307 113 77 73 0
2.8241 53.3420 -23.1103 0.052 -0.905 -0.423 116 82 76 0
4.7598 53.5557 -22.8774 0.323 -0.934 -0.153 221 207 190 0
4.7649 53.9293 -22.8794 0.556 -0.558 0.616 219 209 191 0
3.0595 57.6801 -23.1120 0.735 0.197 0.649 223 214 197 0
32.1833 74.2864 -19.7011 0.870 0.183 -0.458 201 180 159 0
33.2714 83.5334 -19.6338 0.658 -0.205 -0.724 176 154 122 0
-41.5079 5.2372 -28.3757 0.574 -0.267 0.774 227 214 185 0
-42.2607 5.7965 -28.4725 0.516 -0.290 0.806 230 214 186 0
-43.0997 16.1911 -28.6610 0.454 -0.547 0.704 235 221 195 0
-42.8955 16.3516 -28.6373 0.103 -0.893 -0.438 235 221 195 0
-17.9514 32.1617 -25.7156 0.990 -0.141 -0.007 133 90 84 0
-16.7561 31.5166 -25.5641 0.760 -0.647 -0.060 134 89 83 0
-14.0784 29.9798 -25.2237 -0.290 -0.871 0.396 137 87 82 0
-12.9077 29.3355 -25.0751 -0.273 -0.865 0.422 138 85 79 0
-9.7290 28.2025 -24.6769 0.379 -0.714 0.589 138 74 67 0
-8.8567 28.3404 -24.5712 0.260 -0.694 0.672 137 70 65 0
-5.9379 29.3096 -24.2221 0.221 -0.861 0.458 134 60 58 0
4.1462 45.2851 -23.1201 0.807 -0.434 0.401 123 48 45 0
4.0127 51.9038 -23.1911 0.741 -0.172 0.649 112 78 72 0
4.0335 52.2510 -23.1914 0.733 -0.224 0.642 120 87 79 0
4.7605 53.5948 -23.1135 0.323 -0.934 -0.153 222 206 188 0
4.8532 53.8567 -23.1044 0.547 -0.565 0.618 220 208 188 0
2.8893 58.3413 -23.3817 0.819 0.224 0.528 221 214 196 0
11.7050 64.9789 -22.3578 0.245 -0.692 -0.679 220 211 192 0
31.1435 66.9677 -19.9957 0.980 0.011 -0.197 206 189 165 0
33.7359 84.8656 -19.8263 0.550 -0.302 -0.779 174 151 117 0
40.7456 69.9167 -18.8451 -0.285 -0.932 0.224 168 145 113 0
34.3775 90.0791 -19.7908 0.846 -0.063 -0.529 165 141 107 0
-41.7308 5.3295 -28.6368 0.608 -0.290 0.739 229 214 185 0
-42.0849 5.7172 -28.6843 0.528 -0.555 0.643 230 214 187 0
-35.7913 15.0000 -27.9948 0.596 0.262 0.759 231 217 195 0
-27.1953 12.3706 -26.9069 0.922 -0.317 -0.221 232 217 194 0
-26.6073 12.2917 -26.8335 0.874 -0.285 -0.394 231 216 193 0
-16.9307 31.3726 -25.8193 0.759 -0.650 0.044 134 86 82 0
-14.1358 30.0405 -25.4610 -0.034 -0.399 0.916 138 84 78 0
-14.4588 30.5906 -25.5062 0.322 -0.937 -0.132 135 81 75 0
-12.7793 29.5366 -25.2885 0.598 -0.717 -0.357 131 73 68 0
-8.4582 28.5962 -24.7453 0.449 -0.423 0.787 133 65 64 0
-7.8215 28.9217 -24.6697 0.418 -0.786 0.456 129 57 58 0
-6.6188 28.7642 -24.5195 0.532 -0.687 0.496 130 55 57 0
-5.6579 29.3724 -24.4065 0.184 -0.931 0.314 123 49 48 0
-3.3314 40.0145 -24.2205 0.800 -0.596 -0.069 137 80 50 0
4.3382 51.5375 -23.3823 0.880 -0.201 0.429 107 72 67 0
4.2219 52.4285 -23.4052 0.934 -0.205 0.294 117 87 77 0
4.7378 53.6638 -23.3532 0.326 -0.932 -0.155 222 203 187 0
4.9782 53.7370 -23.3241 0.547 -0.565 0.618 221 206 186 0
5.1623 53.8819 -23.3028 0.500 -0.595 0.629 220 208 187 0
5.4010 53.9562 -23.2740 0.574 -0.665 0.479 222 211 190 0
5.0986 55.1159 -23.3224 0.688 -0.399 0.606 222 213 194 0
2.6399 59.1103 -23.6646 0.877 0.206 0.435 220 215 196 0
30.9362 67.0006 -20.2415 0.961 0.249 -0.118 204 189 165 0
23.9784 82.9462 -21.2540 0.965 0.260 0.040 207 187 165 0
44.8320 59.6172 -18.4529 0.993 0.085 0.078 169 146 114 0
45.8917 57.7637 -18.3042 -0.253 -0.862 -0.440 168 145 111 0
34.2368 90.5827 -20.0586 0.852 -0.037 -0.523 167 143 108 0
-29.5404 -1.3829 -27.2744 0.942 -0.231 -0.242 226 214 183 0
-27.8454 -1.0557 -27.0662 0.812 -0.212 -0.544 231 214 188 0
-41.8194 5.3641 -28.8814 0.391 -0.721 0.572 231 215 189 0
-42.2590 17.0887 -29.0635 0.980 0.135 -0.149 228 217 196 0
-35.8304 15.0223 -28.2381 0.650 0.022 0.760 229 215 196 0
-26.6358 12.0667 -27.0575 0.884 -0.296 -0.362 231 219 195 0
-24.1164 20.2191 -26.8312 0.017 -0.942 -0.335 235 223 201 0
-15.7455 30.7473 -25.8997 0.223 -0.266 0.938 131 80 77 0
-13.3287 29.7021 -25.5865 -0.037 -0.394 0.918 129 72 69 0
-13.1306 29.8338 -25.5632 -0.047 -0.396 0.917 126 67 64 0
-8.9047 28.1272 -25.0168 0.272 -0.748 0.605 133 68 67 0
-2.6938 31.6941 -24.2797 0.322 -0.851 0.416 109 42 37 0
5.2129 48.3098 -23.4722 0.934 0.308 0.180 99 53 52 0
4.3921 51.8804 -23.6135 0.725 -0.158 0.670 106 74 65 0
4.2674 52.7858 -23.6389 0.946 -0.280 0.164 115 87 76 0
31.7110 64.9449 -20.3427 0.915 0.325 0.240 205 192 168 0
39.0828 55.7630 -19.3222 0.046 -0.990 0.136 201 185 160 0
44.9393 59.4212 -18.6304 0.993 0.088 0.077 168 145 114 0
45.0303 60.6966 -18.6328 0.334 -0.515 -0.790 168 144 111 0
-29.6034 -1.5687 -27.4892 0.962 -0.167 -0.217 224 212 180 0
-42.1814 5.5160 -29.1625 0.645 -0.717 0.264 231 214 188 0
-22.6942 9.6768 -26.7539 -0.419 -0.904 0.086 228 217 195 0
-25.8652 31.5862 -27.4201 0.670 -0.468 0.576 232 226 213 0
-19.0434 29.2084 -26.5304 0.632 -0.727 0.268 230 221 205 0
-18.9584 29.4355 -26.5224 0.561 -0.827 0.012 231 220 205 0
-12.9178 28.8120 -25.7525 0.164 -0.624 0.764 129 75 74 0
-13.0198 29.4700 -25.7734 -0.051 -0.410 0.911 130 71 70 0
-12.7250 29.5233 -25.7369 -0.051 -0.405 0.913 127 67 67 0
-6.2305 28.7531 -24.9079 0.596 -0.482 0.642 133 59 60 0
-5.7235 28.6056 -24.8422 0.642 -0.670 0.373 131 56 55 0
-2.0695 33.5158 -24.4407 0.592 -0.458 0.663 113 54 43 0
-3.2503 39.9837 -24.6682 0.707 -0.700 -0.098 136 82 48 0
-1.8027 39.8134 -24.4835 0.865 -0.208 0.457 148 96 55 0
5.0095 46.4606 -23.7046 0.790 -0.613 -0.018 107 46 41 0
4.6809 50.0835 -23.7900 0.933 0.307 0.187 98 58 56 0
3.8962 51.4189 -23.9053 0.989 0.118 -0.092 98 59 56 0
3.9922 51.6714 -23.8962 0.990 -0.002 -0.138 99 61 58 0
4.4479 51.8492 -23.8409 0.778 -0.158 0.608 101 69 61 0
4.3957 56.5045 -23.9040 0.882 -0.171 0.439 223 212 195 0
30.5043 68.5753 -20.7559 0.958 0.220 -0.182 208 189 167 0
30.6721 69.2111 -20.7424 0.938 0.229 -0.258 204 186 164 0
38.7437 56.6068 -19.5708 0.384 -0.918 -0.097 202 188 162 0
45.1177 59.0343 -18.7959 0.998 0.007 0.064 170 146 117 0
-29.6182 -1.3579 -27.7031 0.952 -0.217 -0.215 227 212 183 0
-27.9232 11.5558 -27.6606 0.083 -0.973 -0.215 230 217 200 0
-27.5934 11.6208 -27.6194 0.083 -0.982 -0.171 230 217 200 0
-23.1228 9.9128 -27.0266 -0.384 -0.911 -0.150 228 217 195 0
-17.6853 26.4949 -26.5563 0.891 -0.421 -0.172 232 224 208 0
-19.5057 29.2771 -26.8258 0.580 -0.810 -0.092 231 222 205 0
-24.2826 33.4640 -27.4910 -0.387 -0.615 0.686 231 219 203 0
-13.0213 28.9088 -25.9942 0.467 -0.131 0.875 129 73 74 0
-12.8989 29.0995 -25.9812 0.805 0.132 0.579 129 70 72 0
-12.9448 29.4251 -25.9914 0.805 0.132 0.579 129 69 70 0
-8.2937 27.9394 -25.3786 0.445 -0.813 0.375 130 63 65 0
0.1726 43.0469 -24.5024 0.428 -0.840 0.334 158 85 68 0
3.7834 51.5960 -24.1571 0.976 0.046 -0.214 96 56 54 0
3.9252 51.7924 -24.1416 0.932 -0.282 -0.229 97 59 57 0
4.0894 51.9614 -24.1230 0.919 -0.317 -0.236 98 63 59 0
4.2803 53.2257 -24.1156 0.914 -0.311 -0.258 110 83 72 0
4.2246 56.7702 -24.1703 0.854 -0.356 0.379 221 212 195 0
5.9944 55.6214 -23.9293 0.343 -0.840 0.421 222 213 196 0
30.6316 67.8876 -20.9536 0.965 0.262 -0.003 206 191 168 0
44.9075 59.6906 -19.0237 0.995 0.060 0.081 170 146 118 0
45.6095 67.3089 -19.0366 0.126 -0.885 -0.448 255 255 254 0
-25.5997 11.0260 -27.5778 -0.355 -0.899 -0.256 230 219 196 0
-23.4626 10.1003 -27.2890 -0.355 -0.899 -0.256 230 220 196 0
-23.3989 10.5379 -27.2873 -0.444 -0.890 0.099 230 220 196 0
-17.7433 26.5494 -26.7951 0.896 -0.418 -0.152 235 225 209 0
-19.6545 29.1101 -27.0789 0.574 -0.808 0.132 231 222 205 0
-18.3620 28.4337 -26.9025 0.545 -0.836 -0.068 230 222 204 0
-18.7050 28.9800 -26.9547 0.784 -0.603 0.147 230 221 204 0
-14.2659 29.6211 -26.3927 0.145 -0.128 0.981 134 76 75 0
-8.3945 27.7549 -25.6092 0.452 -0.815 0.364 123 58 59 0
-8.1968 27.8751 -25.5855 0.452 -0.815 0.364 125 56 59 0
-7.8476 27.8698 -25.5405 0.168 -0.905 0.389 125 54 57 0
-7.5375 28.1792 -25.5051 -0.091 -0.763 0.639 126 51 55 0
-2.3139 33.7900 -24.9153 0.557 -0.344 0.756 108 47 36 0
-3.0163 38.8317 -25.0800 0.799 -0.600 0.043 126 76 44 0
-3.1389 42.2244 -25.1458 0.650 -0.650 -0.395 150 104 59 0
-0.2847 39.5991 -24.7396 0.807 -0.589 0.038 152 105 61 0
1.3916 44.1113 -24.5903 0.396 -0.557 0.730 157 94 57 0
2.4325 44.3126 -24.4592 0.443 -0.465 0.767 144 67 44 0
3.7883 51.6277 -24.3925 0.909 -0.209 -0.362 97 56 54 0
3.8391 51.9373 -24.3905 0.915 -0.202 -0.349 98 60 57 0
6.1320 55.4823 -24.1475 0.453 -0.714 0.534 224 213 199 0
27.4490 89.4568 -21.9037 0.237 -0.964 -0.121 198 181 158 0
45.1196 59.2126 -19.1828 0.992 -0.082 0.099 167 146 117 0
-40.3080 14.2547 -29.7629 0.601 -0.748 -0.283 234 221 197 0
-32.6184 14.0801 -28.7602 0.655 0.213 0.725 232 220 197 0
-23.9966 10.3938 -27.5800 -0.355 -0.899 -0.256 232 220 196 0
-17.9218 26.4104 -27.0469 0.848 -0.529 0.004 236 227 210 0
-23.7474 30.9750 -27.8776 0.435 -0.319 0.842 236 227 211 0
-21.8602 30.1762 -27.6194 0.580 -0.529 0.619 235 225 208 0
-14.9772 25.3555 -26.6471 0.881 -0.472 0.024 235 223 207 0
-18.4217 28.4911 -27.1453 0.558 -0.830 -0.013 230 222 203 0
-18.2920 28.6826 -27.1315 0.703 -0.701 0.116 229 222 203 0
-8.1890 27.8844 -25.8050 0.187 -0.656 0.732 122 51 55 0
-7.9378 27.9602 -25.7735 -0.069 -0.724 0.686 123 51 55 0
-7.6280 27.9868 -25.7337 -0.085 -0.731 0.677 131 57 61 0
-3.4738 30.1401 -25.2280 0.748 -0.652 0.123 133 36 38 0
-2.3214 40.0953 -25.2378 0.964 -0.221 -0.150 136 90 48 0
-3.3837 41.8383 -25.4039 0.653 -0.622 -0.431 140 97 52 0
-2.9813 41.7564 -25.3503 0.698 -0.592 -0.403 143 100 53 0
-0.0468 39.3787 -24.9306 0.786 -0.596 0.164 152 106 60 0
2.5763 44.1816 -24.6665 0.400 -0.658 0.638 146 72 48 0
6.8673 45.7367 -24.1335 0.743 0.140 0.655 106 46 45 0
6.6686 54.8159 -24.3049 0.473 -0.749 0.464 226 213 199 0
44.0332 62.7473 -19.5735 0.493 -0.484 -0.723 166 146 118 0
-40.8501 14.5291 -30.0828 0.551 -0.767 -0.329 232 220 196 0
-17.9596 27.2998 -27.2984 0.857 -0.206 0.472 232 223 206 0
-12.3453 28.9902 -26.5904 -0.266 -0.581 0.769 123 63 63 0
-7.9778 27.7259 -25.9950 0.177 -0.655 0.735 127 55 58 0
-6.4859 27.6163 -25.7972 0.309 -0.889 0.337 130 54 54 0
-4.8912 27.9616 -25.5938 0.254 -0.966 0.048 130 45 48 0
-4.5544 27.9558 -25.5494 0.452 -0.892 0.021 135 49 50 0
-3.9138 29.6821 -25.4953 0.358 -0.750 0.557 144 55 49 0
-3.7048 29.7857 -25.4696 0.687 -0.644 0.336 131 40 36 0
-3.5613 29.9472 -25.4536 0.687 -0.644 0.336 132 35 34 0
-3.4178 30.1087 -25.4375 0.687 -0.644 0.336 134 35 37 0
-1.5848 31.0664 -25.2134 0.894 -0.198 0.403 128 46 38 0
-0.1027 43.0953 -25.2274 0.587 -0.789 0.183 154 95 63 0
0.1168 43.1951 -25.2003 0.439 -0.875 0.203 151 94 62 0
1.5076 43.7031 -25.0265 0.412 -0.753 0.513 150 97 57 0
2.7115 44.0604 -24.8746 0.346 -0.687 0.638 139 67 44 0
3.3720 43.9953 -24.7867 0.482 -0.362 0.798 137 64 45 0
4.4180 53.1703 -24.8084 0.894 -0.202 -0.399 94 66 63 0
3.6491 54.9105 -24.9396 0.675 -0.514 -0.529 102 77 71 0
4.3389 55.9643 -24.8673 0.847 -0.201 0.492 222 206 191 0
4.3728 56.3114 -24.8688 0.899 -0.228 0.373 220 206 191 0
4.5844 56.8213 -24.8499 0.872 -0.435 0.225 222 209 193 0
5.6534 56.5936 -24.7056 0.243 -0.775 0.583 226 212 200 0
27.2091 53.6849 -21.8246 0.528 -0.186 0.829 215 204 181 0
27.3912 53.7707 -21.8021 0.294 -0.430 0.854 213 202 180 0
31.7091 57.0759 -21.2924 0.458 -0.486 -0.744 207 195 174 0
45.0604 66.4270 -19.7014 0.294 -0.886 -0.358 103 91 73 0
45.2361 66.4764 -19.6791 0.294 -0.886 -0.358 50 48 48 0
-22.8381 19.7118 -28.0363 -0.340 -0.940 0.037 234 229 214 0
-22.4961 29.4911 -28.1732 0.731 -0.572 -0.372 235 226 209 0
-22.5620 30.4245 -28.1994 0.867 -0.495 -0.059 232 223 208 0
-22.2305 30.4760 -28.1563 0.851 -0.525 -0.014 231 222 205 0
-6.2850 27.7463 -25.9911 0.347 -0.865 0.363 128 50 50 0
-4.8465 27.9402 -25.8040 0.230 -0.970 0.080 126 41 42 0
-4.5383 27.9589 -25.7635 0.452 -0.892 0.021 129 44 43 0
2.9027 43.8758 -25.0735 0.334 -0.702 0.630 140 66 45 0
3.5199 43.8587 -24.9914 0.501 -0.354 0.790 143 67 50 0
4.4801 53.5110 -25.0440 0.856 -0.313 0.410 96 67 63 0
3.8210 54.7322 -25.1541 0.934 -0.358 0.022 103 76 71 0
3.7331 55.2306 -25.1751 0.531 -0.815 -0.233 111 86 79 0
4.1319 55.1067 -25.1199 0.612 -0.787 -0.078 119 98 87 0
4.4228 55.1197 -25.0816 0.576 -0.814 -0.073 129 110 98 0
4.4501 55.8619 -25.0918 0.951 0.069 0.301 216 199 184 0
4.3946 56.3253 -25.1078 0.952 0.069 0.297 220 206 191 0
4.4328 56.6685 -25.1091 0.976 0.033 0.215 219 206 190 0
4.4244 57.0741 -25.1178 0.882 -0.380 0.280 221 208 192 0
6.5420 54.6805 -24.7924 0.542 -0.723 0.429 224 210 195 0
6.0054 56.1697 -24.8913 0.104 -0.871 0.481 225 211 198 0
27.3210 52.7339 -22.0009 0.488 -0.473 0.734 215 203 181 0
27.3995 53.8139 -22.0106 0.284 -0.526 0.802 214 202 182 0
32.4508 82.3823 -21.8733 0.076 -0.955 0.287 197 179 156 0
44.5201 66.4137 -19.9753 0.306 -0.881 -0.360 164 141 105 0
45.8676 66.4204 -19.7967 -0.119 -0.985 -0.124 254 255 255 0
-31.2800 9.6930 -29.1957 0.991 -0.094 -0.094 231 219 196 0
-22.4362 28.8743 -28.3943 0.718 -0.517 -0.465 235 226 209 0
-22.7019 29.3597 -28.4395 0.721 -0.578 -0.383 235 226 209 0
-22.7344 29.6772 -28.4502 0.767 -0.516 -0.382 235 226 209 0
-22.7699 29.9981 -28.4613 0.769 -0.515 -0.379 236 225 209 0
-22.4487 30.6504 -28.4313 0.867 -0.495 -0.059 231 222 205 0
-19.6138 30.8961 -28.0567 -0.241 -0.970 0.014 147 111 103 0
-18.7076 30.4994 -27.9275 -0.300 -0.953 0.041 143 103 96 0
-12.4613 26.8324 -27.0181 -0.108 -0.704 0.702 133 85 81 0
-7.3874 27.2703 -26.3475 0.200 -0.659 0.725 126 49 55 0
-6.3146 27.7873 -26.2142 0.422 -0.811 0.405 124 46 46 0
-4.6995 27.8313 -25.9988 0.332 -0.841 0.427 125 43 42 0
-2.9106 29.1177 -25.7850 0.649 -0.567 0.507 133 38 37 0
-0.0318 43.0769 -25.6780 0.414 -0.873 0.257 144 98 58 0
3.0188 43.7760 -25.2835 0.149 -0.841 0.520 146 70 53 0
3.3601 43.7306 -25.2369 0.186 -0.815 0.549 146 69 54 0
3.5492 55.1192 -25.4387 0.758 -0.635 0.150 99 70 66 0
3.7935 55.1943 -25.4075 0.679 -0.733 0.042 107 79 73 0
4.0682 55.2295 -25.3714 0.688 -0.724 0.058 113 88 81 0
4.4797 56.2568 -25.3368 0.961 0.093 0.261 221 205 190 0
4.4643 56.6700 -25.3471 0.978 0.028 0.209 219 206 190 0
32.9422 81.8513 -22.0366 -0.178 -0.753 0.634 197 176 157 0
33.0324 82.2157 -22.0318 0.094 -0.928 0.362 196 175 156 0
44.8368 64.5365 -20.0988 0.788 -0.107 -0.607 167 144 109 0
44.5362 66.4713 -20.1777 0.319 -0.877 -0.358 164 142 105 0
45.2506 66.6444 -20.0855 0.302 -0.886 -0.352 50 48 48 0
-31.9927 10.2954 -29.5319 -0.294 -0.861 -0.416 230 218 196 0
-23.1080 29.3730 -28.7363 0.794 -0.394 -0.462 235 227 209 0
-23.0297 29.6101 -28.7308 0.732 -0.589 -0.342 235 227 209 0
-22.8117 29.7458 -28.7042 0.770 -0.516 -0.377 234 225 208 0
-22.6743 29.9403 -28.6897 0.770 -0.516 -0.377 234 223 206 0
-22.8229 30.3454 -28.7185 0.858 -0.400 -0.322 234 222 206 0
-20.8494 29.4781 -28.4333 0.659 -0.677 -0.328 230 221 205 0
-20.3055 30.8415 -28.3887 0.839 -0.396 0.374 192 167 154 0
-20.4671 31.2621 -28.4195 0.931 -0.294 0.214 151 118 109 0
-20.4148 31.5214 -28.4179 0.932 -0.297 0.206 142 103 96 0
-18.7729 30.5633 -28.1756 -0.282 -0.957 0.072 139 97 91 0
-17.9260 30.2083 -28.0536 -0.297 -0.950 0.099 138 91 85 0
-9.7206 26.3729 -26.8630 0.068 -0.829 0.555 115 57 57 0
-9.7068 26.6414 -26.8669 0.452 -0.857 0.246 119 58 59 0
-9.5102 26.7644 -26.8429 0.675 -0.737 -0.035 118 56 58 0
-0.4851 41.9152 -25.9449 0.678 -0.485 0.553 156 110 60 0
3.2710 43.1830 -25.4642 -0.072 -0.705 0.706 148 73 57 0
3.9370 43.4473 -25.3798 0.201 -0.858 0.473 142 63 51 0
4.2770 43.3996 -25.3328 0.839 -0.273 0.471 140 64 46 0
3.4107 55.3366 -25.7035 0.650 -0.664 0.369 95 66 62 0
3.6863 55.3725 -25.6670 0.693 -0.717 0.067 102 73 69 0
3.9775 55.3873 -25.6280 0.667 -0.744 0.037 110 83 78 0
4.5666 56.5788 -25.5737 0.978 0.033 0.206 218 206 189 0
6.3707 55.3801 -25.3043 0.491 -0.866 0.090 223 213 194 0
18.9283 53.8958 -23.5754 0.458 -0.563 -0.687 222 210 193 0
32.6467 82.1025 -22.3205 -0.060 -0.837 0.544 195 177 157 0
37.5088 71.6285 -21.4407 0.889 -0.439 0.133 197 176 158 0
37.6246 71.8826 -21.4305 0.864 -0.501 -0.035 197 176 155 0
44.6317 64.6716 -20.3301 0.782 -0.084 -0.617 167 144 114 0
44.5425 66.5567 -20.3822 0.315 -0.882 -0.352 165 143 107 0
-36.8663 2.3045 -30.2456 0.789 -0.378 0.485 237 221 196 0
-32.7087 1.6403 -29.6633 0.350 -0.688 0.636 236 220 194 0
-37.9300 12.8013 -30.6275 -0.291 -0.866 -0.406 230 217 196 0
-32.3776 10.4912 -29.8178 -0.344 -0.892 -0.292 230 218 196 0
-22.8592 29.2046 -28.9410 0.880 -0.391 -0.270 234 227 209 0
-23.2611 29.7906 -29.0090 0.829 -0.385 -0.406 235 228 210 0
-23.0836 29.9566 -28.9885 0.840 -0.378 -0.388 234 226 209 0
-22.8785 30.1024 -28.9638 0.750 -0.549 -0.368 232 222 205 0
-22.7745 30.3224 -28.9546 0.734 -0.584 -0.347 233 221 205 0
-20.6606 29.3508 -28.6443 0.677 -0.674 -0.296 229 221 205 0
-21.0022 29.8982 -28.7032 0.643 -0.754 -0.135 228 219 202 0
-20.6691 29.9445 -28.6588 0.849 -0.525 0.057 229 218 199 0
-17.5571 29.9384 -28.2340 -0.374 -0.921 0.110 134 86 82 0
-9.6695 26.3465 -27.0767 0.469 -0.854 0.224 114 55 57 0
-9.6196 26.5862 -27.0753 0.632 -0.708 0.315 117 55 59 0
-9.6105 26.8593 -27.0802 0.662 -0.748 -0.046 116 53 57 0
-9.5625 27.1020 -27.0792 0.750 -0.401 0.526 112 49 52 0
-3.3609 27.8415 -26.2496 0.366 -0.739 0.566 136 46 46 0
-1.4739 29.5902 -26.0316 0.256 -0.619 0.742 130 40 40 0
0.9119 32.3368 -25.7680 0.482 -0.162 0.861 120 63 49 0
-0.5979 41.7300 -26.1858 0.726 -0.505 0.467 151 106 55 0
-0.3751 41.8265 -26.1576 0.678 -0.485 0.553 152 109 57 0
3.3392 42.7991 -25.6727 0.168 -0.550 0.818 143 70 51 0
3.4237 43.0420 -25.6666 0.155 -0.567 0.809 143 68 51 0
6.4460 41.6183 -25.2221 0.098 -0.822 0.561 145 68 52 0
6.7455 41.6067 -25.1810 0.209 -0.784 0.584 143 66 51 0
6.9732 42.3476 -25.1666 0.438 -0.536 0.722 131 57 46 0
7.3330 42.2633 -25.1156 0.400 -0.468 0.788 131 58 47 0
7.0513 43.6124 -25.1845 -0.011 -0.733 0.680 119 51 43 0
3.8322 55.6153 -25.8944 0.628 -0.778 0.015 106 78 75 0
4.3616 55.3226 -25.8156 0.783 -0.619 -0.061 112 86 82 0
4.4913 55.5440 -25.8029 0.866 -0.500 0.021 130 105 100 0
4.6346 55.7481 -25.7879 0.946 -0.273 0.175 154 132 124 0
4.6856 56.0730 -25.7883 0.946 -0.263 0.192 207 191 178 0
4.7692 56.3562 -25.7833 0.922 -0.334 0.197 219 207 190 0
4.8206 56.6826 -25.7836 0.901 -0.311 0.304 219 209 191 0
6.3467 55.4546 -25.5477 0.537 -0.842 0.043 221 213 193 0
44.8833 52.1992 -20.2158 0.849 0.138 0.510 196 178 161 0
44.7877 52.8970 -20.2446 0.854 0.131 0.503 195 178 161 0
44.7263 53.5139 -20.2669 0.840 0.131 0.526 197 177 159 0
37.5788 73.7589 -21.6988 0.010 -0.937 -0.349 196 175 155 0
44.5634 66.6010 -20.5843 0.297 -0.897 -0.327 164 144 109 0
-30.0203 -1.4302 -29.4385 0.982 -0.162 -0.099 235 219 194 0
-36.6721 2.2189 -30.4418 0.630 -0.511 0.585 236 222 195 0
-36.8967 2.5382 -30.4803 0.788 -0.344 0.510 235 221 194 0
-33.7489 11.1875 -30.2531 -0.351 -0.898 -0.266 229 216 194 0
-21.9983 28.8839 -29.0568 0.219 -0.147 0.965 233 226 209 0
-23.1595 30.0243 -29.2439 0.848 -0.343 -0.405 234 225 208 0
-21.3167 29.5555 -28.9789 0.793 -0.562 0.235 232 221 204 0
-20.9141 29.5514 -28.9234 0.822 -0.516 0.241 229 221 204 0
-20.5234 29.8487 -28.8767 0.832 -0.529 0.167 229 218 200 0
-20.3321 30.8888 -28.8751 0.887 -0.178 0.426 153 122 111 0
-20.0981 31.3074 -28.8529 0.917 -0.279 0.284 134 94 88 0
-17.5586 29.9535 -28.4708 -0.431 -0.881 0.196 132 84 81 0
-9.4120 26.4350 -27.2647 0.651 -0.370 0.663 117 55 61 0
-9.4694 27.0418 -27.2871 0.742 -0.410 0.531 113 48 53 0
-3.2770 27.7859 -26.4519 0.537 -0.704 0.465 132 45 47 0
-3.2141 28.0140 -26.4487 0.498 -0.741 0.450 135 47 46 0
-2.1211 29.3297 -26.3295 0.412 -0.891 0.189 126 37 36 0
-0.6207 29.6961 -26.1316 0.366 -0.451 0.814 126 42 39 0
-0.4715 29.8478 -26.1147 0.366 -0.451 0.814 127 46 41 0
1.4122 31.8754 -25.9036 0.770 -0.383 0.511 122 63 48 0
-1.5412 38.8098 -26.4758 0.778 -0.311 -0.546 122 89 43 0
3.6218 42.8498 -25.8611 0.110 -0.744 0.659 143 71 49 0
3.7734 43.0169 -25.8442 0.114 -0.723 0.682 145 71 52 0
6.6283 41.4396 -25.4133 0.467 -0.653 0.596 143 66 49 0
6.7188 41.6688 -25.4063 0.468 -0.682 0.561 140 64 47 0
6.8911 41.8038 -25.3858 0.468 -0.682 0.561 134 59 44 0
7.1569 42.1652 -25.3578 0.340 -0.789 0.511 127 54 42 0
7.5822 42.0034 -25.2953 0.363 -0.860 0.360 126 53 42 0
7.6381 42.2739 -25.2941 0.266 -0.824 0.500 122 49 40 0
7.7023 42.5355 -25.2915 0.318 -0.615 0.722 118 47 39 0
7.7496 42.8180 -25.2917 0.483 -0.571 0.664 116 48 39 0
9.0639 43.6261 -25.1300 0.765 -0.304 0.568 104 49 46 0
3.8698 55.6084 -26.1313 0.575 -0.816 0.049 103 76 73 0
4.2607 55.4944 -26.0747 0.733 -0.680 -0.015 110 84 80 0
4.4167 55.6824 -26.0577 0.735 -0.677 -0.015 122 97 93 0
4.5808 55.8601 -26.0394 0.735 -0.677 -0.015 144 122 115 0
4.7613 56.0165 -26.0182 0.899 -0.379 0.217 191 174 163 0
4.8752 56.2600 -26.0083 0.875 -0.401 0.272 218 206 189 0
4.9817 56.5138 -25.9997 0.871 -0.409 0.273 220 210 192 0
6.2690 55.2101 -25.7913 0.800 -0.378 -0.466 220 212 193 0
6.4880 55.3103 -25.7635 0.375 -0.881 0.288 221 214 193 0
32.6011 59.6250 -22.2696 0.851 -0.516 0.096 207 193 172 0
32.7308 59.8119 -22.2562 0.854 -0.509 0.110 207 193 173 0
33.0439 66.2545 -22.3668 0.955 0.220 -0.201 205 185 169 0
44.9223 52.6400 -20.4059 0.854 0.131 0.503 196 178 162 0
44.8514 53.2802 -20.4309 0.837 0.140 0.528 198 178 160 0
-30.0761 -1.6204 -29.6529 0.981 -0.165 -0.105 235 218 195 0
-30.0336 -1.4285 -29.6518 0.983 -0.167 -0.079 236 218 194 0
-30.0004 -1.2324 -29.6522 0.983 -0.167 -0.079 236 219 195 0
-32.0924 1.3682 -30.0085 0.295 -0.688 0.663 236 221 198 0
-37.2443 11.4547 -30.9785 0.518 -0.557 -0.649 232 220 196 0
-23.4117 30.2208 -29.5277 0.897 -0.264 -0.355 231 223 206 0
-23.1449 30.3225 -29.4931 0.854 -0.241 -0.461 230 221 203 0
-20.6304 29.3537 -29.1192 0.700 -0.665 -0.259 229 220 202 0
-20.9046 29.8512 -29.1698 0.821 -0.540 0.185 229 221 202 0
-20.4944 29.8399 -29.1125 0.835 -0.532 0.140 229 218 200 0
0.0355 27.6928 -26.2042 0.609 -0.789 -0.085 122 36 35 0
0.2467 27.7839 -26.1771 0.696 -0.718 -0.013 125 38 38 0
1.5089 31.8038 -26.1028 0.770 -0.383 0.511 125 63 47 0
1.2764 32.3258 -26.1483 0.741 -0.121 0.661 124 64 46 0
-3.1947 41.8316 -27.0091 0.676 -0.252 -0.693 125 90 38 0
6.9534 41.7632 -25.5965 0.389 -0.360 0.848 138 66 48 0
7.3271 41.9983 -25.5504 0.289 -0.432 0.854 128 58 44 0
7.7744 41.8102 -25.4835 0.454 -0.387 0.802 126 55 43 0
9.0167 43.7178 -25.3588 0.911 -0.396 -0.118 99 44 43 0
5.2336 50.8795 -26.0650 0.337 -0.806 -0.486 88 45 42 0
4.1803 55.2505 -26.3214 0.627 -0.597 0.501 101 74 70 0
4.6370 55.0502 -26.2529 0.893 -0.450 -0.004 105 80 76 0
4.5100 55.6034 -26.2845 0.839 -0.513 0.183 115 90 86 0
4.6416 55.8232 -26.2717 0.839 -0.513 0.183 135 112 107 0
4.7854 56.0274 -26.2569 0.861 -0.492 0.129 169 150 141 0
4.9158 56.2495 -26.2443 0.894 -0.404 0.196 208 194 179 0
5.0371 56.4838 -26.2333 0.907 -0.385 0.168 219 208 190 0
6.0603 55.5281 -26.0670 0.722 -0.611 -0.325 220 211 193 0
6.5441 55.2787 -25.9935 0.391 -0.883 0.258 220 213 194 0
6.0625 56.7053 -26.0964 0.825 -0.232 -0.515 222 214 195 0
32.6287 60.0951 -22.4882 0.884 -0.441 0.153 206 193 174 0
32.5817 60.6509 -22.5087 0.874 -0.438 0.208 204 192 170 0
33.9899 60.4555 -22.3080 0.455 -0.034 0.890 204 192 168 0
33.3150 63.3146 -22.4738 0.406 0.003 0.914 205 190 167 0
33.8501 63.1101 -22.3943 0.955 0.217 -0.204 204 188 166 0
45.2346 51.4803 -20.5188 0.911 0.141 0.388 199 180 163 0
45.0563 52.3842 -20.5663 0.854 0.131 0.503 197 178 161 0
44.9686 53.0660 -20.5957 0.854 0.131 0.503 198 179 161 0
37.8927 72.5955 -22.0709 0.073 -0.823 -0.563 198 176 155 0
44.7654 66.7882 -20.9693 0.283 -0.901 -0.330 162 143 110 0
-30.1132 -1.6090 -29.8699 0.970 -0.190 -0.152 234 216 196 0
-30.0679 -1.4181 -29.8686 0.974 -0.182 -0.136 235 218 194 0
-30.0171 -1.2292 -29.8664 0.983 -0.167 -0.079 235 219 194 0
-37.6487 11.4050 -31.2718 0.373 -0.640 -0.672 231 219 195 0
-37.3838 11.5236 -31.2377 0.373 -0.640 -0.672 231 219 196 0
-31.8339 10.7024 -30.4372 -0.368 -0.885 -0.284 230 215 196 0
-32.6701 12.1169 -30.5920 0.901 -0.384 0.201 230 218 199 0
-33.2171 12.6508 -30.6829 0.913 -0.386 0.130 230 219 199 0
-23.2160 30.0902 -29.7413 0.891 -0.453 -0.027 229 222 206 0
-22.5759 30.5109 -29.6626 0.517 -0.773 -0.369 229 220 204 0
-15.9159 29.0069 -28.6882 -0.421 -0.845 0.331 122 73 72 0
-14.5386 28.2297 -28.4744 0.787 -0.208 0.581 119 66 68 0
-12.3740 26.8329 -28.1337 0.902 -0.312 0.299 119 64 67 0
-4.8908 26.3927 -27.0720 0.249 -0.850 0.465 132 56 59 0
-2.9499 27.2551 -26.8225 0.856 -0.511 0.079 126 45 50 0
0.0329 27.7136 -26.4161 0.609 -0.789 -0.085 128 47 45 0
0.2184 27.8281 -26.3931 0.661 -0.750 -0.027 132 50 49 0
0.3988 27.9470 -26.3709 0.651 -0.755 -0.074 136 56 53 0
-1.4527 29.9176 -26.6829 0.011 -0.962 0.272 138 59 55 0
0.4173 29.0682 -26.3980 0.638 -0.548 0.541 131 54 48 0
0.5481 29.2343 -26.3840 0.638 -0.548 0.541 127 51 45 0
1.6536 31.6858 -26.2938 0.646 -0.262 0.717 125 59 43 0
1.7871 31.8526 -26.2795 0.385 -0.648 0.657 127 62 45 0
2.0503 31.8933 -26.2436 0.375 -0.647 0.663 126 64 45 0
2.5489 42.0881 -26.4436 0.029 -0.762 0.646 142 85 49 0
2.6876 42.2701 -26.4289 0.085 -0.789 0.609 142 83 48 0
6.7830 40.3310 -25.8029 -0.022 -0.427 0.904 139 66 49 0
7.3494 41.3353 -25.7500 0.683 0.092 0.724 136 68 51 0
2.5858 57.3435 -26.8422 -0.223 -0.924 0.311 95 68 64 0
4.7304 55.3596 -26.4888 0.367 -0.754 0.544 106 81 79 0
4.6634 55.8370 -26.5108 0.818 -0.536 0.209 126 104 100 0
4.7957 56.0564 -26.4981 0.857 -0.495 0.141 149 131 123 0
4.9437 56.2556 -26.4826 0.875 -0.460 0.154 187 174 158 0
5.0770 56.4744 -26.4697 0.907 -0.385 0.168 219 209 191 0
5.1834 56.7290 -26.4615 0.907 -0.385 0.168 220 212 193 0
6.5887 55.6537 -26.2358 0.210 -0.947 0.242 222 214 195 0
6.0953 56.7054 -26.3329 0.822 -0.297 -0.485 222 214 195 0
32.7271 60.4214 -22.6943 0.859 -0.489 0.150 204 191 170 0
33.9877 60.0723 -22.5082 0.594 -0.308 0.743 204 191 171 0
33.9725 60.5672 -22.5234 0.531 -0.275 0.801 203 191 169 0
33.9307 61.5906 -22.5564 0.791 -0.137 0.597 204 190 167 0
33.7675 62.4143 -22.6011 0.633 -0.215 0.744 202 187 165 0
33.7349 62.9606 -22.6201 0.747 -0.299 0.594 200 187 165 0
34.5923 61.5706 -22.4630 0.699 0.171 0.694 201 186 165 0
33.2602 64.9592 -22.7397 0.952 0.234 -0.198 203 186 168 0
33.0081 66.0018 -22.8026 0.962 0.215 -0.169 205 187 171 0
44.7866 66.8320 -21.1719 0.348 -0.858 -0.378 166 144 114 0
44.9608 66.8900 -21.1489 0.263 -0.900 -0.348 165 143 114 0
-30.1035 -1.6169 -30.0800 0.938 -0.271 -0.216 234 217 196 0
-19.1890 28.0211 -29.3578 0.708 -0.666 0.237 228 219 204 0
-13.9379 28.0639 -28.6154 0.961 -0.268 0.070 119 63 66 0
0.1159 27.6573 -26.6139 0.647 -0.754 -0.112 133 52 51 0
0.2403 27.8269 -26.6010 0.652 -0.750 -0.115 136 54 55 0
0.3976 27.9668 -26.5826 0.651 -0.755 -0.074 135 54 53 0
0.5631 28.0992 -26.5629 0.743 -0.469 0.477 132 52 50 0
0.5034 29.0084 -26.5966 0.622 -0.556 0.552 119 39 36 0
0.6424 29.1667 -26.5813 0.618 -0.559 0.552 116 37 33 0
0.6821 29.4173 -26.5826 0.602 -0.631 0.489 117 41 36 0
1.9754 30.8089 -26.4381 0.252 -0.844 0.474 123 54 40 0
2.3719 30.7203 -26.3795 0.643 -0.171 0.747 118 51 35 0
1.7975 31.5684 -26.4844 0.567 -0.173 0.805 123 57 40 0
1.9185 31.7471 -26.4723 0.281 -0.493 0.823 127 62 43 0
2.1998 31.7698 -26.4331 0.219 -0.472 0.854 130 66 46 0
-2.4392 41.1084 -27.3495 0.946 -0.122 -0.300 127 94 43 0
-2.2317 41.2252 -27.3233 0.956 -0.135 -0.261 128 96 43 0
4.7153 40.0562 -26.3071 -0.190 -0.607 0.771 139 80 46 0
5.3589 39.6696 -26.2052 -0.256 -0.716 0.649 138 77 46 0
7.0929 40.0083 -25.9690 -0.016 -0.424 0.906 138 68 50 0
9.4087 42.6278 -25.7139 0.660 -0.563 -0.497 99 41 39 0
7.1645 48.1813 -26.1860 0.435 -0.893 0.117 84 39 36 0
4.6694 55.8713 -26.7530 0.491 -0.631 0.601 117 95 92 0
4.9092 55.9505 -26.7212 0.892 -0.261 0.369 146 127 120 0
4.9626 56.2735 -26.7226 0.873 -0.454 0.181 171 158 143 0
5.1164 56.4655 -26.7062 0.910 -0.372 0.184 216 205 186 0
33.7518 60.1852 -22.7545 0.637 -0.311 0.706 204 191 174 0
33.8580 60.4221 -22.7460 0.637 -0.311 0.706 204 191 173 0
34.0098 61.0278 -22.7413 0.770 -0.310 0.558 204 189 168 0
34.0288 61.4554 -22.7505 0.821 -0.169 0.546 204 189 168 0
33.8869 62.2331 -22.7922 0.635 -0.207 0.744 203 189 167 0
33.7817 62.9366 -22.8267 0.734 -0.337 0.590 200 188 166 0
44.9701 66.9685 -21.3543 0.272 -0.890 -0.366 168 145 120 0
-22.6735 7.6056 -29.4984 -0.428 -0.696 0.577 230 219 199 0
-20.4681 28.3964 -29.7881 0.547 -0.807 -0.221 230 221 206 0
-15.7409 28.8994 -29.1272 -0.452 -0.808 0.377 120 69 68 0
-14.8417 28.4926 -28.9869 -0.448 -0.782 0.434 117 65 67 0
-13.8152 27.9824 -28.8253 -0.387 -0.741 0.550 118 62 65 0
-6.6901 26.2449 -27.7566 0.375 -0.833 0.406 115 40 45 0
-6.3727 26.2626 -27.7117 0.419 -0.795 0.439 117 42 47 0
-5.6842 26.5294 -27.6211 0.154 -0.478 0.865 121 46 50 0
-5.9317 27.0157 -27.6706 0.255 -0.398 0.881 126 51 55 0
-5.1781 27.2262 -27.5691 0.018 -0.644 0.764 121 47 46 0
-2.8761 26.6655 -27.2238 0.215 -0.925 0.313 126 45 52 0
0.3885 27.9938 -26.7959 0.634 -0.768 -0.093 127 45 45 0
0.4739 28.1995 -26.7897 0.638 -0.770 -0.036 120 39 38 0
0.1273 28.8009 -26.8567 0.283 -0.683 0.674 116 36 35 0
0.6653 28.8786 -26.7821 0.594 -0.699 0.398 114 34 32 0
0.8341 29.0089 -26.7618 0.786 -0.566 0.249 115 35 33 0
0.8171 29.3118 -26.7730 0.580 -0.649 0.493 117 41 38 0
1.9571 30.8478 -26.6548 0.294 -0.780 0.553 131 61 46 0
2.3694 30.7441 -26.5929 0.524 -0.222 0.822 128 59 43 0
2.2018 31.4941 -26.6386 0.265 -0.344 0.901 128 61 42 0
2.4461 31.5520 -26.6054 0.241 -0.466 0.852 131 64 45 0
-2.1208 41.1376 -27.5369 0.952 -0.031 -0.306 128 96 45 0
5.1639 39.5889 -26.4508 -0.185 -0.622 0.761 136 76 45 0
5.6665 39.3570 -26.3723 -0.126 -0.625 0.771 135 73 45 0
6.9308 39.5683 -26.1978 0.409 -0.522 0.749 131 63 44 0
7.4880 39.2623 -26.1092 0.919 -0.214 -0.330 135 67 50 0
7.9267 41.3933 -26.1085 0.257 -0.393 0.883 117 55 38 0
8.1116 41.5108 -26.0855 0.217 -0.496 0.841 116 53 38 0
7.1173 48.2772 -26.4245 0.046 -0.986 0.163 85 38 36 0
7.4290 48.2498 -26.3791 0.244 -0.949 0.201 86 38 38 0
4.8922 55.6234 -26.9562 0.517 -0.642 0.567 112 89 87 0
6.0920 55.6147 -26.7845 0.059 -0.948 -0.313 221 209 192 0
6.4335 55.5542 -26.7339 0.048 -0.948 -0.315 221 213 194 0
33.2231 60.9137 -23.0615 0.286 -0.646 -0.708 202 189 173 0
33.6040 60.5723 -22.9972 0.248 -0.697 -0.673 202 189 173 0
33.5630 61.1239 -23.0191 0.654 -0.364 -0.663 203 189 173 0
33.6959 61.3075 -23.0054 0.641 -0.417 -0.644 204 189 171 0
43.4641 54.7518 -21.4188 0.555 0.121 0.823 199 181 161 0
44.8109 66.9723 -21.5819 0.292 -0.836 -0.465 169 147 123 0
44.9807 67.0435 -21.5597 0.349 -0.858 -0.378 167 145 122 0
-35.9741 3.0285 -31.4916 0.113 -0.828 -0.549 237 222 200 0
-53.4510 12.1246 -34.2882 0.915 -0.047 0.400 237 221 205 0
-32.1313 11.8400 -31.2054 -0.226 -0.617 0.754 228 216 199 0
-19.6257 28.0792 -29.8959 0.623 -0.778 -0.086 229 220 205 0
-19.0632 27.9529 -29.8109 0.713 -0.640 0.285 230 219 203 0
-11.5270 25.6565 -28.6544 0.432 -0.718 0.545 117 65 67 0
-10.5235 26.5490 -28.5369 0.461 -0.606 0.648 117 56 61 0
-2.5046 27.2009 -27.4004 0.655 -0.590 0.473 123 41 48 0
-1.8587 27.4799 -27.3158 0.253 -0.875 0.413 122 41 44 0
0.7429 28.8265 -26.9815 0.623 -0.661 0.420 117 39 38 0
0.8996 28.9680 -26.9633 0.674 -0.654 0.344 119 44 42 0
1.8043 30.7227 -26.8862 0.118 -0.764 0.635 131 57 44 0
2.4434 30.9874 -26.8021 0.627 -0.173 0.760 131 61 44 0
-2.2380 41.2855 -27.7902 0.977 -0.149 -0.150 128 96 46 0
-3.9278 43.7090 -28.1076 0.696 -0.086 -0.713 130 97 45 0
9.5133 43.5934 -26.1659 0.897 -0.202 0.394 89 33 32 0
7.3447 48.0311 -26.6135 0.141 -0.988 0.066 85 37 37 0
7.4693 48.2369 -26.6018 0.237 -0.950 0.204 86 38 38 0
5.1230 55.3649 -27.1569 0.596 -0.626 0.504 108 84 81 0
5.1765 56.0784 -27.1709 0.894 -0.260 0.365 149 134 120 0
6.4053 55.6347 -26.9802 0.048 -0.948 -0.315 223 211 195 0
19.0906 56.0100 -25.1624 -0.116 -0.976 0.186 219 208 192 0
33.5249 62.6940 -23.2843 0.380 -0.560 -0.737 203 188 169 0
44.8496 66.9666 -21.7813 0.420 -0.782 -0.460 168 149 125 0
44.9851 67.1366 -21.7669 0.349 -0.858 -0.378 165 146 122 0
-16.6830 8.9133 -29.0975 -0.072 -0.934 -0.351 235 226 212 0
-16.8336 25.7541 -29.6535 0.853 0.209 0.478 229 220 204 0
-19.5807 28.0583 -30.1263 0.731 -0.664 0.158 229 219 203 0
-18.8136 28.3583 -30.0242 0.698 -0.609 0.377 229 212 196 0
-18.6736 28.5438 -30.0097 0.700 -0.610 0.371 212 188 175 0
-18.5812 28.7651 -30.0033 0.716 -0.600 0.358 166 135 124 0
-18.4362 28.9473 -29.9880 0.716 -0.600 0.358 153 120 110 0
-12.1878 27.0255 -29.0180 -0.308 -0.671 0.674 116 56 60 0
-10.7976 26.4985 -28.7990 -0.080 -0.635 0.768 118 56 60 0
-10.4629 26.5152 -28.7508 0.492 -0.389 0.779 118 56 60 0
-10.6926 26.9786 -28.7989 0.208 -0.470 0.858 119 55 60 0
-6.1758 26.1313 -28.1149 0.471 -0.787 0.398 118 43 48 0
-5.2914 26.5127 -27.9983 -0.049 -0.536 0.843 118 43 47 0
-5.1629 26.6846 -27.9851 0.201 -0.417 0.886 124 49 53 0
-2.5320 26.9614 -27.6111 0.639 -0.551 0.537 121 40 44 0
-2.4984 27.2128 -27.6142 0.639 -0.560 0.527 124 43 47 0
-0.9655 27.2718 -27.3930 0.372 -0.919 0.133 145 66 68 0
0.5330 28.4679 -27.2130 0.535 -0.691 0.486 118 41 41 0
0.6937 28.6056 -27.1940 0.535 -0.691 0.486 119 43 43 0
0.9077 28.6940 -27.1656 0.558 -0.645 0.523 122 48 47 0
1.0729 28.8272 -27.1458 0.555 -0.645 0.526 123 51 49 0
5.9461 38.7807 -26.7525 -0.285 -0.813 0.508 137 68 48 0
9.0921 41.7568 -26.3892 0.694 -0.503 0.516 105 46 39 0
9.2179 41.9431 -26.3768 0.694 -0.503 0.516 102 44 39 0
9.4657 42.3209 -26.3527 0.718 -0.690 0.092 102 45 43 0
9.7336 42.3360 -26.3142 0.770 -0.626 0.123 104 46 44 0
7.5512 47.8108 -26.8054 0.098 -0.974 0.206 86 37 38 0
3.3438 61.3882 -27.8482 0.085 -0.456 0.886 223 214 197 0
5.1632 59.3425 -27.5186 0.928 -0.147 -0.343 223 214 198 0
5.2316 59.6579 -27.5187 0.935 -0.138 -0.326 223 214 197 0
19.3497 55.6516 -25.3375 -0.144 -0.978 0.154 220 211 193 0
33.0267 62.4163 -23.5623 0.302 -0.692 -0.656 204 188 173 0
33.2168 62.4834 -23.5367 0.712 -0.469 -0.522 202 185 171 0
33.2819 62.8183 -23.5379 0.740 -0.467 -0.484 204 186 171 0
44.6203 55.3089 -21.6501 0.431 -0.284 0.857 195 177 157 0
44.8442 67.0873 -21.9911 0.420 -0.782 -0.460 175 155 133 0
44.9895 67.2299 -21.9745 0.349 -0.858 -0.378 169 149 128 0
46.1112 67.3444 -21.8149 0.071 -0.939 -0.337 255 255 255 0
-48.0065 8.4561 -33.8890 0.469 0.105 0.877 238 225 204 0
-19.5907 28.0779 -30.3661 0.741 -0.654 0.155 228 218 202 0
-18.8200 27.7978 -30.2438 0.754 -0.604 0.259 228 216 200 0
-18.8251 28.0900 -30.2542 0.694 -0.612 0.379 227 214 198 0
-18.7338 28.3114 -30.2481 0.698 -0.609 0.377 223 205 190 0
-18.5948 28.4977 -30.2338 0.700 -0.610 0.371 196 171 157 0
-18.4887 28.7087 -30.2252 0.704 -0.658 0.268 154 123 112 0
-18.3523 28.8972 -30.2114 0.695 -0.658 0.288 146 110 101 0
-13.0756 27.1639 -29.3796 -0.393 -0.769 0.505 118 61 64 0
-10.3945 26.7565 -28.9726 0.244 -0.486 0.839 119 54 58 0
-2.7620 26.3391 -27.8385 0.073 -0.779 0.623 124 47 53 0
-2.5901 26.4698 -27.8176 0.099 -0.754 0.649 123 43 49 0
-0.8908 26.9431 -27.5838 0.181 -0.754 0.632 137 51 55 0
-0.7631 27.1103 -27.5706 0.226 -0.729 0.646 134 50 54 0
3.1749 35.1247 -27.2573 0.717 0.352 0.602 125 90 46 0
0.7443 39.5493 -27.7602 0.316 0.102 0.943 135 97 48 0
8.4862 40.5024 -26.6553 0.159 -0.745 0.648 120 54 45 0
9.3112 41.8644 -26.5792 0.694 -0.503 0.516 95 37 33 0
9.3873 42.1105 -26.5762 0.672 -0.518 0.529 94 36 34 0
9.8271 43.9669 -26.5729 0.625 -0.561 0.543 89 36 36 0
4.7773 59.5016 -27.8273 0.403 -0.437 0.804 223 214 197 0
5.1121 59.4573 -27.7767 0.935 -0.138 -0.326 223 214 197 0
5.2241 59.7141 -27.7687 0.925 -0.259 -0.276 222 213 196 0
19.7129 55.5328 -25.5039 -0.279 -0.939 0.204 219 211 192 0
32.5954 63.4117 -23.8732 0.132 -0.682 -0.719 205 189 174 0
32.7521 64.0341 -23.8707 -0.019 -0.709 -0.705 203 187 172 0
33.1590 63.6380 -23.7979 0.026 -0.694 -0.720 203 187 172 0
44.7436 50.0255 -21.6479 0.403 -0.349 -0.846 194 179 161 0
38.9589 74.3686 -23.3011 -0.002 -0.856 -0.516 187 173 152 0
39.5629 75.6407 -23.2544 0.490 -0.793 0.362 185 172 153 0
44.8462 67.1869 -22.1997 0.424 -0.782 -0.457 179 158 140 0
45.0069 67.2857 -22.1793 0.446 -0.830 -0.336 178 157 139 0
46.3903 66.0612 -21.9358 0.216 -0.912 -0.350 254 255 255 0
-46.6931 7.6376 -33.9154 0.530 0.175 0.829 236 223 201 0
-49.5218 17.2587 -34.6647 0.604 0.327 0.727 229 217 196 0
