ply
format ascii 1.0
element vertex 837
property float x
property float y
property float z
property float nx
property float ny
property float nz
property uchar diffuse_red
property uchar diffuse_green
property uchar diffuse_blue
property uchar class
end_header
-1.9863 24.4896 -33.6052 0.189 -0.979 0.080 110 37 45 0
0.7871 25.1228 -33.1868 0.473 -0.830 0.296 121 50 61 0
2.1484 25.5717 -32.9928 0.561 -0.680 0.472 114 41 53 0
2.0681 25.9250 -33.0355 0.675 -0.624 0.394 113 38 51 0
7.4006 27.3642 -32.2492 0.425 -0.870 0.250 125 59 69 0
8.4497 30.9754 -32.3691 0.858 -0.373 0.354 96 29 41 0
9.2306 31.3486 -32.2674 0.661 -0.729 0.180 95 32 41 0
11.8599 36.8297 -32.2733 0.322 -0.626 0.710 75 13 22 0
11.9853 37.0058 -32.2666 0.516 -0.643 0.565 73 12 21 0
12.3021 36.9539 -32.2085 0.239 -0.876 0.418 73 13 22 0
12.1547 37.4560 -32.2750 0.739 -0.584 0.334 74 14 24 0
11.8386 38.4939 -32.4142 0.855 -0.490 0.168 73 13 25 0
11.5692 41.8677 -32.7383 0.923 -0.188 0.337 65 20 25 0
10.3382 52.6704 -33.8385 -0.156 -0.957 0.247 205 195 177 0
9.2194 55.4045 -34.2539 0.599 -0.758 -0.258 207 198 183 0
16.7098 49.1095 -32.4633 0.430 -0.853 0.296 214 207 191 0
12.9054 58.7389 -33.9034 0.397 -0.700 -0.594 214 206 193 0
25.2452 58.6933 -31.8053 0.111 -0.960 -0.258 207 198 183 0
28.1624 76.6140 -32.7887 0.927 -0.374 -0.033 199 186 176 0
41.0809 58.0288 -29.0628 0.906 -0.039 0.423 195 183 169 0
40.3225 70.6154 -30.2300 0.190 0.112 0.975 190 177 161 0
41.9034 69.7555 -29.8907 0.975 -0.090 -0.204 187 172 159 0
41.9000 70.9290 -29.9881 0.971 0.233 0.057 187 172 159 0
44.3252 65.2620 -29.1090 0.422 -0.417 0.805 186 172 159 0
42.9645 72.6627 -29.9505 0.593 -0.710 -0.381 183 167 153 0
43.9608 71.5611 -29.6905 0.162 -0.975 0.149 182 166 151 0
43.1479 75.2046 -30.1291 0.379 -0.887 -0.264 181 165 149 0
44.6034 71.4722 -29.5741 0.305 -0.731 0.610 178 164 147 0
-36.9683 0.3921 -37.7826 0.076 -0.995 -0.069 255 255 255 0
-35.7774 0.1223 -37.5563 0.332 -0.942 -0.037 255 255 255 0
-35.1952 0.5424 -37.4919 0.855 -0.514 -0.074 232 219 203 0
-18.6824 -4.4378 -34.2501 0.403 0.015 0.915 237 224 207 0
-19.2670 0.0754 -34.7285 -0.008 -0.973 -0.231 232 220 203 0
-19.1613 0.2336 -34.7237 0.037 -0.961 -0.274 231 220 202 0
-21.3837 8.4489 -35.7928 -0.421 -0.873 0.245 233 221 207 0
-21.1849 28.5677 -37.4459 0.350 -0.912 0.213 234 222 205 0
-12.9160 26.3764 -35.8479 -0.217 -0.968 0.126 126 71 75 0
-6.5750 24.1637 -34.5779 0.671 -0.406 0.621 119 52 60 0
-6.2191 24.1523 -34.5160 0.680 -0.351 0.644 113 46 55 0
-0.1606 24.8606 -33.5392 -0.012 -0.918 0.396 110 39 47 0
0.1501 24.8654 -33.4865 0.026 -0.906 0.422 114 42 53 0
1.6993 27.4122 -33.4351 -0.087 -0.231 0.969 122 41 54 0
10.4024 35.3372 -32.6112 0.717 -0.681 0.150 90 14 26 0
12.0840 36.5899 -32.4286 0.962 -0.247 0.115 77 14 25 0
12.2342 36.7356 -32.4151 0.946 -0.318 0.069 74 12 23 0
6.6248 56.1706 -35.0044 0.978 0.160 0.130 164 150 141 0
9.9636 53.6160 -34.2191 0.870 -0.409 -0.276 205 194 176 0
9.9975 53.9656 -34.2426 0.870 -0.411 -0.273 204 195 179 0
9.9039 54.4935 -34.3029 0.492 -0.679 -0.544 205 196 183 0
8.3044 59.1941 -34.9707 0.955 0.057 -0.292 210 201 185 0
15.7219 52.5383 -33.1438 0.903 0.396 0.164 213 205 192 0
13.1192 59.3082 -34.1567 0.434 -0.682 -0.589 212 206 194 0
12.5480 60.6042 -34.3631 0.595 -0.708 -0.380 212 205 192 0
31.0646 41.3094 -29.5781 0.386 -0.350 0.854 211 205 191 0
31.2938 41.2868 -29.5370 0.287 -0.580 0.762 210 204 189 0
33.4871 39.7054 -29.0292 0.420 -0.426 0.801 209 201 187 0
28.6733 74.4649 -32.7675 0.972 0.214 -0.099 199 187 175 0
40.7539 68.9798 -30.2413 0.107 0.026 0.994 190 177 162 0
41.8769 69.3476 -30.0801 0.986 -0.067 -0.150 186 173 160 0
41.9748 69.6531 -30.0890 0.994 0.082 0.077 187 173 160 0
41.9199 70.3859 -30.1598 0.994 0.082 0.077 186 172 159 0
43.5668 66.9282 -29.5882 0.984 0.133 0.118 185 171 160 0
43.9763 66.3417 -29.4690 0.978 0.159 0.133 184 170 159 0
44.0084 67.3925 -29.5516 0.928 0.226 0.296 184 168 158 0
46.7648 60.0648 -28.4657 0.013 -0.973 0.231 184 168 157 0
46.8939 60.2350 -28.4579 0.265 -0.873 0.409 183 169 156 0
43.3845 72.7544 -30.1080 0.357 -0.816 0.455 181 168 152 0
42.6606 75.5056 -30.4625 0.356 -0.928 -0.109 180 166 150 0
44.6149 72.7729 -29.8991 0.319 -0.917 -0.240 178 162 146 0
45.8515 73.3489 -29.7359 -0.442 -0.869 -0.224 255 255 254 0
-37.0188 0.4048 -38.0208 0.076 -0.995 -0.069 255 255 255 0
-35.8021 0.1246 -37.7872 0.318 -0.947 -0.043 255 255 255 0
-35.2148 0.5429 -37.7217 0.855 -0.514 -0.074 232 219 203 0
-28.1614 3.1981 -36.7323 0.018 -0.273 0.962 230 218 202 0
-19.3403 0.3151 -34.9664 0.000 -0.955 -0.297 233 220 203 0
-21.1451 28.5457 -37.6832 0.353 -0.921 0.164 235 223 206 0
-14.6655 26.8771 -36.4243 0.572 -0.510 0.642 134 88 88 0
-13.4037 26.1918 -36.1484 0.189 -0.906 0.379 132 83 84 0
-12.8493 26.3333 -36.0649 -0.217 -0.968 0.126 126 71 74 0
-1.9355 24.7459 -34.0487 0.299 -0.945 -0.134 110 39 49 0
-0.9175 24.4239 -33.8458 0.934 -0.345 -0.093 108 40 50 0
2.5074 25.2722 -33.3279 0.743 -0.662 0.105 111 36 47 0
2.7654 25.3159 -33.2871 0.629 -0.776 0.052 113 37 50 0
1.8314 26.7342 -33.5690 0.120 -0.105 0.987 119 38 53 0
1.5564 27.2725 -33.6622 0.029 -0.125 0.992 119 37 51 0
1.9942 27.1535 -33.5766 -0.090 -0.230 0.969 121 39 53 0
2.2272 27.2229 -33.5424 -0.086 -0.227 0.970 122 41 52 0
10.2399 35.5461 -32.8708 0.377 -0.925 0.040 91 15 27 0
11.7681 36.6648 -32.7027 0.600 -0.658 0.455 80 13 24 0
11.2753 37.5728 -32.8650 0.690 -0.108 0.716 77 13 24 0
12.2102 36.7897 -32.6371 0.927 -0.358 0.116 75 12 23 0
12.3225 36.9810 -32.6341 0.549 -0.724 0.416 76 14 25 0
9.4877 48.5284 -34.1067 0.932 0.319 0.173 71 39 40 0
9.7462 50.8330 -34.2586 0.367 -0.930 0.032 95 76 72 0
6.5784 56.2709 -35.2680 0.993 0.098 0.067 169 156 144 0
9.7916 53.8905 -34.5113 0.857 -0.444 -0.260 202 193 174 0
9.3207 54.9393 -34.6819 0.765 -0.525 -0.372 203 194 179 0
9.1541 55.5726 -34.7645 0.470 -0.652 -0.595 206 196 183 0
7.9837 60.1132 -35.3532 0.979 0.121 -0.164 210 201 186 0
12.1880 55.3274 -34.2208 0.616 -0.018 0.788 210 203 185 0
14.2536 56.3839 -33.9548 0.904 0.388 0.179 210 202 190 0
12.6085 60.9897 -34.6309 0.772 -0.431 -0.468 211 203 190 0
12.5885 61.4543 -34.6739 0.411 -0.649 -0.641 211 203 190 0
23.5945 48.3424 -31.6597 0.747 0.202 -0.633 209 205 188 0
31.3059 42.0436 -29.7938 0.649 -0.507 0.567 209 202 186 0
33.1980 43.6007 -29.6004 0.703 -0.433 0.565 208 198 187 0
28.9455 53.7717 -31.2001 0.209 -0.978 -0.025 205 195 183 0
25.1445 79.4747 -34.0456 0.718 0.255 0.648 196 186 174 0
24.9252 80.5127 -34.1719 0.753 0.261 0.604 195 185 173 0
24.4460 82.1237 -34.3918 0.732 0.255 0.632 196 186 174 0
27.7709 78.2072 -33.4850 0.987 -0.160 -0.015 194 185 171 0
28.9577 88.5707 -34.1636 0.104 -0.892 0.440 195 182 168 0
41.5659 66.3398 -30.0961 0.231 -0.933 0.274 191 177 164 0
43.6417 66.8121 -29.7786 0.985 0.124 0.121 184 170 159 0
43.9963 66.3799 -29.6807 0.980 0.161 0.116 184 170 159 0
44.1450 66.5270 -29.6676 0.956 0.224 0.188 183 169 158 0
44.1162 67.1812 -29.7283 0.928 0.226 0.296 183 169 158 0
46.8879 59.8022 -28.6217 0.361 -0.852 0.378 183 169 158 0
47.0488 59.8798 -28.6006 0.361 -0.852 0.378 183 169 158 0
47.5696 58.9133 -28.4285 0.917 -0.378 -0.126 184 170 157 0
43.3908 72.8398 -30.3355 0.526 -0.632 0.569 181 168 152 0
42.6934 75.5154 -30.6837 0.386 -0.909 -0.155 179 166 150 0
-37.0694 0.4175 -38.2594 0.076 -0.995 -0.069 255 255 255 0
-35.7524 0.0961 -38.0029 0.330 -0.944 -0.014 255 255 255 0
-35.2344 0.5435 -37.9516 0.855 -0.514 -0.074 232 219 201 0
-31.3211 14.9123 -38.5161 -0.148 -0.905 -0.398 236 227 212 0
-23.6759 29.5155 -38.4528 -0.093 -0.990 0.105 237 225 210 0
-22.0821 28.6491 -38.1011 0.213 -0.974 -0.075 238 225 208 0
-21.3108 28.6752 -37.9694 0.257 -0.951 0.174 235 223 206 0
-21.3549 29.0048 -38.0056 0.322 -0.924 0.205 232 222 205 0
-6.2731 24.2155 -34.9718 0.826 -0.520 0.216 114 49 57 0
2.6384 25.4455 -33.5308 0.944 -0.260 0.205 116 39 52 0
1.9522 26.6373 -33.7531 0.204 -0.032 0.979 119 38 52 0
11.3333 37.2030 -33.0388 0.819 -0.071 0.569 79 13 23 0
11.4740 37.6905 -33.0566 0.664 -0.332 0.670 75 13 24 0
10.3836 49.2592 -34.2475 0.895 -0.442 0.065 83 63 59 0
9.3746 50.9803 -34.5718 0.302 -0.953 0.027 88 69 65 0
9.6170 51.0408 -34.5349 0.300 -0.954 0.020 96 78 74 0
9.6648 51.3616 -34.5544 0.335 -0.939 0.078 107 90 85 0
6.9069 55.4622 -35.3884 0.948 0.319 0.017 133 119 111 0
12.1187 60.9166 -34.9555 0.745 -0.506 -0.435 210 205 191 0
12.3515 60.9952 -34.9219 0.746 -0.458 -0.484 212 205 191 0
12.5871 61.0685 -34.8874 0.745 -0.451 -0.492 211 203 190 0
12.1074 62.2397 -35.0721 0.747 -0.343 -0.569 210 202 189 0
17.2054 60.3194 -34.0205 0.713 -0.253 -0.654 211 203 190 0
27.4184 46.3903 -31.0409 0.559 -0.382 0.736 210 203 188 0
28.4487 75.1173 -33.3492 0.975 0.213 -0.060 197 185 173 0
30.1529 86.9714 -34.0796 0.734 -0.672 -0.102 191 179 167 0
41.7665 66.4456 -30.2857 0.260 -0.916 0.304 192 178 165 0
42.3502 66.5364 -30.1921 0.373 -0.886 0.276 188 176 163 0
42.4584 66.8006 -30.1962 0.355 -0.845 0.399 187 175 161 0
43.7895 67.0600 -29.9875 0.991 0.115 0.063 184 170 159 0
43.7335 67.7930 -30.0607 0.986 0.141 0.090 183 169 158 0
43.6598 68.5822 -30.1419 0.984 0.149 0.101 182 168 157 0
47.1144 59.7816 -28.7800 0.343 -0.868 0.359 183 169 158 0
47.6044 58.9032 -28.6188 0.923 -0.347 -0.168 183 169 157 0
43.3894 72.9482 -30.5668 0.608 -0.775 0.175 180 167 151 0
-37.1201 0.4302 -38.4984 0.076 -0.995 -0.069 255 255 255 0
-35.7772 0.0984 -38.2342 0.331 -0.943 -0.031 255 255 255 0
-35.2328 0.5350 -38.1774 0.845 -0.532 -0.057 233 220 204 0
-35.2606 0.7684 -38.2028 0.792 -0.608 -0.057 238 224 207 0
-35.0451 0.8997 -38.1766 0.324 -0.946 0.008 236 225 207 0
-20.6660 27.9125 -38.0362 0.333 -0.928 -0.166 234 222 205 0
-12.3823 26.2726 -36.4426 -0.389 -0.907 -0.160 125 70 74 0
-7.6012 24.1858 -35.4225 0.143 -0.945 0.293 120 56 61 0
-7.1299 24.0856 -35.3312 0.139 -0.989 -0.049 118 55 61 0
-6.9659 24.5083 -35.3397 0.051 -0.904 0.424 117 53 61 0
-1.9413 24.2204 -34.4352 0.181 -0.956 0.230 113 41 54 0
-1.0324 24.5465 -34.3049 0.900 -0.421 -0.114 110 43 52 0
2.6772 25.1447 -33.7084 0.834 -0.525 0.169 116 40 50 0
2.8399 25.2751 -33.6914 0.774 -0.626 0.101 118 41 54 0
3.2912 25.4196 -33.6251 0.565 -0.825 -0.019 120 38 51 0
3.4526 25.5504 -33.6084 0.556 -0.830 0.046 119 36 48 0
3.5920 25.7016 -33.5973 0.601 -0.795 0.083 126 43 54 0
3.7218 25.8616 -33.5886 0.471 -0.851 0.232 131 50 59 0
6.3489 27.0376 -33.2324 0.769 -0.540 0.343 124 53 67 0
6.2701 27.4005 -33.2781 0.846 -0.484 0.224 123 53 66 0
6.3833 27.5763 -33.2738 0.838 -0.486 0.248 123 55 67 0
11.8968 41.5750 -33.5401 0.265 -0.845 0.465 69 23 29 0
9.8001 47.4475 -34.4235 0.849 0.193 0.492 69 33 36 0
10.4084 49.2607 -34.4765 0.889 -0.452 0.073 80 61 57 0
9.3964 50.9864 -34.8053 0.378 -0.920 -0.101 85 67 63 0
9.6184 51.0743 -34.7742 0.378 -0.920 -0.101 94 78 73 0
9.6622 51.4007 -34.7952 0.315 -0.945 0.088 103 88 82 0
7.5166 54.6781 -35.4589 0.900 0.355 0.255 135 122 113 0
7.0861 55.6597 -35.6205 0.940 0.204 0.274 172 160 146 0
7.3209 58.1966 -35.8026 0.685 -0.485 0.544 204 194 181 0
5.7943 62.0220 -36.4061 0.957 0.054 -0.284 205 196 184 0
9.2817 57.5150 -35.3995 0.236 -0.938 0.252 206 197 183 0
12.3995 60.9679 -35.1576 0.715 -0.465 -0.522 210 204 190 0
27.5544 45.4443 -31.1408 0.617 -0.457 0.641 210 202 188 0
27.6454 46.0559 -31.1786 0.581 -0.176 0.795 209 201 189 0
25.8803 62.2867 -32.9149 0.472 -0.607 0.639 200 195 183 0
24.8366 78.0644 -34.4850 0.862 0.350 0.366 196 187 175 0
24.8513 79.1438 -34.5774 0.826 -0.393 0.404 196 186 175 0
27.6355 78.6739 -34.0489 0.837 0.205 0.508 193 186 170 0
27.4627 79.6300 -34.1632 0.966 -0.231 -0.116 193 186 169 0
42.3919 66.5140 -30.3975 0.368 -0.882 0.294 188 175 162 0
42.3974 67.0599 -30.4446 0.540 -0.841 0.039 188 174 161 0
42.2245 69.2465 -30.6671 0.978 0.189 0.092 186 172 159 0
41.7451 71.7543 -30.9716 0.972 0.227 0.058 186 172 160 0
47.1656 59.7251 -28.9652 0.343 -0.868 0.359 183 170 158 0
42.9435 74.3668 -30.9916 0.378 -0.644 -0.665 179 166 151 0
43.6687 74.0780 -30.8393 -0.129 -0.981 0.145 178 163 149 0
-37.1709 0.4429 -38.7377 0.076 -0.995 -0.069 255 255 255 0
-35.7232 0.0681 -38.4490 0.336 -0.942 0.010 255 255 255 0
-35.2490 0.5341 -38.4070 0.845 -0.532 -0.057 234 221 207 0
-35.2768 0.7676 -38.4328 0.796 -0.602 -0.063 238 224 208 0
-35.0646 0.9004 -38.4073 0.341 -0.938 0.066 236 224 207 0
-18.8320 24.8552 -37.6850 0.500 -0.850 0.166 238 229 212 0
-7.2778 23.9368 -35.5661 0.076 -0.985 0.155 122 59 65 0
-7.0477 24.0291 -35.5337 0.128 -0.989 0.078 118 57 63 0
-1.1452 24.6557 -34.5491 0.931 -0.351 -0.106 107 41 49 0
2.5667 24.9803 -33.9238 0.514 -0.843 0.159 114 38 48 0
2.9079 25.2265 -33.8856 0.769 -0.633 0.092 120 42 55 0
3.2845 25.4397 -33.8383 0.601 -0.800 0.003 121 37 50 0
3.4986 25.5220 -33.8079 0.677 -0.736 -0.002 121 38 49 0
3.6132 25.6961 -33.8032 0.601 -0.795 0.083 133 50 60 0
3.7681 25.8328 -33.7881 0.471 -0.851 0.232 151 70 79 0
6.2634 26.5680 -33.4139 0.682 -0.389 0.620 117 43 60 0
6.5073 26.6147 -33.3750 0.594 -0.602 0.534 119 47 62 0
6.4442 26.9607 -33.4171 0.890 -0.410 0.201 118 47 61 0
6.3492 27.6263 -33.4933 0.885 -0.319 0.338 118 48 60 0
12.2342 45.7745 -34.0766 0.908 0.008 0.418 72 44 43 0
12.1622 46.2335 -34.1302 0.916 0.022 0.401 75 48 47 0
10.4153 49.2859 -34.7108 0.915 -0.404 0.012 82 62 58 0
9.3526 51.0798 -35.0583 0.381 -0.907 -0.177 85 69 64 0
9.5585 51.1897 -35.0319 0.404 -0.902 -0.155 93 78 73 0
9.6539 51.4475 -35.0381 0.413 -0.904 -0.107 103 90 84 0
7.4387 55.2202 -35.7655 0.890 0.353 0.289 174 162 148 0
6.0080 61.3342 -36.5637 0.529 -0.847 -0.053 203 194 181 0
5.2157 62.8805 -36.8415 0.674 -0.652 0.347 203 195 180 0
17.3244 51.9035 -33.7266 0.971 0.024 -0.236 207 201 185 0
12.3211 64.2217 -35.7087 0.927 0.177 -0.331 208 202 188 0
22.9538 49.4960 -32.5192 0.767 0.082 -0.636 208 202 190 0
16.7560 60.2714 -34.5741 0.715 -0.244 -0.655 207 203 190 0
26.7917 48.7026 -31.7717 0.829 -0.338 0.445 209 198 190 0
28.2519 76.2622 -33.9756 0.688 0.237 0.686 197 187 177 0
28.0904 77.1776 -34.0858 0.713 0.254 0.653 197 188 176 0
28.2685 78.4677 -34.1696 0.787 -0.202 0.583 193 184 170 0
34.6638 75.3398 -32.7628 0.479 -0.869 -0.122 193 181 169 0
42.3769 67.2085 -30.6769 0.909 -0.363 0.204 188 174 161 0
41.9270 75.5842 -31.5042 -0.021 -0.999 -0.026 181 169 157 0
42.1426 75.5787 -31.4657 -0.021 -0.999 -0.026 180 168 156 0
42.6977 75.1976 -31.3339 0.188 -0.784 0.591 178 165 150 0
43.2935 74.6811 -31.1827 0.606 -0.586 -0.538 178 165 149 0
-37.2218 0.4557 -38.9775 0.076 -0.995 -0.069 255 255 255 0
-35.6848 0.0443 -38.6672 0.388 -0.922 0.005 255 255 255 0
-35.2652 0.5332 -38.6370 0.845 -0.532 -0.057 234 221 206 0
-10.9024 -6.7698 -33.6478 0.043 -0.732 -0.680 235 222 206 0
-24.6538 30.2501 -39.4468 -0.221 -0.863 -0.454 236 224 212 0
-13.5909 26.3704 -37.1302 -0.424 -0.895 -0.138 148 98 101 0
-6.9403 23.9524 -35.7298 0.077 -0.989 0.129 118 57 63 0
-1.1607 24.6809 -34.7693 0.931 -0.351 -0.106 107 42 51 0
2.7623 25.0942 -34.1100 0.806 -0.556 0.203 117 39 51 0
3.2932 25.4455 -34.0476 0.601 -0.800 0.003 117 34 46 0
3.5059 25.5292 -34.0174 0.677 -0.736 -0.002 118 34 47 0
3.6425 25.6830 -34.0071 0.611 -0.791 0.030 131 47 60 0
3.8182 25.8006 -33.9866 0.471 -0.854 0.223 152 70 80 0
6.3823 26.1856 -33.5661 0.736 -0.507 0.448 115 38 56 0
6.4973 26.3569 -33.5612 0.736 -0.507 0.448 119 42 59 0
6.5995 26.5410 -33.5597 0.596 -0.609 0.523 120 46 63 0
6.2632 28.0159 -33.7532 0.747 -0.500 0.438 115 43 58 0
10.0900 34.5410 -33.6652 0.680 -0.733 0.012 87 16 26 0
10.2216 34.7083 -33.6570 0.645 -0.763 0.026 87 14 23 0
10.3812 34.8438 -33.6409 0.645 -0.763 0.026 89 16 25 0
10.5408 34.9793 -33.6248 0.645 -0.763 0.026 90 17 26 0
10.6968 35.1189 -33.6098 0.653 -0.757 0.022 90 15 25 0
10.8773 35.2303 -33.5878 0.670 -0.743 -0.009 90 14 24 0
11.5650 38.3194 -33.7458 0.928 -0.130 0.349 78 16 25 0
10.3111 46.1216 -34.6759 0.821 0.169 0.546 71 31 37 0
9.1786 49.8181 -35.2122 0.582 -0.376 0.721 72 43 43 0
9.2337 50.1252 -35.2303 0.621 -0.364 0.694 76 48 47 0
10.2032 49.6018 -35.0106 0.892 -0.399 -0.213 82 63 59 0
9.3569 51.1093 -35.2976 0.352 -0.845 -0.402 85 69 64 0
9.5244 51.2707 -35.2825 0.391 -0.833 -0.391 92 77 72 0
9.6994 51.4220 -35.2651 0.430 -0.800 -0.418 101 88 82 0
7.6783 54.9333 -35.9425 0.968 0.215 0.131 175 164 150 0
17.4117 51.4186 -33.8951 0.975 0.076 -0.211 208 200 183 0
17.6599 52.2342 -33.9250 0.991 -0.012 -0.133 206 201 184 0
15.4135 65.6552 -35.5408 0.572 -0.436 0.695 209 200 187 0
28.2500 78.0260 -34.3827 0.888 -0.159 0.432 193 185 171 0
28.4339 78.1770 -34.3637 0.768 -0.213 0.603 193 183 171 0
44.0613 64.3264 -30.3323 0.947 0.120 -0.297 187 173 160 0
43.9080 65.3114 -30.4489 0.952 0.119 -0.281 186 172 159 0
41.6633 75.8322 -31.8015 0.186 -0.968 -0.169 183 171 157 0
41.9506 75.6210 -31.7313 0.162 -0.977 -0.136 182 170 156 0
43.5013 74.1685 -31.3242 0.351 -0.857 -0.377 178 165 149 0
43.7538 74.0372 -31.2674 0.393 -0.842 -0.370 179 163 150 0
-37.2692 0.4670 -39.2168 0.076 -0.995 -0.072 255 255 255 0
-35.6717 0.0309 -38.8908 0.379 -0.925 -0.033 255 255 255 0
-35.2815 0.5322 -38.8671 0.845 -0.532 -0.057 232 219 205 0
-35.3123 0.7671 -38.8943 0.830 -0.557 -0.029 237 221 207 0
-26.3039 32.7010 -40.2215 -0.447 -0.878 -0.174 235 223 207 0
-7.2742 25.0662 -36.1140 0.211 -0.977 0.022 112 47 55 0
-2.6915 24.6144 -35.2525 -0.060 -0.892 0.447 108 40 51 0
-1.1646 24.4188 -34.9613 0.084 -0.807 0.584 103 39 48 0
-1.0754 24.6190 -34.9637 0.925 -0.377 -0.042 106 42 52 0
-1.6452 25.3910 -35.1367 0.922 0.385 0.052 110 44 54 0
2.0401 24.9264 -34.4346 0.574 -0.793 0.204 107 35 46 0
2.5867 24.9888 -34.3425 0.379 -0.884 0.275 115 38 50 0
2.7727 25.0982 -34.3193 0.488 -0.792 0.366 117 39 52 0
2.9050 25.2564 -34.3102 0.816 -0.539 0.206 116 36 49 0
3.6556 25.6851 -34.2154 0.611 -0.791 0.030 124 41 53 0
3.8327 25.8014 -34.1944 0.582 -0.813 -0.002 138 57 66 0
6.3637 26.2192 -33.7800 0.728 -0.510 0.458 114 37 53 0
6.5819 26.5739 -33.7736 0.713 -0.455 0.533 121 45 62 0
6.5197 26.9191 -33.8165 0.581 -0.379 0.721 119 43 60 0
5.9440 28.0579 -34.0243 0.748 -0.519 0.414 115 41 58 0
6.7134 28.4556 -33.9232 0.426 -0.533 0.731 109 38 56 0
7.4151 28.0436 -33.7598 0.472 -0.873 0.122 108 37 55 0
7.3605 29.5601 -33.9091 0.992 0.123 0.001 110 44 58 0
8.1913 29.2978 -33.7363 0.763 -0.620 -0.185 104 38 52 0
8.8860 31.2533 -33.7920 0.257 -0.786 0.562 84 18 28 0
9.2910 32.9537 -33.8760 0.960 -0.248 -0.130 83 17 27 0
12.0830 35.4540 -33.6066 0.722 -0.603 0.340 88 16 27 0
11.4677 36.4959 -33.8126 0.932 -0.283 -0.228 86 15 25 0
11.5544 38.3585 -33.9685 0.919 -0.394 -0.012 77 16 24 0
10.6578 45.3469 -34.7721 0.933 0.098 0.347 67 32 34 0
10.2064 46.2876 -34.9395 0.938 0.088 0.336 68 32 36 0
8.1501 52.3632 -35.8665 -0.005 -0.998 0.058 81 63 59 0
9.2397 51.3007 -35.5738 0.364 -0.812 -0.457 83 67 63 0
9.4234 51.4414 -35.5539 0.371 -0.808 -0.458 88 75 69 0
9.5992 51.5924 -35.5363 0.384 -0.816 -0.432 94 81 75 0
7.6744 66.4855 -37.2514 0.687 -0.554 -0.471 206 199 185 0
17.5794 52.3983 -34.1827 0.986 0.017 -0.169 206 200 185 0
16.3777 60.9794 -35.1874 0.879 -0.357 0.318 208 200 186 0
16.6199 61.0278 -35.1486 0.849 -0.420 0.320 206 200 185 0
16.5136 61.6416 -35.2241 0.956 -0.289 -0.054 206 201 185 0
16.8275 68.4783 -35.7971 0.030 -0.951 0.308 209 198 186 0
28.2762 77.4857 -34.5777 0.764 -0.232 0.602 195 185 174 0
28.4032 77.7636 -34.5806 0.888 -0.170 0.428 195 185 174 0
28.4580 78.2057 -34.6114 0.902 -0.186 0.390 193 183 173 0
34.2100 79.0111 -33.6564 0.924 0.130 0.361 192 180 166 0
34.0318 80.0652 -33.7853 0.988 -0.153 -0.016 192 180 166 0
44.4677 61.6549 -30.2236 0.774 -0.594 0.221 187 174 159 0
43.2067 69.0982 -31.1343 0.923 0.134 -0.360 183 170 154 0
-35.2890 0.5276 -39.0956 0.846 -0.530 -0.053 233 218 205 0
-2.8586 -9.0184 -32.3587 -0.117 -0.771 -0.625 231 220 203 0
-7.2026 25.0180 -36.3207 0.196 -0.980 0.041 115 50 57 0
-7.2931 25.6544 -36.3965 -0.234 -0.869 -0.436 109 43 51 0
-1.5196 24.4585 -35.2442 0.053 -0.972 0.227 104 38 48 0
-1.1957 24.4572 -35.1857 0.675 -0.577 0.459 101 38 47 0
-1.3276 24.8486 -35.2460 0.977 -0.187 -0.102 104 41 50 0
1.8717 24.2593 -34.6143 0.539 -0.479 0.693 106 40 50 0
1.9950 24.9801 -34.6594 0.622 -0.765 0.168 106 35 45 0
2.8541 25.3165 -34.5360 0.828 -0.508 0.239 115 33 47 0
5.0411 25.8071 -34.1876 0.595 -0.583 0.553 118 38 48 0
5.9110 26.9569 -34.1382 0.898 -0.350 0.267 117 40 56 0
5.9670 29.2185 -34.3394 0.345 -0.141 0.928 108 37 55 0
6.9468 31.1976 -34.3476 0.435 -0.556 -0.708 96 30 42 0
9.0788 31.0681 -33.9512 0.253 -0.733 0.632 83 17 27 0
10.0007 34.6873 -34.1231 0.496 -0.680 0.541 85 13 23 0
12.0031 35.5720 -33.8448 0.670 -0.677 0.305 88 15 26 0
11.9489 35.9564 -33.8905 0.648 -0.568 0.506 87 14 25 0
11.5140 38.7659 -34.2313 0.965 -0.246 -0.096 79 18 26 0
11.9518 39.5753 -34.2280 0.711 -0.638 0.294 69 17 22 0
12.1936 42.3603 -34.4445 0.205 -0.637 0.743 67 29 32 0
10.1367 46.7747 -35.2276 0.968 0.140 0.210 66 32 35 0
10.0323 47.2772 -35.2934 0.928 0.159 0.337 67 36 36 0
9.0877 50.0057 -35.7185 0.700 -0.399 0.593 71 43 41 0
8.2413 52.2776 -36.0832 0.127 -0.985 -0.116 79 63 58 0
2.5599 64.5390 -38.2525 0.942 -0.125 0.311 198 190 171 0
16.9315 68.3553 -36.0186 0.037 -0.951 0.307 208 198 186 0
17.2021 68.3633 -35.9706 0.055 -0.945 0.321 208 198 186 0
23.7392 75.7583 -35.4830 0.350 -0.846 -0.401 200 192 181 0
26.0478 72.5930 -34.7713 0.149 -0.515 -0.844 196 185 180 0
44.1484 50.6170 -29.4561 0.931 -0.165 -0.326 194 182 168 0
43.7463 52.0704 -29.6644 0.896 -0.365 0.254 196 184 170 0
43.7196 52.6064 -29.7192 0.877 -0.030 0.480 196 184 170 0
34.1016 80.5901 -34.0666 0.993 -0.062 -0.097 192 180 166 0
34.1267 83.6233 -34.3454 0.996 0.046 0.077 190 178 164 0
34.0577 84.4372 -34.4338 0.996 0.041 0.083 191 179 165 0
32.9686 90.6049 -35.2062 0.220 -0.609 -0.762 188 176 161 0
32.9763 91.2586 -35.2659 0.248 -0.625 -0.740 188 176 162 0
43.9191 62.1660 -30.5762 0.442 -0.709 0.549 189 176 162 0
44.3621 62.0336 -30.4840 0.725 -0.676 0.132 188 175 159 0
43.6933 73.1889 -31.6464 0.194 -0.937 -0.291 181 166 151 0
45.8101 74.2662 -31.3655 -0.408 -0.895 -0.180 255 255 254 0
-37.3749 0.4941 -39.6989 0.076 -0.995 -0.069 255 255 255 0
-35.2930 0.5215 -39.3235 0.807 -0.588 -0.063 236 220 209 0
-35.2752 1.1822 -39.3829 0.637 -0.771 -0.021 237 224 207 0
-20.9194 26.6704 -39.1920 0.109 -0.960 0.258 236 227 214 0
-0.9640 24.2694 -35.3413 0.073 -0.925 0.373 99 36 46 0
-1.3578 24.8865 -35.4713 0.977 -0.208 0.037 99 37 48 0
1.1368 23.8207 -34.9173 0.882 -0.459 -0.103 107 45 54 0
-0.0090 25.1045 -35.2470 0.595 -0.781 -0.191 107 46 54 0
1.8791 23.7155 -34.7726 0.506 -0.305 0.807 112 51 59 0
2.6419 24.9655 -34.7525 0.317 -0.942 0.111 110 35 47 0
5.7443 26.5643 -34.3408 0.888 -0.452 0.088 113 36 52 0
6.2125 27.2514 -34.3209 0.508 -0.413 0.756 117 39 55 0
6.7144 27.6201 -34.2647 0.818 -0.506 0.272 112 39 58 0
6.8578 27.7664 -34.2525 0.781 -0.536 0.321 112 41 59 0
6.9642 27.9496 -34.2506 0.931 -0.331 0.150 111 39 57 0
7.0393 28.1643 -34.2573 0.788 -0.586 0.190 107 36 54 0
7.0505 30.8084 -34.5058 0.997 0.071 0.029 95 29 41 0
6.3247 31.8618 -34.7375 0.945 -0.299 0.135 96 30 42 0
6.0517 32.4508 -34.8428 0.900 -0.327 -0.287 92 26 37 0
9.8997 29.9164 -33.9040 0.862 -0.453 0.227 84 18 30 0
9.4014 32.8758 -34.2749 0.953 -0.299 -0.058 81 12 23 0
10.0945 34.6046 -34.3129 0.496 -0.680 0.541 87 15 25 0
9.6751 37.9875 -34.7097 -0.450 -0.884 -0.128 88 15 26 0
11.5022 38.8070 -34.4556 0.965 -0.246 -0.096 80 19 26 0
11.6449 39.3038 -34.4768 0.928 -0.371 -0.027 76 17 22 0
11.8915 39.6766 -34.4673 0.743 -0.600 0.296 69 17 21 0
11.4696 43.3061 -34.8879 -0.124 -0.758 0.641 67 29 32 0
9.6756 48.1430 -35.6720 0.882 0.299 0.365 68 38 36 0
8.2329 52.3242 -36.3302 0.557 -0.831 0.012 77 62 57 0
2.7881 64.2649 -38.4504 0.936 -0.106 0.336 196 188 169 0
16.8675 68.0460 -36.2525 0.044 -0.959 0.281 208 199 185 0
23.7308 75.8489 -35.7459 0.357 -0.846 -0.395 200 192 181 0
43.9630 51.6084 -29.7752 0.735 0.233 0.637 196 184 170 0
43.7603 52.5786 -29.9039 0.733 0.188 0.654 195 183 169 0
43.5765 53.5098 -30.0255 0.841 0.122 0.527 195 183 169 0
34.2523 77.8999 -34.0299 0.980 0.194 0.039 194 182 168 0
34.0161 79.0903 -34.1856 0.982 0.185 0.029 194 183 169 0
33.9318 80.5111 -34.3356 0.994 -0.067 -0.090 193 183 168 0
34.0546 80.8067 -34.3413 0.993 -0.069 -0.095 193 181 167 0
34.1189 83.7447 -34.6080 0.998 -0.025 0.058 190 178 164 0
34.1682 84.2485 -34.6469 0.998 -0.061 0.021 191 179 165 0
44.1600 62.1361 -30.7371 0.620 -0.739 0.265 188 175 159 0
44.3956 62.0303 -30.6843 0.725 -0.676 0.132 187 174 158 0
43.5491 73.1052 -31.8876 0.184 -0.936 -0.299 180 167 151 0
43.6985 73.2794 -31.8770 0.203 -0.932 -0.300 180 165 150 0
44.2324 72.3042 -31.6876 0.784 -0.335 -0.522 178 165 149 0
-37.4260 0.5069 -39.9402 0.076 -0.995 -0.069 255 255 255 0
-35.7679 0.0466 -39.5926 0.390 -0.919 -0.051 255 255 255 0
-35.2698 1.1724 -39.6098 0.644 -0.764 -0.017 237 224 209 0
-12.1575 25.8650 -37.7569 -0.405 -0.885 -0.231 135 78 86 0
-3.9870 24.6260 -36.1435 -0.137 -0.937 -0.322 104 38 50 0
-0.1873 24.7161 -35.4573 0.927 -0.346 -0.145 105 41 54 0
1.2592 24.0001 -35.1239 0.816 -0.416 -0.402 108 46 57 0
2.0835 23.5472 -34.9296 0.446 -0.634 0.632 112 50 61 0
2.2569 25.3281 -35.0691 0.739 -0.523 0.425 108 36 48 0
2.4810 26.2491 -35.1167 0.775 -0.462 0.431 111 34 47 0
5.9970 26.6204 -34.5093 0.962 0.047 0.270 116 39 57 0
6.3611 27.1224 -34.4910 0.508 -0.413 0.756 114 39 56 0
6.9928 27.9380 -34.4539 0.931 -0.331 0.150 109 34 54 0
6.9607 28.2599 -34.4907 0.779 -0.595 0.197 109 35 53 0
6.7873 31.0993 -34.7954 0.909 0.095 0.405 96 26 41 0
6.1460 32.0665 -35.0057 0.938 -0.204 0.281 95 27 41 0
9.4057 30.4601 -34.2551 0.996 0.013 0.085 84 18 30 0
9.3682 30.7999 -34.2946 0.996 -0.011 0.092 82 16 26 0
9.4938 32.4883 -34.4340 0.933 -0.305 -0.194 80 12 23 0
10.0042 34.4135 -34.5257 0.711 -0.620 0.332 85 15 25 0
10.5263 34.1413 -34.4041 0.689 -0.698 0.194 86 14 23 0
11.4903 38.8480 -34.6803 0.965 -0.246 -0.096 84 24 30 0
11.5414 39.1208 -34.6971 0.965 -0.245 -0.095 78 20 26 0
11.6056 39.3787 -34.7102 0.965 -0.245 -0.095 72 15 21 0
11.9801 39.5958 -34.6626 0.786 -0.604 0.130 72 19 25 0
12.0238 43.3385 -35.0144 0.527 -0.716 0.459 65 31 33 0
8.1220 52.5072 -36.6094 0.559 -0.826 0.079 74 62 58 0
2.8131 64.2722 -38.7115 0.763 -0.275 0.584 194 186 167 0
16.8670 68.1039 -36.5096 0.038 -0.971 0.235 206 198 184 0
25.2162 73.4038 -35.4922 0.170 -0.497 -0.851 200 190 181 0
42.6861 53.4020 -30.3743 0.527 -0.815 -0.241 194 184 170 0
42.8227 53.5416 -30.3627 0.508 -0.833 -0.219 194 184 169 0
44.2223 51.0405 -29.8663 0.735 0.233 0.637 195 183 171 0
44.2978 62.9330 -30.9958 0.988 0.148 0.046 184 175 160 0
42.2410 72.1412 -32.2573 0.948 -0.278 -0.153 183 170 154 0
42.0667 75.7054 -32.6318 0.462 -0.427 0.777 182 170 155 0
44.4224 71.8415 -31.8295 0.846 -0.431 -0.313 180 166 153 0
44.3112 72.7916 -31.9412 0.838 -0.416 -0.353 180 165 151 0
-37.4773 0.5198 -40.1818 0.076 -0.995 -0.069 255 255 255 0
-35.7648 0.0373 -39.8193 0.367 -0.930 -0.026 255 255 255 0
-35.5541 0.3930 -39.8152 0.258 -0.966 -0.026 71 65 61 0
-35.3294 0.5212 -39.7863 0.807 -0.588 -0.063 235 222 208 0
-35.3633 0.7578 -39.8156 0.803 -0.593 -0.054 239 224 211 0
-36.9363 4.1700 -40.4381 0.836 -0.514 -0.193 239 227 213 0
0.2512 -9.6328 -32.2420 -0.131 -0.798 -0.588 239 227 212 0
-18.4547 26.3361 -39.1951 0.869 0.098 0.485 236 224 212 0
-17.5183 25.9339 -38.9833 0.884 -0.034 0.466 236 225 211 0
-21.8009 29.3952 -40.1098 0.230 -0.853 -0.468 233 224 209 0
-24.8698 31.9786 -40.9270 -0.305 -0.847 -0.436 232 223 206 0
-21.2324 29.8734 -40.0517 0.378 -0.746 -0.548 232 215 200 0
-20.9968 29.9980 -40.0204 0.546 -0.622 -0.561 225 204 191 0
-20.6686 30.9620 -40.0540 0.333 -0.885 0.326 150 112 109 0
-12.3510 26.0243 -38.0403 -0.445 -0.879 -0.171 136 80 86 0
-3.7772 24.4614 -36.3086 -0.120 -0.928 -0.352 103 37 49 0
-1.2302 25.3590 -35.9269 0.379 -0.844 -0.379 102 39 53 0
-0.7509 25.2210 -35.8252 0.282 -0.573 0.770 102 39 53 0
1.2828 23.7169 -35.3039 0.944 -0.302 0.134 103 40 54 0
1.2752 23.9983 -35.3327 0.827 -0.551 -0.117 107 45 57 0
2.1936 23.4622 -35.1113 0.446 -0.631 0.635 112 51 61 0
2.8294 26.2249 -35.2636 0.484 -0.850 -0.207 111 34 49 0
7.1009 28.4277 -34.6915 0.957 -0.265 0.120 109 36 53 0
7.2671 28.5522 -34.6730 0.660 -0.713 0.237 109 38 54 0
6.7247 29.9850 -34.9127 0.918 0.155 0.366 102 33 49 0
6.6881 31.2208 -35.0399 0.692 -0.014 0.721 94 23 40 0
10.6729 33.9990 -34.5768 0.710 -0.673 0.209 86 15 23 0
11.4707 38.8985 -34.9076 0.958 -0.284 -0.042 86 26 32 0
11.6653 38.9979 -34.8814 0.783 -0.577 0.232 80 21 27 0
11.4415 40.2824 -35.0479 0.778 -0.242 0.580 72 18 24 0
11.9830 40.2979 -34.9497 0.893 -0.394 0.216 72 20 26 0
10.8608 44.4942 -35.5656 0.345 -0.350 0.871 66 31 33 0
12.1692 43.1837 -35.1968 0.504 -0.742 0.442 65 32 34 0
8.1054 52.5649 -36.8601 0.541 -0.837 0.081 73 61 58 0
7.3718 55.9403 -37.3244 0.959 0.274 0.069 190 180 158 0
15.9521 67.8276 -36.9030 0.508 -0.802 0.314 203 198 183 0
16.4072 67.5252 -36.7896 0.815 0.020 0.580 203 201 184 0
16.6224 67.6304 -36.7602 0.462 -0.494 0.737 202 200 183 0
43.3134 51.9460 -30.3142 0.391 -0.875 -0.284 193 184 169 0
43.4102 52.1764 -30.3189 0.227 -0.952 -0.207 194 185 170 0
43.8010 51.6850 -30.1989 0.432 -0.821 -0.374 194 185 170 0
44.6471 62.0569 -31.0545 0.800 0.157 0.579 182 173 158 0
44.2578 72.4399 -32.1386 0.990 -0.142 -0.015 181 167 154 0
-37.5201 0.5291 -40.4219 0.080 -0.995 -0.063 255 255 255 0
-35.7820 0.0364 -40.0507 0.399 -0.916 -0.034 255 255 255 0
-35.5830 0.3971 -40.0494 0.264 -0.964 -0.021 71 66 62 0
-35.3680 0.5296 -40.0226 0.814 -0.578 -0.053 236 223 209 0
-35.4011 0.7660 -40.0522 0.812 -0.580 -0.060 239 224 211 0
-21.1139 26.8301 -39.9787 0.169 -0.977 0.134 241 229 215 0
-24.8418 31.9657 -41.1782 -0.330 -0.882 -0.337 232 223 206 0
-20.5755 30.8996 -40.2812 0.320 -0.899 0.298 149 111 108 0
-7.7686 23.8386 -37.2070 0.294 -0.885 -0.362 124 64 71 0
-3.3231 24.0925 -36.4073 0.413 -0.857 -0.307 104 38 50 0
-1.2768 25.4118 -36.1581 0.378 -0.844 -0.381 102 40 54 0
-0.5748 25.0793 -35.9950 0.282 -0.573 0.770 102 40 54 0
1.1748 24.3753 -35.6008 0.880 -0.455 -0.134 104 43 54 0
2.9126 26.1622 -35.4550 0.503 -0.830 -0.241 111 34 50 0
1.6400 27.6268 -35.8360 0.508 -0.598 -0.621 108 31 47 0
6.4004 26.8304 -34.8740 0.337 -0.875 -0.346 113 36 54 0
3.8972 30.4556 -35.6969 0.227 -0.441 -0.868 114 39 59 0
4.4119 30.2443 -35.5805 0.285 -0.396 -0.873 111 36 57 0
6.9009 30.4194 -35.1361 0.724 -0.164 0.670 97 25 45 0
11.4483 37.6250 -35.0049 0.906 -0.182 0.381 80 15 21 0
11.4591 38.6054 -35.0998 0.666 -0.690 0.285 81 19 25 0
11.6986 38.9847 -35.0929 0.778 -0.579 0.244 79 18 25 0
11.4931 39.5699 -35.1889 0.994 -0.096 0.051 77 18 24 0
12.1715 40.0936 -35.1148 0.692 -0.435 0.576 72 20 26 0
5.2469 69.4428 -39.3016 0.205 -0.072 0.976 106 138 102 0
6.4668 70.8837 -39.2177 0.058 -0.034 0.998 174 188 163 0
8.0437 72.2521 -39.0605 -0.070 -0.407 0.911 198 195 175 0
9.0420 72.5961 -38.9093 -0.203 -0.558 0.804 201 197 178 0
10.4911 72.1902 -38.6003 0.706 -0.153 0.692 200 195 178 0
10.5443 72.5907 -38.6300 0.708 -0.158 0.688 201 196 180 0
10.3459 73.4078 -38.7476 0.629 -0.033 0.776 201 196 179 0
11.8093 72.4545 -38.3819 0.029 -0.946 -0.324 199 196 179 0
12.1495 72.3759 -38.3110 0.473 -0.780 -0.409 199 196 180 0
15.9867 67.8246 -37.1490 0.470 -0.863 0.185 203 197 183 0
16.4898 67.9145 -37.0646 0.595 -0.468 0.654 202 200 183 0
16.8560 67.7603 -36.9814 0.565 -0.461 0.684 204 198 182 0
14.3931 73.4947 -38.0054 0.825 -0.527 -0.204 206 198 185 0
14.5449 73.7307 -38.0005 0.825 -0.527 -0.204 204 197 183 0
22.9279 60.8356 -35.1702 0.263 -0.795 0.546 205 197 184 0
43.3134 52.0176 -30.5161 0.404 -0.854 -0.328 193 182 169 0
43.4945 52.0423 -30.4850 0.243 -0.969 0.039 194 183 169 0
43.8224 51.7044 -30.3907 0.538 -0.757 -0.371 194 182 168 0
44.3709 51.7510 -30.2936 0.523 -0.457 -0.719 192 180 168 0
33.5228 82.4617 -35.3429 0.886 -0.306 0.350 193 181 167 0
33.3260 83.5910 -35.4911 0.843 -0.233 0.484 193 181 167 0
34.1690 82.6592 -35.2426 0.842 0.207 0.499 191 179 166 0
44.1882 72.7544 -32.4043 0.990 0.002 0.139 179 165 152 0
-37.5801 0.5456 -40.6662 0.076 -0.995 -0.069 255 255 255 0
-35.8264 0.0466 -40.2885 0.379 -0.925 -0.026 255 255 255 0
-35.6000 0.3963 -40.2813 0.283 -0.959 -0.018 71 66 62 0
-35.3839 0.5285 -40.2541 0.814 -0.578 -0.053 235 222 208 0
-35.4212 0.7667 -40.2850 0.810 -0.585 -0.050 239 224 211 0
-22.9535 28.1643 -40.7020 -0.012 -0.998 -0.054 238 229 214 0
-22.5325 28.1564 -40.6226 -0.012 -0.999 -0.048 238 229 214 0
-25.2396 32.2696 -41.5408 -0.335 -0.878 -0.341 232 223 206 0
-20.5554 30.8930 -40.5275 0.408 -0.909 0.083 150 115 110 0
-5.4137 23.3409 -36.9411 0.275 -0.956 -0.107 120 59 66 0
-5.1591 23.4094 -36.9004 0.275 -0.956 -0.107 115 53 60 0
-3.0951 24.1891 -36.5929 0.560 -0.816 -0.147 107 39 49 0
-1.3157 25.4578 -36.3876 0.641 -0.765 -0.063 102 40 53 0
-0.3993 24.9380 -36.1643 0.282 -0.573 0.770 103 41 54 0
7.3957 29.0432 -35.1193 0.595 -0.771 -0.227 107 36 53 0
7.1903 29.8434 -35.2379 0.664 -0.631 0.401 97 25 45 0
7.1172 30.2160 -35.2889 0.693 -0.296 0.657 94 22 42 0
8.7163 31.5543 -35.1243 0.606 -0.438 0.664 82 15 28 0
9.8257 30.9734 -34.8587 0.998 0.036 0.059 81 15 25 0
11.5330 38.5432 -35.2986 0.645 -0.708 0.288 82 18 24 0
11.7378 39.9755 -35.4040 0.800 -0.230 0.554 76 19 27 0
12.2714 39.9986 -35.3066 0.692 -0.435 0.576 74 20 27 0
12.5641 40.6587 -35.3181 0.820 -0.480 0.312 71 23 29 0
12.6797 40.8573 -35.3164 0.820 -0.480 0.312 70 24 29 0
12.9718 41.1786 -35.2940 0.666 -0.614 0.424 68 28 32 0
5.7176 68.7878 -39.4174 0.203 -0.082 0.976 94 135 97 0
6.2944 68.3867 -39.2694 0.058 -0.030 0.998 93 137 96 0
8.1175 71.7066 -39.2616 -0.074 -0.398 0.914 189 194 174 0
8.4354 71.6844 -39.1999 -0.091 -0.415 0.905 192 195 175 0
9.6925 72.0866 -39.0054 0.528 -0.115 0.841 201 195 176 0
10.1626 72.2953 -38.9385 0.828 -0.140 0.544 201 194 176 0
10.3127 72.5376 -38.9347 0.858 -0.127 0.498 202 195 178 0
10.4705 72.7678 -38.9283 0.821 -0.100 0.562 202 195 178 0
11.2625 73.4242 -38.8461 0.342 -0.939 0.019 201 195 178 0
11.5050 73.5133 -38.8097 0.342 -0.939 0.019 200 196 179 0
12.1279 72.9616 -38.6381 0.621 -0.725 -0.299 199 196 180 0
12.5731 73.1986 -38.5786 0.609 -0.747 -0.265 202 196 182 0
22.3147 62.4412 -35.6799 0.456 -0.857 -0.241 203 195 182 0
43.2790 52.1734 -30.7332 0.416 -0.909 -0.007 194 182 170 0
43.5242 52.0414 -30.6742 0.266 -0.961 -0.082 195 182 170 0
43.8203 51.7818 -30.5928 0.467 -0.829 -0.307 193 180 169 0
44.1804 51.8285 -30.5302 0.691 -0.425 -0.586 193 179 168 0
44.8734 60.5337 -31.2735 0.787 -0.529 0.319 183 173 158 0
45.1803 60.2231 -31.1850 0.528 -0.828 -0.187 183 174 159 0
44.4158 73.4215 -32.6510 0.123 -0.956 -0.266 177 164 150 0
-37.6118 0.5504 -40.9044 0.071 -0.996 -0.060 255 255 255 0
-35.8169 0.0347 -40.5143 0.377 -0.926 -0.018 255 255 255 0
-35.6173 0.3957 -40.5134 0.283 -0.959 -0.018 71 66 62 0
-35.3962 0.5258 -40.4850 0.812 -0.579 -0.074 236 223 209 0
-35.1944 0.6638 -40.4611 0.518 -0.855 -0.034 240 225 212 0
-22.6378 28.2395 -40.9006 -0.091 -0.996 0.025 238 229 214 0
-23.4408 29.1209 -41.1413 -0.093 -0.873 -0.479 236 227 212 0
-22.8499 28.9900 -41.0168 0.004 -0.942 -0.335 236 227 212 0
-20.6480 30.6677 -40.7729 0.568 -0.823 0.019 162 134 125 0
-20.4871 30.8495 -40.7612 0.448 -0.894 0.032 156 121 117 0
-3.4794 23.6918 -36.8332 0.437 -0.802 -0.407 107 42 51 0
-3.0069 24.1259 -36.7884 0.098 -0.773 0.627 107 37 48 0
-2.1033 23.9174 -36.5972 0.173 -0.872 0.457 102 34 45 0
-1.4058 25.5485 -36.6317 0.516 -0.856 -0.023 100 38 50 0
1.2949 23.7427 -35.9400 0.955 -0.248 0.162 100 38 51 0
1.0497 24.5110 -36.0642 0.928 -0.364 -0.085 100 38 51 0
2.4697 24.9095 -35.8375 0.690 -0.705 0.165 106 40 52 0
7.8288 28.9144 -35.2360 0.702 -0.666 0.254 100 29 47 0
7.9951 29.0384 -35.2173 0.693 -0.670 0.266 95 24 43 0
8.1429 29.1813 -35.2040 0.497 -0.727 0.474 93 21 41 0
7.3168 30.3280 -35.4760 0.280 -0.116 0.953 91 19 39 0
10.6840 33.7412 -35.1892 0.469 -0.873 -0.131 82 15 24 0
11.9125 37.7829 -35.3688 0.634 -0.153 0.758 83 17 25 0
11.6846 38.3876 -35.4732 0.622 -0.725 0.296 83 17 25 0
11.9387 38.7481 -35.4620 0.685 -0.528 0.502 81 18 26 0
8.7306 50.2986 -37.2395 0.890 -0.172 0.422 69 44 40 0
5.4076 68.8351 -39.7487 0.387 -0.209 0.898 87 133 92 0
6.2279 68.0731 -39.5169 0.233 -0.053 0.971 88 132 92 0
7.3349 68.2523 -39.3267 0.065 -0.021 0.998 87 135 93 0
10.1559 72.3615 -39.2135 0.567 -0.089 0.819 197 195 175 0
10.4898 72.3033 -39.1448 0.408 -0.669 0.621 199 194 175 0
10.7074 72.4344 -39.1171 -0.021 -0.859 0.511 200 194 175 0
10.9863 74.4409 -39.2686 0.425 -0.808 0.408 199 195 177 0
11.4137 74.2219 -39.1659 0.696 -0.426 0.578 199 196 178 0
13.6212 70.9901 -38.4220 0.666 -0.685 0.296 199 196 180 0
13.7782 71.2114 -38.4150 0.673 -0.686 0.277 201 196 182 0
13.9472 71.9029 -38.4534 0.626 -0.690 0.364 202 195 180 0
14.5711 73.8063 -38.5295 0.615 -0.636 -0.466 202 196 182 0
14.1486 76.0770 -38.8398 0.600 -0.174 -0.781 203 196 183 0
22.5380 62.0983 -35.8404 0.300 -0.859 -0.414 204 196 183 0
43.3908 51.9722 -30.8873 0.243 -0.965 -0.101 194 181 170 0
43.5651 52.0132 -30.8586 0.243 -0.965 -0.101 194 180 169 0
43.8260 51.8401 -30.7919 0.501 -0.835 -0.226 193 179 168 0
43.9679 51.9587 -30.7773 0.855 -0.318 -0.410 193 179 168 0
44.8846 59.5291 -31.3741 0.964 0.240 -0.114 184 173 159 0
45.9583 58.6896 -31.0868 0.835 -0.495 0.241 185 173 161 0
-37.6407 0.5540 -41.1423 0.079 -0.995 -0.067 255 255 255 0
-35.8321 0.0329 -40.7459 0.377 -0.926 -0.018 255 255 255 0
-35.6474 0.4003 -40.7487 0.329 -0.944 -0.022 72 67 63 0
-35.4169 0.5267 -40.7181 0.812 -0.579 -0.074 237 224 211 0
-35.2109 0.6631 -40.6931 0.518 -0.855 -0.034 241 226 213 0
-23.2858 29.0151 -41.3535 -0.117 -0.878 -0.463 237 228 213 0
-22.9790 29.0913 -41.3032 0.004 -0.942 -0.335 237 227 213 0
-22.4401 28.9967 -41.1914 -0.152 -0.929 -0.338 235 226 213 0
-20.8227 29.8994 -40.9778 0.871 -0.491 -0.020 230 217 201 0
-20.7030 30.1113 -40.9770 0.871 -0.491 -0.020 226 210 195 0
-20.7080 30.4180 -41.0095 0.918 -0.368 0.147 205 184 172 0
-20.6188 30.6541 -41.0169 0.587 -0.808 0.050 162 135 126 0
-20.4174 30.8049 -40.9943 0.445 -0.896 0.002 160 127 122 0
-11.6571 25.8036 -38.8190 -0.132 -0.813 -0.567 132 82 83 0
-8.8548 25.5738 -38.2643 0.252 -0.662 0.706 123 62 71 0
-8.7172 25.7469 -38.2560 0.189 -0.685 0.703 122 59 69 0
-2.9249 23.7917 -36.9570 0.493 -0.782 0.382 106 36 46 0
-2.7578 23.9276 -36.9393 0.233 -0.694 0.682 106 34 46 0
-1.5525 25.6887 -36.8923 0.486 -0.870 -0.086 101 39 50 0
4.0806 27.6817 -36.0301 -0.088 -0.994 0.062 110 32 48 0
7.5940 28.5846 -35.4572 0.103 -0.939 0.327 105 35 55 0
8.0407 28.7164 -35.3862 0.739 -0.550 0.389 97 27 45 0
8.4992 31.8261 -35.6196 0.843 -0.377 0.383 82 14 28 0
8.4119 32.2252 -35.6772 0.929 -0.308 0.206 82 14 27 0
10.5048 33.6516 -35.4275 0.473 -0.875 -0.107 90 25 33 0
11.1431 34.1880 -35.3618 0.823 -0.568 -0.003 87 14 23 0
11.7757 36.0110 -35.4297 0.376 -0.693 0.615 82 15 22 0
11.5409 36.9366 -35.5696 0.679 -0.724 -0.122 82 12 22 0
11.9451 39.7773 -35.7856 0.800 -0.230 0.554 77 18 26 0
10.0815 44.8872 -36.6651 0.435 -0.880 0.190 72 28 32 0
10.4787 44.7441 -36.5751 0.939 -0.342 -0.044 70 29 33 0
5.9084 68.1371 -39.8507 0.919 0.393 0.034 80 130 85 0
10.3869 71.5547 -39.3540 0.601 -0.109 0.792 183 192 167 0
10.4828 71.8833 -39.3697 0.606 -0.121 0.786 193 198 175 0
10.6842 72.0405 -39.3477 0.445 -0.703 0.555 195 196 175 0
10.8561 72.2457 -39.3363 0.029 -0.833 0.552 194 194 173 0
11.1229 72.2947 -39.2907 -0.226 -0.865 0.448 193 192 171 0
11.2945 72.5001 -39.2794 0.296 -0.582 0.757 194 193 172 0
14.3814 69.7615 -38.4123 0.644 -0.617 0.452 198 194 177 0
14.5825 69.9029 -38.3888 0.635 -0.618 0.464 199 195 178 0
14.0501 71.7852 -38.6835 0.089 -0.706 0.703 201 194 179 0
14.2612 71.9151 -38.6569 0.110 -0.722 0.683 202 194 181 0
13.2946 76.6204 -39.3247 0.700 -0.189 -0.688 201 194 181 0
13.3731 76.9981 -39.3488 0.700 -0.189 -0.688 202 195 181 0
13.4955 77.2997 -39.3567 0.709 -0.196 -0.677 201 194 181 0
31.5661 78.5660 -36.0626 0.952 0.271 -0.139 194 182 171 0
36.0767 82.3174 -35.5942 0.508 -0.496 -0.704 188 176 161 0
46.0975 74.1519 -32.8541 -0.416 -0.888 -0.195 255 255 254 0
-37.6911 0.5664 -41.3855 0.079 -0.995 -0.067 255 255 255 0
-35.8598 0.0363 -40.9807 0.388 -0.922 -0.017 255 255 255 0
-35.6467 0.3921 -40.9772 0.266 -0.964 -0.024 71 67 63 0
-35.4447 0.5305 -40.9531 0.817 -0.572 -0.071 237 225 212 0
-35.2309 0.6637 -40.9262 0.507 -0.861 -0.041 241 226 214 0
-23.7416 29.3536 -41.7282 -0.211 -0.910 -0.357 237 228 213 0
-22.9487 29.0762 -41.5479 -0.210 -0.909 -0.361 237 227 215 0
-18.1029 26.6912 -40.3743 0.843 -0.237 0.482 233 224 210 0
-17.5720 26.5869 -40.2621 0.727 -0.543 0.420 231 222 207 0
-20.7590 29.8596 -41.2118 0.867 -0.489 0.093 229 218 203 0
-20.6652 30.0910 -41.2181 0.864 -0.494 0.098 227 212 199 0
-20.6519 30.3839 -41.2461 0.876 -0.448 0.179 216 197 183 0
-20.6357 30.6755 -41.2735 0.573 -0.818 0.046 170 145 134 0
-12.8590 26.4639 -39.3498 -0.178 -0.834 -0.522 137 89 89 0
-9.4435 25.2042 -38.5665 -0.140 -0.966 -0.217 127 70 76 0
-8.8435 25.0092 -38.4317 -0.034 -0.947 -0.319 130 72 78 0
-8.8922 25.3303 -38.4745 0.218 -0.790 0.573 128 69 75 0
-8.5372 25.6117 -38.4361 0.189 -0.685 0.703 122 59 70 0
-3.0134 23.8764 -37.2008 0.733 -0.675 -0.087 108 38 49 0
-0.9085 24.0264 -36.8148 0.125 -0.909 -0.399 104 38 50 0
-1.6175 25.7576 -37.1308 0.504 -0.742 -0.442 103 40 51 0
5.3560 29.9691 -36.2396 0.128 -0.624 -0.771 109 40 61 0
5.6440 29.9780 -36.1856 0.136 -0.614 -0.778 105 36 57 0
8.0455 28.7294 -35.5970 0.713 -0.686 0.144 99 29 47 0
8.2565 28.8073 -35.5648 0.682 -0.603 0.413 95 24 42 0
8.3572 28.9979 -35.5655 0.509 -0.733 0.450 94 23 41 0
8.7383 29.4898 -35.5441 0.601 -0.491 0.631 88 20 34 0
8.4593 32.1950 -35.8797 0.925 -0.317 0.209 81 13 25 0
9.8979 33.7248 -35.7649 0.695 -0.716 0.057 79 16 24 0
10.5032 33.6759 -35.6443 0.435 -0.899 -0.049 97 34 42 0
11.0076 34.0499 -35.5870 0.818 -0.568 0.095 82 16 23 0
11.1613 34.1906 -35.5724 0.820 -0.571 0.041 85 15 23 0
10.9552 37.3243 -35.9388 0.717 -0.694 0.066 81 14 21 0
11.1627 37.4083 -35.9080 0.432 -0.902 0.011 82 12 22 0
11.3422 37.5249 -35.8859 0.469 -0.881 0.060 82 13 23 0
11.4840 37.6862 -35.8757 0.454 -0.889 0.063 81 14 23 0
11.6318 37.8404 -35.8636 0.435 -0.895 0.097 82 17 25 0
12.0719 37.6445 -35.7592 0.234 -0.962 -0.142 83 18 26 0
12.8136 39.4136 -35.8022 0.908 0.007 0.420 74 21 27 0
10.1527 44.8280 -36.8752 0.363 -0.911 0.196 73 29 33 0
10.5140 44.7301 -36.7960 0.966 -0.117 -0.231 70 28 32 0
10.5152 70.4388 -39.4792 0.599 -0.286 0.748 108 139 103 0
10.5994 70.7823 -39.4990 0.653 -0.132 0.746 119 147 113 0
10.6208 71.2293 -39.5416 0.664 -0.100 0.741 135 158 127 0
10.7237 71.5453 -39.5549 0.660 -0.132 0.740 155 172 145 0
10.8283 71.8598 -39.5678 0.440 -0.719 0.538 166 179 154 0
11.0114 72.0460 -39.5523 0.023 -0.847 0.531 176 188 163 0
11.4894 72.2334 -39.4806 0.302 -0.575 0.761 189 197 172 0
13.8927 77.1760 -39.5379 0.601 -0.127 0.789 203 198 184 0
35.3203 83.8189 -36.1421 0.114 -0.716 -0.689 188 174 160 0
47.0391 63.4551 -31.7802 0.937 -0.304 -0.173 179 165 151 0
46.2010 73.9370 -33.0343 -0.415 -0.886 -0.207 255 255 254 0
-37.7454 0.5804 -41.6300 0.081 -0.995 -0.065 255 255 255 0
-35.8747 0.0344 -41.2127 0.388 -0.922 -0.017 255 255 255 0
-35.6665 0.3925 -41.2106 0.266 -0.964 -0.024 70 67 62 0
-35.4646 0.5310 -41.1864 0.817 -0.572 -0.071 236 224 212 0
-35.2810 0.6770 -41.1666 0.533 -0.844 -0.064 241 226 214 0
-23.8615 29.4477 -42.0148 -0.182 -0.917 -0.355 237 228 213 0
-23.2038 29.2696 -41.8696 -0.319 -0.941 -0.113 237 227 215 0
-22.8096 29.2819 -41.7952 -0.117 -0.924 -0.363 236 226 214 0
-22.5673 29.4048 -41.7616 0.009 -0.878 -0.479 235 225 213 0
-21.9298 29.2355 -41.6212 -0.014 -0.947 -0.321 234 224 212 0
-20.6115 29.7567 -41.4230 0.857 -0.492 0.152 229 219 203 0
-20.6166 30.0625 -41.4563 0.885 -0.459 0.077 227 215 201 0
-20.6132 30.3630 -41.4874 0.876 -0.448 0.179 222 205 191 0
-9.5089 25.2655 -38.8145 -0.142 -0.966 -0.215 128 71 77 0
-9.0389 25.1743 -38.7145 -0.142 -0.966 -0.215 138 79 85 0
-8.7405 25.2184 -38.6619 -0.230 -0.943 0.239 142 82 89 0
-8.0370 25.5011 -38.5566 0.122 -0.905 0.407 120 57 67 0
-3.2510 24.0859 -37.4872 0.990 -0.107 0.090 112 41 52 0
-1.9121 25.7435 -37.4052 0.383 -0.772 -0.507 103 39 50 0
-5.2720 31.0445 -38.6115 -0.585 -0.810 -0.041 101 34 48 0
8.3655 29.0076 -35.7754 0.480 -0.869 0.117 92 21 38 0
9.8796 33.7674 -35.9879 0.678 -0.735 0.007 76 14 24 0
11.0537 34.0206 -35.7890 0.820 -0.571 0.041 83 16 23 0
11.1835 34.1886 -35.7818 0.703 -0.682 -0.202 85 15 23 0
10.9971 36.9729 -36.1121 0.562 -0.737 0.374 82 15 22 0
11.2615 37.6464 -36.1325 0.670 -0.740 -0.060 82 14 23 0
11.3918 37.8218 -36.1260 0.524 -0.843 -0.125 81 14 23 0
11.5394 37.9769 -36.1141 0.556 -0.828 -0.071 81 16 24 0
12.1972 37.8510 -35.9744 0.841 -0.540 -0.034 85 22 29 0
10.9400 41.4097 -36.5923 0.960 -0.233 0.156 73 19 25 0
10.9120 41.7904 -36.6380 0.944 -0.072 0.322 73 20 26 0
9.7285 45.0338 -37.2084 0.307 -0.950 -0.063 72 30 32 0
10.1139 44.9078 -37.1210 0.384 -0.911 -0.151 71 30 33 0
10.3041 45.3885 -37.1353 0.963 -0.093 0.255 67 30 34 0
1.6677 64.8276 -40.8507 0.881 0.418 -0.220 184 173 151 0
9.6971 69.8939 -39.8435 -0.247 -0.924 0.290 86 132 93 0
10.0163 69.8610 -39.7787 -0.261 -0.930 0.259 87 133 92 0
10.6992 70.1956 -39.6828 0.583 -0.295 0.757 90 135 94 0
10.7477 70.5962 -39.7159 0.666 -0.250 0.703 92 135 95 0
10.8445 70.9201 -39.7315 0.659 -0.106 0.745 96 135 97 0
10.9254 71.2710 -39.7531 0.659 -0.106 0.745 99 134 99 0
11.0557 71.5424 -39.7568 0.593 -0.465 0.658 105 136 102 0
11.1578 71.8610 -39.7708 -0.033 -0.849 0.528 114 142 109 0
11.7728 71.8197 -39.6483 0.047 -0.789 0.612 142 164 131 0
13.7418 76.9892 -39.8166 0.615 -0.737 -0.280 201 197 182 0
39.8118 61.4565 -33.1643 0.992 0.120 -0.040 195 181 170 0
47.0836 63.4203 -31.9746 0.936 -0.261 -0.236 178 164 151 0
47.6123 64.1345 -31.9485 0.843 -0.388 -0.373 175 163 149 0
44.8810 73.6985 -33.4848 0.211 -0.962 -0.174 173 159 146 0
-37.7944 0.5923 -41.8736 0.081 -0.995 -0.065 255 255 255 0
-35.8889 0.0322 -41.4448 0.395 -0.917 -0.048 255 255 255 0
-35.6863 0.3928 -41.4443 0.266 -0.964 -0.024 71 66 62 0
-35.2775 0.6678 -41.3946 0.527 -0.848 -0.049 241 225 215 0
-33.8680 0.2974 -41.0822 -0.091 -0.996 0.005 239 226 213 0
-24.1784 29.6854 -42.3558 -0.324 -0.939 -0.118 237 228 213 0
-23.2191 29.5894 -42.1599 -0.080 -0.972 -0.222 237 227 214 0
-21.2970 29.6757 -41.7972 0.825 -0.565 -0.011 232 223 208 0
-14.9343 27.8046 -40.3656 -0.421 -0.880 -0.220 140 96 95 0
-12.4635 26.4609 -39.7436 -0.350 -0.901 -0.259 136 88 90 0
-11.7149 26.1617 -39.5667 -0.378 -0.908 -0.182 133 82 86 0
-9.5997 25.3468 -39.0701 -0.246 -0.940 0.237 133 75 81 0
-9.0964 25.2295 -38.9601 -0.230 -0.943 0.239 142 83 89 0
-8.6325 25.1416 -38.8610 -0.230 -0.943 0.239 150 89 97 0
-8.4035 25.2405 -38.8272 0.229 -0.712 0.664 126 64 73 0
-7.9773 25.1800 -38.7383 -0.085 -0.733 0.675 122 59 69 0
-3.2948 24.1333 -37.7201 0.989 -0.118 0.086 110 39 52 0
-2.1159 24.5275 -37.5342 0.330 -0.840 0.431 105 38 50 0
-2.0993 24.7924 -37.5594 0.513 -0.653 0.558 102 36 48 0
-2.5249 25.4380 -37.7109 0.217 -0.298 0.930 102 37 49 0
-2.0391 25.8661 -37.6628 0.342 -0.821 -0.457 99 36 50 0
-1.9765 26.0952 -37.6752 0.383 -0.816 -0.434 99 36 49 0
3.8010 25.1448 -36.4555 0.630 -0.776 -0.027 100 29 43 0
3.9466 26.1365 -36.5336 0.193 -0.968 0.162 100 29 43 0
4.7234 29.4451 -36.7377 0.915 -0.279 -0.291 114 37 57 0
-5.8897 40.2490 -39.9487 0.566 -0.136 0.813 113 40 61 0
7.9529 28.5666 -36.0187 0.157 -0.984 0.080 94 25 45 0
8.0854 28.7248 -36.0100 0.632 -0.763 -0.135 94 24 43 0
8.0294 30.8651 -36.2502 0.642 -0.612 0.462 85 14 30 0
9.8568 33.8150 -36.2126 0.664 -0.748 0.006 75 13 25 0
10.5025 33.7218 -36.0777 0.480 -0.870 -0.111 78 14 22 0
10.8851 33.9196 -36.0248 0.466 -0.879 -0.097 80 14 22 0
11.0165 34.0859 -36.0172 0.703 -0.682 -0.202 82 16 23 0
10.6667 35.7592 -36.2642 0.322 -0.797 -0.511 91 20 28 0
11.0495 36.9367 -36.3163 0.663 -0.673 0.328 84 15 23 0
12.1598 37.9226 -36.2071 0.832 -0.466 0.300 85 21 27 0
12.3041 38.0804 -36.1960 0.892 -0.409 0.192 88 23 29 0
12.1552 38.5939 -36.2799 0.847 -0.041 0.530 82 20 25 0
11.0459 41.6537 -36.8223 0.917 -0.133 0.375 72 21 26 0
10.1856 44.8480 -37.3310 0.175 -0.893 -0.415 68 27 30 0
1.8783 64.1404 -41.0053 0.853 0.313 -0.418 182 172 150 0
13.0353 63.2900 -38.7554 0.624 -0.780 0.053 76 128 84 0
10.5952 70.4172 -39.9911 0.917 -0.318 0.240 81 133 87 0
10.7037 70.7217 -40.0027 0.917 -0.318 0.240 82 133 88 0
