ply
format ascii 1.0
element vertex 820
property float x
property float y
property float z
property float nx
property float ny
property float nz
property uchar diffuse_red
property uchar diffuse_green
property uchar diffuse_blue
property uchar class
end_header
21.6957 43.7587 -52.3917 0.353 -0.875 0.332 160 149 68 0
17.1700 57.9893 -56.9463 0.854 -0.387 0.348 173 189 182 0
16.6024 59.3720 -57.4268 0.987 0.158 -0.034 174 190 183 0
22.1428 53.2883 -54.4084 0.169 -0.547 0.820 172 186 181 0
27.7858 45.3682 -50.9452 0.899 0.334 0.284 175 185 182 0
26.3352 49.9613 -52.4123 0.859 0.237 -0.453 180 186 184 0
23.2410 56.7441 -54.8616 0.833 0.179 -0.524 180 186 182 0
32.6378 56.9561 -52.1173 0.999 0.043 -0.014 189 185 170 0
32.7659 58.1539 -52.3495 0.957 -0.282 0.070 189 185 173 0
32.8571 58.4535 -52.3899 0.957 -0.282 0.070 190 184 173 0
24.6350 77.8282 -59.2031 -0.125 -0.650 0.750 189 180 173 0
37.4259 63.0704 -52.0738 0.433 -0.893 -0.125 177 169 158 0
46.8451 47.8159 -45.8343 0.748 0.280 0.601 166 156 148 0
43.9698 68.1987 -51.2862 0.099 -0.522 0.847 163 150 141 0
44.1135 68.3980 -51.2884 0.119 -0.549 0.827 163 150 142 0
46.8348 64.4589 -49.5914 0.256 -0.913 -0.319 160 147 141 0
47.3475 65.9962 -49.7858 0.647 -0.494 0.581 158 144 136 0
47.3906 72.5405 -51.2491 -0.149 -0.980 -0.135 156 144 131 0
-39.4796 0.7802 -61.1245 0.959 -0.277 -0.064 255 255 255 0
-39.7035 1.1076 -61.2657 0.391 -0.920 -0.018 255 255 255 0
-43.9759 17.9089 -66.3559 0.588 -0.253 0.768 240 231 231 0
-43.4091 17.8900 -66.1824 0.726 -0.238 0.645 239 230 228 0
-18.5540 25.7213 -60.5404 0.065 -0.640 0.766 230 224 224 0
-20.4989 29.9559 -62.0825 0.812 -0.261 0.522 228 223 220 0
-20.7014 30.4277 -62.2501 0.767 0.033 0.641 229 223 220 0
-18.0378 35.7378 -62.6606 0.827 -0.175 0.535 221 217 222 0
-16.6892 37.9536 -62.7611 0.755 -0.241 0.609 212 210 213 0
-19.7041 40.9660 -64.3451 0.210 -0.543 0.813 210 208 212 0
-18.8592 40.5695 -64.0028 0.115 -0.311 0.943 211 209 214 0
-9.9610 34.6128 -59.9939 0.851 -0.515 0.100 209 207 212 0
-12.2123 38.3621 -61.5173 0.376 -0.904 -0.204 204 203 208 0
-5.4638 36.0256 -58.9722 0.035 -0.279 0.960 203 202 207 0
-4.5463 36.8063 -58.8755 0.506 -0.842 -0.188 202 202 207 0
-2.1335 36.7483 -58.1421 0.989 -0.032 -0.144 200 200 206 0
0.1505 34.7537 -57.0073 0.921 -0.297 -0.252 200 201 206 0
-3.4817 38.8090 -59.0124 0.864 -0.109 0.492 200 201 206 0
5.8696 33.6679 -55.0535 0.826 -0.482 -0.292 199 201 200 0
7.1688 33.8857 -54.7150 0.035 -0.869 0.494 195 197 192 0
9.5632 33.5018 -53.9131 0.571 -0.818 0.063 208 202 138 0
9.8371 33.8465 -53.9096 0.419 -0.900 0.124 218 211 116 0
12.3046 32.6336 -52.8976 0.079 -0.933 0.350 227 224 91 0
12.2645 33.6623 -53.1431 0.802 -0.313 0.509 229 232 81 0
15.7865 30.7725 -51.4355 0.689 -0.034 0.724 235 236 80 0
16.0432 37.1065 -52.7970 0.783 -0.622 -0.020 243 239 91 0
16.3154 37.1004 -52.7144 0.836 -0.544 0.067 241 240 93 0
16.4622 37.2569 -52.7061 0.848 -0.525 0.072 240 240 94 0
17.7210 37.6920 -52.4291 0.695 -0.477 0.538 235 235 89 0
14.2873 42.6566 -54.5814 -0.017 -0.907 -0.422 233 232 86 0
14.5158 42.7207 -54.5277 0.556 -0.802 0.217 232 230 82 0
14.7294 42.8044 -54.4830 0.580 -0.791 0.196 230 228 81 0
20.3172 35.9267 -51.2532 0.671 -0.735 0.092 227 228 75 0
17.4361 44.3218 -54.0194 0.946 -0.208 -0.249 209 203 56 0
17.4287 44.7162 -54.1112 0.701 -0.562 -0.439 206 199 55 0
20.7795 42.8778 -52.6935 0.414 -0.823 -0.388 183 171 53 0
20.9492 43.0056 -52.6718 0.398 -0.822 -0.408 179 167 53 0
20.4815 44.0876 -53.0571 -0.487 -0.749 0.449 176 163 57 0
21.7549 43.7072 -52.5906 0.353 -0.875 0.332 160 149 67 0
22.1654 43.4661 -52.4133 0.410 -0.832 0.373 157 144 72 0
20.6762 48.1432 -53.9198 0.495 -0.179 0.850 64 119 81 0
17.2354 57.9312 -57.1694 0.850 -0.402 0.339 174 187 180 0
16.7248 59.2208 -57.6147 0.980 -0.042 -0.197 176 189 182 0
19.0736 58.0606 -56.6500 0.454 -0.486 -0.747 172 187 182 0
18.5016 73.4780 -60.3213 0.888 0.162 -0.431 186 188 179 0
32.6943 58.3732 -52.6548 0.974 -0.219 0.062 189 184 172 0
37.6274 62.1126 -52.0311 0.414 -0.864 0.288 175 166 155 0
37.6312 62.6467 -52.1512 0.434 -0.771 -0.466 175 167 156 0
40.0975 59.2137 -50.6355 0.955 0.275 0.109 170 162 152 0
46.8755 47.3204 -45.9116 0.900 0.185 0.396 167 156 149 0
46.8266 64.5897 -49.8473 0.544 -0.808 -0.227 159 146 139 0
47.0284 64.5831 -49.7856 0.304 -0.793 -0.528 159 146 140 0
47.2865 65.0263 -49.8091 0.174 -0.836 -0.520 159 144 137 0
47.4155 65.8875 -49.9661 0.657 -0.491 0.573 158 144 135 0
47.5399 66.1295 -49.9839 0.604 -0.485 0.632 158 144 135 0
47.3508 75.6484 -52.2017 -0.305 -0.937 -0.170 154 142 128 0
-39.4972 0.7779 -61.3796 0.959 -0.277 -0.064 255 255 255 0
-39.7210 1.1053 -61.5215 0.391 -0.920 -0.018 255 255 255 0
-43.7233 18.0548 -66.5958 0.847 -0.516 -0.127 238 230 228 0
-20.5366 29.6787 -62.2977 0.849 -0.471 0.240 230 224 223 0
-20.1043 29.6583 -62.1634 0.800 -0.487 0.350 229 224 222 0
-17.9381 35.9995 -62.9629 0.776 -0.307 -0.552 219 217 220 0
-15.3613 34.4604 -61.8383 0.665 -0.336 0.667 216 214 217 0
-17.1245 37.6655 -63.0996 0.768 -0.466 -0.439 214 212 216 0
-12.0754 33.5707 -60.6493 -0.130 -0.971 0.202 214 212 217 0
-7.9194 36.3883 -60.0467 0.972 0.200 -0.127 203 203 206 0
-5.2913 34.8783 -58.9133 0.106 -0.155 0.982 205 204 209 0
-5.3703 35.2853 -59.0300 0.123 -0.153 0.981 204 203 208 0
-5.2477 35.4991 -59.0421 0.127 -0.146 0.981 203 203 208 0
-1.8796 39.2483 -58.8888 0.088 -0.311 0.946 200 201 207 0
9.6456 34.0880 -54.2525 0.455 -0.887 0.080 216 210 116 0
16.4836 35.1954 -52.4546 0.387 -0.886 0.255 241 239 85 0
17.0612 34.7952 -52.1899 0.214 -0.953 0.216 241 239 85 0
16.3277 37.4617 -53.0193 0.976 -0.184 -0.115 239 240 90 0
17.5910 36.1544 -52.3416 0.245 -0.867 0.435 238 240 93 0
13.9844 41.9832 -54.7555 0.075 -0.636 -0.768 236 236 90 0
14.4921 41.6755 -54.5329 0.064 -0.639 -0.766 235 235 87 0
17.7873 37.6335 -52.6208 0.686 -0.491 0.538 235 233 87 0
17.8712 37.8730 -52.6503 0.281 -0.900 0.333 233 230 83 0
15.6921 41.1662 -54.0566 0.759 -0.609 -0.229 233 231 80 0
21.0233 42.9322 -52.8612 0.283 -0.939 -0.193 179 168 54 0
21.8005 43.6763 -52.7981 0.379 -0.886 0.267 160 150 68 0
17.2470 57.9608 -57.4286 0.841 -0.406 0.358 173 187 180 0
17.9415 74.6109 -61.0256 0.885 0.163 -0.436 183 185 176 0
27.0666 63.0867 -55.6548 0.567 -0.428 0.704 190 187 178 0
32.5675 58.2156 -52.8915 0.991 -0.014 0.130 189 182 171 0
32.5867 58.6699 -52.9896 0.991 -0.014 0.130 189 181 170 0
23.4759 82.3300 -61.1298 0.782 -0.177 0.598 185 178 168 0
23.5066 82.8760 -61.2454 0.823 -0.081 0.563 183 176 167 0
23.9509 82.5043 -61.0271 0.743 -0.120 0.659 183 176 167 0
32.5483 73.4255 -56.3735 0.593 0.005 0.805 176 166 155 0
37.6164 62.7639 -52.4167 0.167 -0.823 -0.543 172 164 153 0
47.1020 46.7937 -45.9216 0.704 0.201 0.681 167 157 147 0
47.0137 47.5184 -46.1137 0.639 0.228 0.735 166 156 146 0
43.0157 71.2630 -52.7396 0.303 -0.773 -0.557 161 148 139 0
49.8639 54.0648 -46.7550 0.415 -0.892 -0.180 162 148 140 0
46.8989 64.4691 -50.0222 0.400 -0.798 -0.451 158 145 137 0
47.3048 73.0769 -51.8677 -0.140 -0.983 -0.118 155 143 130 0
48.2923 75.3906 -52.1003 -0.308 -0.940 -0.148 255 255 255 0
-39.4970 0.7681 -61.6279 0.926 -0.363 -0.108 255 255 255 0
-39.4914 0.9995 -61.6794 0.935 -0.326 -0.138 255 255 255 0
-39.0421 1.9855 -61.7709 0.878 -0.437 -0.195 231 220 217 0
-44.9709 17.0017 -67.0119 0.290 -0.372 0.882 234 228 224 0
-43.5127 17.9369 -66.7876 0.930 -0.363 -0.049 239 231 230 0
-19.1372 26.1686 -61.3356 0.975 -0.068 0.210 228 226 223 0
-11.7549 28.5647 -59.6621 0.716 -0.688 0.114 223 219 218 0
-9.6328 27.1058 -58.6870 0.853 -0.406 0.327 221 219 217 0
-3.6980 23.8777 -56.1560 0.990 0.071 0.124 218 216 219 0
-19.0813 39.0440 -64.2807 0.002 -0.315 0.949 216 214 217 0
-5.0688 38.7305 -59.9859 -0.365 -0.740 0.565 202 202 210 0
-4.8216 41.9982 -60.6631 0.910 0.149 0.387 201 201 209 0
11.7055 33.3783 -53.6997 0.503 -0.739 0.448 229 226 97 0
16.7331 35.2432 -52.6136 0.384 -0.883 0.269 239 239 82 0
16.4423 37.3410 -53.1838 0.964 -0.262 0.033 237 239 87 0
17.9657 37.4249 -52.7440 0.175 -0.879 0.444 237 234 83 0
17.9331 37.8202 -52.8448 0.281 -0.900 0.333 236 232 81 0
18.2614 38.0839 -52.8065 0.667 -0.716 0.205 233 230 77 0
22.2796 43.3688 -52.8113 0.422 -0.839 0.345 152 145 73 0
16.9289 58.0759 -57.8071 0.979 -0.169 -0.113 170 187 179 0
17.8297 74.3455 -61.2783 0.883 0.177 -0.434 182 184 175 0
27.0778 63.1291 -55.9111 0.730 -0.030 0.683 190 184 174 0
33.9733 52.4574 -51.3782 -0.146 -0.562 0.814 190 183 172 0
32.7324 57.9309 -53.0113 0.931 0.217 0.293 189 181 171 0
32.3592 59.2235 -53.4211 0.968 0.155 0.198 188 180 169 0
41.1064 59.4982 -50.8483 0.735 -0.286 -0.615 168 156 147 0
48.6554 47.0811 -45.7169 0.599 0.311 0.738 163 149 140 0
37.8193 84.7774 -57.6542 0.844 0.048 -0.534 160 147 139 0
47.2762 65.2744 -50.3178 0.423 -0.601 -0.678 156 143 135 0
47.4011 65.5126 -50.3350 0.406 -0.626 -0.666 155 142 134 0
47.7418 66.3433 -50.4234 0.799 -0.540 0.264 155 142 135 0
-39.6238 0.8112 -61.9271 0.924 -0.368 -0.105 255 255 255 0
-39.5018 0.9942 -61.9325 0.954 -0.287 -0.083 255 255 255 0
-39.6902 15.0440 -65.2427 0.822 -0.568 -0.049 237 231 231 0
-38.8839 14.8888 -64.9626 0.881 -0.464 -0.092 238 232 232 0
-0.1054 1.9418 -50.2242 0.871 -0.482 -0.095 235 232 224 0
-22.9908 28.4293 -63.2859 0.706 -0.286 0.648 231 226 223 0
-8.9405 26.5391 -58.5943 0.990 -0.032 0.138 220 219 217 0
-7.6751 25.7815 -58.0358 0.846 -0.351 0.401 219 218 216 0
-14.0964 37.3916 -62.6682 -0.427 -0.897 -0.114 211 209 214 0
-10.9381 37.5660 -61.7523 0.680 -0.616 -0.397 204 206 212 0
-7.2776 35.1450 -60.0835 0.838 -0.524 -0.151 203 205 210 0
-7.0091 35.2232 -60.0203 0.813 -0.491 -0.313 205 206 211 0
-9.0264 38.4989 -61.3895 0.245 -0.432 0.868 205 205 207 0
-3.6899 39.0807 -59.9085 0.993 -0.065 0.094 203 203 211 0
10.9604 24.9212 -52.1945 0.213 -0.965 0.151 202 202 210 0
-4.6727 42.5831 -61.0170 0.882 0.265 0.390 201 202 207 0
7.3587 33.4120 -55.2509 0.229 -0.973 -0.035 199 201 194 0
12.5805 37.0652 -54.5158 0.052 -0.958 0.283 239 239 91 0
17.1359 32.4265 -52.0626 0.729 -0.597 0.334 239 240 84 0
17.3590 32.4752 -52.0063 0.645 -0.712 0.279 239 240 84 0
17.4653 32.6700 -52.0192 0.701 -0.623 0.347 239 240 84 0
16.0921 37.4777 -53.5481 0.864 -0.098 0.494 237 238 87 0
15.8649 38.1252 -53.7668 0.717 -0.327 0.616 237 237 88 0
15.7196 38.6690 -53.9367 0.230 -0.537 0.812 237 237 87 0
20.3232 35.6644 -51.8473 0.597 -0.527 0.605 230 227 73 0
17.2301 45.4984 -55.0607 0.799 -0.307 -0.517 201 194 51 0
18.0309 55.0058 -57.0195 0.795 0.201 0.572 165 184 171 0
17.8799 56.1313 -57.3259 0.610 0.076 0.789 169 185 178 0
13.1086 66.2773 -61.1196 0.780 0.067 -0.622 169 183 178 0
23.4474 55.2287 -55.4313 0.918 0.330 -0.221 176 182 177 0
27.3471 62.6532 -55.9696 0.527 0.068 0.847 188 181 173 0
27.1851 63.4852 -56.2113 0.715 -0.032 0.698 190 183 175 0
27.3552 63.6501 -56.1980 0.290 -0.590 0.754 190 183 175 0
27.4403 63.9880 -56.2505 0.638 -0.663 0.392 190 183 175 0
31.7174 59.1588 -53.8374 0.896 -0.304 -0.323 188 180 167 0
32.2384 59.0495 -53.6543 0.903 -0.007 0.430 188 180 169 0
26.6434 78.4555 -59.8415 0.814 -0.416 0.407 179 172 162 0
33.7574 71.2490 -56.0191 0.940 0.237 0.245 174 164 151 0
42.9871 56.2951 -49.7623 0.613 -0.438 0.658 168 154 145 0
37.1655 86.1034 -58.4266 0.433 -0.900 -0.050 160 147 138 0
36.9767 87.3817 -58.7798 0.458 -0.844 -0.278 160 147 138 0
49.1673 55.2652 -47.6527 0.836 -0.045 0.547 159 145 136 0
47.0675 64.7784 -50.4911 0.401 -0.784 -0.473 156 143 135 0
47.2349 64.8801 -50.4640 0.425 -0.771 -0.475 155 143 134 0
47.3437 65.8050 -50.6452 0.639 -0.769 -0.020 156 144 136 0
47.3928 75.8888 -52.9651 -0.306 -0.938 -0.163 153 140 125 0
-39.6140 0.7974 -62.1722 0.930 -0.343 -0.134 255 255 255 0
-39.5939 1.0231 -62.2187 0.898 -0.439 -0.040 255 255 255 0
-39.6450 15.0153 -65.4949 0.764 -0.643 -0.052 237 231 231 0
-39.2616 15.0860 -65.3948 0.806 -0.588 -0.062 238 231 230 0
-29.2086 19.6182 -63.3931 0.007 -0.703 0.711 236 232 227 0
-23.0194 28.4563 -63.5701 0.619 -0.419 0.664 231 226 223 0
-23.1050 28.8308 -63.6834 0.677 -0.254 0.691 229 225 223 0
-21.6820 28.3896 -63.1478 -0.346 -0.908 0.236 226 225 223 0
-20.8280 28.0571 -62.8105 -0.382 -0.884 0.271 225 224 222 0
-9.0945 26.9777 -58.9899 0.819 -0.341 0.462 220 219 217 0
-9.2681 27.7284 -59.2176 0.948 -0.312 0.069 218 216 217 0
-6.1167 32.4445 -59.3581 0.878 -0.412 -0.244 206 207 211 0
-5.6442 32.3279 -59.1872 0.907 -0.368 -0.204 206 207 212 0
-7.4230 34.3065 -60.1894 0.736 -0.534 -0.416 205 206 211 0
-6.8839 34.7894 -60.1379 0.789 -0.583 -0.195 204 205 209 0
-7.1665 35.3876 -60.3633 0.835 -0.533 -0.140 206 206 211 0
-5.7716 34.3959 -59.7079 0.937 -0.271 -0.222 207 206 212 0
-8.9932 38.4838 -61.6405 0.268 -0.430 0.862 206 205 209 0
11.1219 24.7703 -52.3262 0.545 -0.830 0.119 202 202 210 0
11.2664 24.9125 -52.3153 0.649 -0.617 0.445 202 202 210 0
11.5828 24.8749 -52.2103 0.868 -0.451 0.206 202 202 210 0
11.8583 24.8788 -52.1274 0.852 -0.523 -0.009 201 201 209 0
9.6923 34.1024 -54.9357 0.465 -0.878 -0.108 215 209 122 0
12.6409 34.6391 -54.1639 0.949 0.073 0.308 232 232 82 0
12.7615 36.8686 -54.6468 0.308 -0.926 0.217 238 240 91 0
17.4094 32.7663 -52.2770 0.714 -0.591 0.376 239 240 83 0
15.2592 38.2387 -54.2064 0.828 -0.502 0.252 237 237 87 0
15.2797 38.5653 -54.2762 0.819 -0.339 0.462 237 237 88 0
16.0287 37.9402 -53.9027 0.706 -0.288 0.646 237 237 89 0
13.7207 41.3240 -55.3933 0.183 -0.953 0.239 237 237 89 0
13.9537 41.3831 -55.3362 0.183 -0.953 0.239 236 236 88 0
16.8418 44.9309 -55.2845 0.869 -0.189 -0.458 207 200 57 0
17.0843 44.9698 -55.2198 0.831 -0.239 -0.503 207 200 57 0
17.1026 45.7194 -55.3889 0.799 -0.307 -0.517 201 194 52 0
19.8270 49.6436 -55.4747 0.919 0.356 -0.167 70 122 88 0
18.1026 54.4999 -57.1309 0.846 0.199 0.495 157 179 166 0
18.0605 55.0045 -57.2613 0.846 0.199 0.495 163 180 171 0
29.2893 41.8334 -50.7764 0.471 -0.789 0.394 172 182 176 0
25.7889 63.8028 -56.9609 0.099 -0.972 -0.215 188 184 175 0
26.7916 62.8226 -56.4274 0.445 -0.682 0.580 186 182 173 0
27.4305 62.0485 -56.0527 0.545 -0.245 0.801 188 183 174 0
27.6529 62.1034 -55.9978 0.543 -0.205 0.814 189 182 174 0
27.3496 63.2187 -56.3500 0.731 -0.079 0.678 190 183 175 0
27.5147 63.3927 -56.3403 0.727 -0.629 0.276 189 182 174 0
27.4327 64.0701 -56.5231 0.611 -0.637 0.470 188 181 172 0
34.2226 52.0626 -51.6596 0.049 -0.992 0.114 189 181 170 0
34.6301 65.8177 -54.7411 0.952 0.306 -0.029 176 166 154 0
33.5587 68.9259 -55.7914 0.957 0.286 -0.043 176 166 154 0
42.8537 56.1952 -49.9973 0.582 -0.369 0.725 168 154 145 0
43.1314 55.9979 -49.8668 0.603 -0.417 0.680 167 153 144 0
43.2999 56.0853 -49.8360 0.569 -0.433 0.699 168 154 145 0
37.1955 86.1328 -58.6950 0.433 -0.900 -0.050 159 146 136 0
36.9832 87.4819 -59.0740 0.458 -0.844 -0.278 159 146 137 0
49.1708 54.7821 -47.7465 0.988 -0.019 0.156 157 144 135 0
49.3234 73.5564 -52.0752 -0.114 -0.975 -0.192 255 255 255 0
-39.6055 0.7841 -62.4180 0.899 -0.433 -0.069 255 255 255 0
-39.6258 1.0268 -62.4811 0.904 -0.426 -0.039 255 255 255 0
-39.0202 14.6782 -65.4978 0.845 -0.528 -0.090 238 230 228 0
-39.0449 14.9657 -65.5728 0.850 -0.521 -0.076 238 230 228 0
-23.2001 28.5962 -63.9276 0.645 -0.399 0.651 230 225 222 0
-22.5318 29.3456 -63.8992 0.136 -0.651 -0.747 225 224 222 0
-22.1603 29.3789 -63.7934 -0.044 -0.679 -0.732 225 224 222 0
-7.5005 24.7714 -58.2329 0.903 -0.182 0.390 223 219 218 0
-8.9350 27.4581 -59.3014 0.881 -0.310 0.357 218 216 217 0
-8.7415 27.5980 -59.2751 0.900 -0.232 0.368 218 216 217 0
-6.1695 32.5076 -59.6406 0.847 -0.434 -0.307 207 208 212 0
-5.6886 32.3834 -59.4646 0.867 -0.492 0.085 207 206 211 0
-7.5216 34.4132 -60.5007 0.736 -0.534 -0.416 206 205 210 0
-6.5325 33.8176 -60.0588 0.331 -0.852 -0.406 206 206 211 0
-6.6688 34.2729 -60.2072 0.905 -0.425 0.019 206 206 211 0
-6.1088 34.0740 -59.9894 0.927 -0.371 0.064 207 206 211 0
-6.3407 34.6218 -60.1888 0.318 -0.848 -0.423 207 206 211 0
-5.6839 34.3282 -59.9193 0.732 -0.517 -0.444 205 206 211 0
-4.3227 38.0353 -60.3727 -0.357 -0.716 0.600 204 205 210 0
-1.2037 35.8945 -58.9175 0.662 -0.666 0.345 204 204 212 0
11.1811 24.7257 -52.5133 0.291 -0.931 0.221 202 202 210 0
11.4131 24.7765 -52.4543 0.765 -0.617 0.186 202 202 210 0
11.7793 24.6863 -52.3213 0.833 -0.547 0.083 201 201 210 0
12.0828 24.6602 -52.2224 0.645 -0.728 -0.232 202 202 209 0
12.0890 24.9462 -52.2876 0.727 -0.687 -0.005 201 202 207 0
7.1006 34.0670 -55.9512 0.523 -0.669 0.528 199 200 194 0
16.0484 33.8347 -53.1623 0.473 -0.881 -0.014 236 239 86 0
16.2962 33.8582 -53.0921 0.271 -0.923 -0.274 237 238 83 0
16.3663 34.1042 -53.1284 0.873 -0.443 0.201 237 239 80 0
15.2222 38.3158 -54.4658 0.766 -0.589 0.258 236 236 86 0
15.2576 38.6234 -54.5271 0.788 -0.373 0.490 237 237 87 0
15.8428 38.2129 -54.2520 0.631 -0.364 0.685 236 236 89 0
14.1019 41.2185 -55.4889 0.157 -0.890 0.427 235 236 89 0
18.1730 54.8700 -57.4467 0.807 0.158 0.569 164 179 173 0
17.8876 56.2137 -57.8490 0.892 -0.449 0.049 169 180 178 0
24.3272 65.2117 -57.9915 -0.135 -0.967 0.215 188 184 175 0
24.9272 64.5480 -57.6525 0.848 0.006 0.530 187 183 174 0
25.7915 63.8619 -57.2275 0.099 -0.972 -0.215 185 181 172 0
27.9846 61.0033 -55.8868 0.273 -0.360 0.892 186 182 173 0
28.1521 61.1639 -55.8733 0.273 -0.360 0.892 187 181 173 0
27.9823 62.0060 -56.1227 0.279 -0.184 0.942 189 182 174 0
28.1829 62.1026 -56.0840 0.359 -0.156 0.920 189 182 174 0
34.4886 66.2337 -55.1260 0.950 0.310 -0.024 176 165 153 0
31.6070 74.8545 -58.0285 0.951 0.308 -0.021 176 163 154 0
49.7408 57.1483 -48.3342 0.232 -0.645 0.729 156 143 136 0
47.2869 74.3442 -53.1172 0.176 -0.658 0.732 153 141 129 0
47.5307 74.2211 -53.0138 -0.291 -0.927 -0.238 151 139 127 0
-39.6259 0.7829 -62.6756 0.899 -0.433 -0.069 255 255 255 0
-39.6389 1.0226 -62.7362 0.904 -0.426 -0.039 255 255 255 0
-38.8988 13.5208 -65.4590 0.579 -0.755 0.307 234 227 225 0
-39.2828 14.8133 -65.8820 0.974 -0.215 -0.071 238 230 228 0
-7.3931 25.5749 -58.6319 0.985 0.154 0.073 218 217 215 0
-5.3519 32.0852 -59.5419 0.919 -0.393 -0.028 207 206 211 0
-6.6333 33.9267 -60.3700 0.331 -0.852 -0.406 206 205 210 0
-6.0886 33.7430 -60.1594 0.916 -0.359 -0.179 207 206 211 0
-6.4484 34.7392 -60.5050 0.318 -0.848 -0.423 207 206 211 0
-5.6159 34.2791 -60.1408 0.396 -0.838 -0.376 205 206 211 0
10.0647 25.9021 -53.3495 0.185 -0.707 0.683 203 204 210 0
11.5957 24.6031 -52.5728 0.729 -0.592 -0.343 203 203 211 0
11.6980 24.7885 -52.5852 0.826 -0.560 0.064 202 202 210 0
12.0530 24.7086 -52.4574 0.645 -0.728 -0.232 204 204 211 0
12.0581 24.9962 -52.5237 0.743 -0.648 0.167 204 205 210 0
-1.6686 41.2454 -60.5733 -0.091 -0.383 0.919 204 205 208 0
7.3639 32.8170 -55.8108 0.817 -0.527 0.233 202 202 202 0
7.4879 33.0063 -55.8174 0.817 -0.527 0.233 203 203 201 0
7.7034 33.0953 -55.7723 0.732 -0.637 0.242 202 203 198 0
13.8881 30.6043 -53.2856 0.024 -0.922 0.385 221 220 99 0
13.2767 31.9594 -53.7931 0.251 -0.829 0.499 223 224 94 0
16.0352 33.8772 -53.3989 0.337 -0.924 -0.183 235 239 87 0
16.3427 33.8262 -53.2925 0.270 -0.761 -0.590 235 239 84 0
12.4649 40.8308 -56.1364 0.278 -0.959 -0.060 235 237 78 0
15.2210 37.9941 -54.6206 0.764 -0.600 0.238 236 237 83 0
15.2457 38.3145 -54.6887 0.780 -0.597 0.188 236 236 86 0
15.1012 41.0197 -55.3716 0.952 -0.245 -0.184 233 232 81 0
22.1135 32.9813 -51.3214 0.438 -0.530 0.726 226 225 75 0
24.3565 34.2598 -50.9346 0.648 -0.297 0.702 207 200 58 0
24.6831 35.8698 -51.2143 0.995 -0.009 0.102 192 184 60 0
23.2746 41.6205 -53.0041 0.445 -0.851 -0.278 156 149 76 0
18.7884 51.3602 -56.6804 0.928 0.356 -0.110 74 125 94 0
17.8620 54.9777 -57.8186 0.874 -0.456 -0.167 160 177 169 0
24.3000 65.3289 -58.2854 -0.142 -0.965 0.221 188 184 175 0
27.4943 60.0690 -56.0632 0.414 -0.414 0.811 187 183 172 0
27.9146 60.2186 -55.9695 0.266 -0.368 0.891 186 182 171 0
28.0751 61.3829 -56.1950 0.386 -0.296 0.874 185 181 171 0
28.2331 61.5641 -56.1893 0.294 -0.191 0.936 185 181 172 0
28.4745 61.5759 -56.1180 0.336 -0.156 0.929 186 181 171 0
34.3951 52.2897 -52.1084 0.424 -0.769 -0.478 185 178 170 0
34.7720 51.9657 -51.9162 0.083 -0.962 -0.260 185 178 170 0
33.2161 59.1528 -54.0903 -0.203 -0.805 0.557 184 175 166 0
33.7555 58.4802 -53.7660 -0.129 -0.594 0.794 184 175 166 0
33.8328 58.8135 -53.8209 -0.278 -0.689 0.669 182 173 164 0
33.8838 59.2065 -53.8980 -0.294 -0.681 0.671 182 173 164 0
34.0703 59.3017 -53.8632 -0.395 -0.911 0.115 181 172 163 0
35.1936 64.0935 -54.6494 0.951 0.308 -0.026 175 165 154 0
33.0750 81.2962 -59.3604 -0.202 -0.910 -0.361 166 153 144 0
44.5516 61.1519 -51.0821 0.883 0.382 0.273 161 149 137 0
47.3199 74.3568 -53.3491 -0.289 -0.939 -0.185 150 138 127 0
47.5509 74.2780 -53.2596 -0.291 -0.927 -0.238 149 136 127 0
47.7596 74.2736 -53.1945 -0.286 -0.925 -0.250 149 138 128 0
-39.7436 0.8221 -62.9732 0.904 -0.426 -0.039 255 255 255 0
-39.5807 0.9886 -62.9624 0.950 -0.311 -0.013 255 255 255 0
-39.4669 1.1757 -62.9718 0.943 -0.332 -0.034 135 135 135 0
-50.7334 8.5138 -68.1897 0.968 -0.137 -0.211 234 223 217 0
-38.7698 13.4483 -65.6721 0.538 -0.783 0.312 234 227 224 0
-39.1261 14.7252 -66.0853 0.978 -0.207 -0.005 239 231 229 0
-22.8114 29.5691 -64.5795 0.898 -0.264 0.353 228 227 225 0
-15.4426 29.7748 -62.3556 0.046 -0.687 -0.725 222 221 218 0
-12.4027 34.9229 -62.6410 0.883 -0.411 -0.228 214 212 218 0
11.6206 24.5939 -52.7781 0.700 -0.662 -0.266 204 204 211 0
11.7614 24.7392 -52.7692 0.700 -0.662 -0.266 203 203 211 0
11.8558 24.9331 -52.7862 0.707 -0.602 -0.372 202 203 209 0
12.0983 24.9712 -52.7204 0.770 -0.638 -0.021 203 204 209 0
-2.3035 40.5222 -60.8562 -0.051 -0.306 0.951 204 205 208 0
-1.7608 40.2999 -60.6360 -0.045 -0.277 0.960 204 205 208 0
-1.9301 41.1909 -60.8999 0.012 -0.274 0.962 204 205 208 0
7.6018 32.9021 -55.9911 0.791 -0.569 0.223 203 203 201 0
7.8086 33.0003 -55.9507 0.665 -0.721 0.195 202 203 199 0
7.4392 33.7352 -56.2392 0.641 -0.567 0.518 200 201 196 0
14.4468 29.9768 -53.1851 0.250 -0.899 0.359 220 219 102 0
13.4337 31.7984 -53.9303 0.119 -0.862 0.493 222 224 95 0
11.7491 39.2549 -56.2211 0.185 -0.895 -0.405 235 239 89 0
15.1785 38.0780 -54.8838 0.782 -0.597 0.179 235 235 81 0
15.3138 38.2552 -54.8842 0.782 -0.597 0.179 235 235 85 0
14.8053 41.0797 -55.7120 0.873 -0.233 -0.428 234 233 87 0
15.1242 41.0204 -55.5995 0.913 -0.321 -0.250 231 231 82 0
23.2537 41.6904 -53.2514 0.445 -0.851 -0.278 154 148 80 0
18.4613 54.9366 -57.8759 0.860 -0.509 0.036 166 177 173 0
21.1871 52.6608 -56.4947 0.907 -0.126 0.401 167 178 172 0
24.2225 64.0219 -58.2572 0.955 -0.027 0.297 185 181 172 0
23.9743 65.5165 -58.6888 0.266 -0.943 -0.200 185 182 173 0
24.8367 64.3455 -58.1446 0.055 -0.991 0.126 185 182 173 0
28.5351 61.0179 -56.2135 0.312 -0.344 0.886 185 181 172 0
28.7251 61.1319 -56.1820 0.334 -0.136 0.933 185 180 170 0
28.7933 61.4940 -56.2470 0.336 -0.156 0.929 186 179 169 0
38.9476 44.9930 -49.1955 0.916 0.201 0.346 184 175 167 0
34.1327 57.7248 -53.7049 -0.109 -0.551 0.827 184 175 166 0
34.3319 57.7872 -53.6583 -0.184 -0.681 0.709 182 173 164 0
34.0076 59.0033 -54.0472 -0.300 -0.676 0.673 183 174 165 0
38.8381 54.5500 -51.4995 0.928 0.251 -0.277 174 166 155 0
35.2735 63.4405 -54.7108 0.958 0.221 -0.182 174 166 155 0
30.3437 78.6945 -59.8547 0.943 0.330 0.035 172 162 152 0
29.3076 81.8394 -60.9212 0.948 0.318 0.004 172 162 152 0
28.2031 85.1803 -62.0555 0.946 0.324 0.005 173 163 153 0
35.1665 91.7140 -61.4598 0.408 -0.334 -0.850 156 146 136 0
48.8418 54.3724 -48.3719 0.044 -0.997 -0.070 155 144 138 0
47.7722 71.5251 -52.7763 -0.008 -0.987 -0.163 151 138 129 0
47.6074 72.7869 -53.1269 0.051 -0.993 -0.103 150 137 127 0
47.3450 74.3965 -53.5901 -0.289 -0.939 -0.185 150 137 128 0
47.5711 74.3349 -53.5058 -0.291 -0.927 -0.238 150 137 128 0
47.7788 74.3346 -53.4417 -0.286 -0.925 -0.250 147 137 127 0
-39.7976 0.8348 -63.2453 0.870 -0.492 0.036 254 254 254 0
-39.5866 0.9813 -63.2149 0.950 -0.311 -0.013 254 254 254 0
-39.4806 1.1718 -63.2276 0.948 -0.318 -0.019 135 136 135 0
-47.6372 6.3725 -66.9980 0.417 -0.619 -0.666 234 223 217 0
-31.7507 23.8509 -66.2539 -0.543 -0.692 0.476 236 230 228 0
-24.1923 30.2970 -65.4529 0.698 -0.013 0.716 229 227 226 0
-15.7562 30.3530 -62.8525 0.061 -0.659 -0.750 221 220 218 0
-12.6135 29.3362 -61.6357 0.089 -0.545 -0.834 221 219 219 0
-12.8082 34.9645 -63.0414 0.830 -0.451 -0.328 214 212 217 0
-7.7385 35.3234 -61.5565 0.822 -0.260 -0.507 208 207 213 0
1.3404 36.0063 -58.9067 0.442 -0.396 0.804 204 205 210 0
-1.5395 40.7940 -60.9435 0.251 -0.254 0.934 204 206 207 0
9.5265 30.8107 -55.1283 0.392 -0.890 -0.232 201 203 200 0
7.9787 32.8338 -56.0915 0.330 -0.939 0.091 201 203 198 0
7.9728 33.1663 -56.1728 0.226 -0.960 0.167 201 203 197 0
8.2086 33.2318 -56.1154 0.226 -0.960 0.167 200 200 196 0
14.5004 29.9366 -53.3783 0.562 -0.815 -0.142 220 219 105 0
9.3225 37.3300 -56.7500 0.024 -0.501 0.865 224 226 91 0
10.6518 37.4721 -56.3721 0.007 -0.793 0.610 228 233 89 0
12.5232 37.9653 -55.9101 0.194 -0.866 -0.460 234 238 91 0
9.4609 43.2476 -58.1217 0.863 0.352 0.362 233 237 82 0
12.6211 40.6892 -56.5309 0.625 -0.688 -0.369 235 236 80 0
15.0172 41.1947 -55.9094 0.950 -0.249 -0.188 232 232 86 0
22.4580 35.9840 -52.3583 0.123 -0.969 -0.215 211 206 60 0
24.6923 34.1859 -51.2362 0.729 -0.464 0.503 205 197 58 0
23.5113 41.3350 -53.3111 0.700 -0.675 0.235 153 148 87 0
18.0530 53.0308 -57.7981 0.911 0.359 -0.203 103 139 116 0
20.6196 60.9415 -58.8939 -0.028 -0.884 -0.467 176 181 175 0
29.1355 46.7159 -52.8548 0.735 0.475 0.484 175 180 175 0
28.6404 60.3729 -56.2729 0.339 -0.336 0.879 185 179 170 0
28.7971 60.5523 -56.2672 0.327 -0.347 0.879 186 180 172 0
39.1877 44.9738 -49.3238 0.796 -0.573 0.195 184 175 167 0
39.3317 45.1014 -49.3097 0.805 -0.559 0.201 184 175 167 0
30.9016 65.9255 -56.8995 0.827 0.446 0.343 183 173 163 0
40.7427 48.2730 -49.6307 0.850 -0.378 -0.368 177 169 157 0
31.3545 78.1842 -59.6896 0.943 0.274 -0.188 171 161 151 0
32.6537 82.5958 -60.3416 -0.132 -0.758 -0.638 162 154 140 0
48.3218 63.2093 -50.8528 0.020 -0.864 -0.503 155 140 135 0
48.4642 63.3806 -50.8496 0.390 -0.700 -0.598 154 140 134 0
47.6511 72.7615 -53.3440 0.059 -0.994 -0.094 150 136 127 0
45.5419 82.2460 -56.2648 0.926 -0.260 -0.273 146 136 126 0
-39.4802 0.6929 -63.3650 0.956 -0.293 -0.031 255 255 255 0
-39.5924 0.9741 -63.4676 0.950 -0.311 -0.013 254 254 254 0
-39.4878 1.1653 -63.4810 0.948 -0.318 -0.019 135 135 135 0
-41.0756 15.7526 -67.4842 0.271 -0.232 0.934 235 229 229 0
-41.0945 16.0420 -67.5597 0.451 -0.390 0.803 236 230 230 0
-31.5684 23.4363 -66.3733 -0.554 -0.704 0.444 236 229 227 0
-7.7567 34.3619 -61.5899 -0.463 -0.873 -0.151 208 207 212 0
-7.8619 35.7889 -61.9660 0.650 -0.620 -0.439 205 206 211 0
10.0154 29.9796 -55.0041 0.559 -0.826 -0.073 204 206 205 0
10.1941 30.0982 -54.9770 0.559 -0.826 -0.073 202 204 202 0
8.0888 33.0591 -56.3445 0.081 -0.918 0.388 201 202 197 0
8.1130 33.3592 -56.4092 0.249 -0.925 0.288 198 199 193 0
8.4686 33.2912 -56.2821 0.273 -0.903 0.332 197 198 191 0
9.4420 37.2136 -56.9227 0.051 -0.484 0.874 222 226 94 0
10.8131 37.3034 -56.5175 0.032 -0.803 0.595 228 233 87 0
12.7420 37.7202 -56.0174 0.211 -0.878 -0.429 233 235 90 0
10.8336 40.4543 -57.2691 0.406 -0.530 -0.745 231 234 87 0
10.3181 41.8268 -57.7597 0.874 0.319 0.366 231 234 82 0
15.6260 37.2070 -54.9963 0.800 -0.591 0.100 233 233 79 0
24.7802 34.0918 -51.3976 0.748 -0.477 0.462 204 197 55 0
25.0283 34.4219 -51.3998 0.748 -0.420 0.514 198 189 58 0
24.0300 36.2200 -52.1431 0.777 -0.619 -0.116 195 186 58 0
23.4570 41.4559 -53.5809 0.708 -0.672 0.217 152 147 92 0
24.6265 51.7077 -55.6830 0.401 -0.915 0.043 171 176 172 0
20.5898 61.0493 -59.1865 -0.047 -0.892 -0.450 175 180 175 0
20.6288 69.4884 -61.2044 0.974 0.224 0.040 181 181 172 0
39.2779 44.8393 -49.4704 0.760 -0.649 0.023 183 174 165 0
40.6817 48.0149 -49.7974 0.241 -0.819 -0.521 178 168 158 0
40.7181 48.3954 -49.8776 0.849 -0.384 -0.363 178 168 158 0
33.9044 73.7996 -58.1094 0.949 0.255 -0.184 167 157 145 0
48.3468 63.2366 -51.0731 0.048 -0.837 -0.546 155 140 135 0
47.8785 71.4077 -53.1844 -0.045 -0.937 -0.347 152 138 129 0
47.6998 72.7189 -53.5555 0.093 -0.991 -0.093 150 136 128 0
-42.5229 1.7105 -64.8150 0.957 -0.288 -0.032 255 255 255 0
-39.6490 0.7534 -63.6847 0.946 -0.324 -0.017 255 255 255 0
-39.5825 0.9602 -63.7140 0.949 -0.316 -0.019 254 254 254 0
-39.4951 1.1587 -63.7347 0.948 -0.318 -0.019 135 135 135 0
-39.4394 1.3709 -63.7686 0.946 -0.324 -0.017 68 64 63 0
-40.7407 15.8485 -67.6799 0.833 -0.168 0.527 237 231 230 0
-39.4995 15.7399 -67.2655 0.815 -0.524 0.246 235 230 226 0
-16.4600 23.9237 -62.0426 0.937 -0.081 -0.339 229 225 224 0
-19.1150 27.4164 -63.7181 0.941 0.208 -0.266 228 224 223 0
1.4679 35.5761 -59.2574 0.430 -0.438 0.789 204 205 210 0
1.4253 35.9567 -59.3629 0.394 -0.492 0.776 205 206 211 0
9.2619 32.1043 -55.9801 0.924 -0.287 0.251 200 201 195 0
9.5757 32.0781 -55.8756 0.760 -0.452 0.468 199 200 193 0
10.5923 37.5954 -56.8932 -0.006 -0.890 0.455 225 232 90 0
11.7916 36.8351 -56.3342 -0.078 -0.884 -0.461 226 234 90 0
12.9107 37.5374 -56.1543 0.292 -0.891 -0.349 230 233 90 0
10.9456 40.3426 -57.4478 0.301 -0.796 -0.525 230 234 88 0
10.4482 41.6918 -57.9298 0.184 -0.786 -0.590 228 233 83 0
10.5825 41.8883 -57.9354 0.102 -0.815 -0.570 230 234 82 0
11.0840 41.6189 -57.7134 0.127 -0.793 -0.596 232 232 82 0
10.4936 42.7379 -58.1689 0.900 -0.292 0.322 232 233 80 0
15.6871 37.1568 -55.1940 0.800 -0.590 0.110 232 233 80 0
15.8946 38.6478 -55.4901 0.805 -0.577 -0.139 233 235 91 0
24.5829 34.7530 -51.8307 0.793 -0.422 0.439 200 192 58 0
25.3937 43.8505 -53.7792 0.140 -0.198 0.970 164 175 169 0
18.8466 55.3339 -58.6060 0.769 -0.509 -0.387 167 176 172 0
19.5476 54.6280 -58.2160 0.579 -0.556 -0.597 167 176 173 0
19.9307 54.8797 -58.1571 0.687 -0.629 -0.365 168 177 174 0
20.9490 53.6319 -57.5367 0.675 -0.693 0.252 168 177 174 0
24.2917 51.4671 -55.9675 0.787 -0.595 -0.162 169 175 171 0
24.4321 51.6587 -55.9700 0.773 -0.618 -0.145 171 176 172 0
20.5143 67.1747 -60.9507 0.597 -0.347 0.723 180 180 172 0
39.6849 45.3348 -49.6700 0.770 -0.636 0.040 182 171 164 0
40.7551 48.3763 -50.0716 0.729 -0.411 -0.547 179 169 159 0
36.0291 68.0015 -56.2997 0.932 0.360 0.040 168 158 146 0
33.1899 75.6758 -59.0451 0.931 0.362 0.049 166 156 144 0
32.0614 79.1277 -60.2335 0.949 0.255 -0.184 166 156 144 0
47.7786 65.8182 -52.0974 0.464 -0.257 -0.848 154 139 132 0
49.1043 66.6823 -51.8921 0.007 -0.886 -0.464 151 139 129 0
-42.5335 1.7048 -65.0752 0.957 -0.288 -0.032 255 255 255 0
-39.5600 0.9411 -63.9552 0.946 -0.325 -0.015 254 254 254 0
-39.5024 1.1521 -63.9886 0.948 -0.318 -0.019 133 133 133 0
-42.4536 17.3262 -68.8549 0.702 -0.710 -0.047 234 229 225 0
-18.2717 23.7976 -62.8357 0.925 -0.090 -0.370 231 225 224 0
-18.1552 24.5964 -62.9936 0.979 -0.032 -0.201 230 225 223 0
-16.6175 24.0467 -62.3767 0.942 -0.059 -0.330 230 226 224 0
1.7066 35.3455 -59.3731 0.402 -0.899 0.171 205 206 212 0
9.7488 31.9061 -56.0094 0.747 -0.466 0.475 200 201 194 0
9.2043 37.1989 -57.4696 0.075 -0.800 -0.596 217 223 100 0
10.1930 38.1030 -57.3792 0.067 -0.519 0.852 224 232 94 0
10.8724 37.6303 -57.0507 -0.014 -0.866 -0.499 225 232 91 0
11.6713 37.3534 -56.7323 -0.151 -0.859 -0.489 226 233 93 0
13.9210 35.9636 -55.6872 0.480 -0.865 -0.142 228 233 88 0
14.0040 36.2033 -55.7195 0.458 -0.888 -0.044 228 234 87 0
13.4327 37.6100 -56.2416 0.220 -0.947 -0.233 228 235 85 0
11.3683 40.5614 -57.6088 0.270 -0.810 -0.520 227 234 81 0
10.7889 42.0230 -58.1468 0.125 -0.774 -0.621 229 233 78 0
10.8807 42.2743 -58.1792 0.199 -0.905 -0.376 229 233 77 0
15.8361 38.7547 -55.7655 0.778 -0.594 -0.205 230 234 88 0
16.0066 38.8867 -55.7441 0.777 -0.588 -0.224 231 233 88 0
18.3235 36.5178 -54.4393 0.801 -0.570 -0.183 229 231 88 0
24.7325 34.5697 -51.9518 0.478 -0.706 0.523 199 191 58 0
18.9650 53.0057 -58.2537 0.687 0.253 0.681 159 171 162 0
20.9980 53.5985 -57.7595 0.675 -0.693 0.252 170 175 172 0
30.3577 52.8821 -54.6452 0.948 0.215 0.233 182 182 171 0
36.1990 48.3752 -51.7127 0.483 -0.614 0.625 184 178 166 0
39.7634 44.7843 -49.7185 0.400 -0.425 0.812 181 172 165 0
39.8994 44.9275 -49.7107 0.400 -0.425 0.812 181 171 163 0
29.9368 68.8335 -58.6626 0.999 -0.035 0.022 180 171 160 0
40.8085 48.3194 -50.2513 0.324 -0.809 -0.489 178 168 158 0
40.8110 48.7809 -50.3629 0.976 0.096 -0.195 177 167 157 0
40.8101 49.2535 -50.4783 0.810 -0.272 -0.520 175 165 156 0
33.8065 81.1962 -60.4582 -0.268 -0.866 -0.421 161 151 141 0
47.1769 66.5745 -52.6973 0.462 -0.268 -0.845 153 138 131 0
46.1580 72.5491 -54.4725 0.783 -0.369 -0.501 152 138 130 0
44.9774 83.8456 -57.5948 0.760 -0.473 -0.446 145 135 123 0
-42.5606 1.7059 -65.3426 0.953 -0.299 -0.038 255 255 255 0
-39.5385 0.9224 -64.1971 0.957 -0.288 -0.016 255 255 255 0
-39.5097 1.1456 -64.2427 0.948 -0.318 -0.019 133 133 133 0
-39.9993 13.7926 -67.4966 0.905 0.134 0.404 233 227 219 0
-42.3811 17.2826 -69.1034 0.957 -0.286 0.052 234 229 226 0
-17.3971 24.0423 -62.8771 0.979 0.180 -0.098 230 225 222 0
-17.4724 24.3927 -62.9867 0.979 0.180 -0.098 231 226 223 0
-6.7305 25.6706 -59.9105 0.723 -0.379 0.578 221 222 218 0
-7.0792 26.2633 -60.1659 0.422 -0.420 0.803 220 220 219 0
10.9627 29.0029 -55.1447 0.156 -0.959 -0.237 205 207 206 0
10.6268 29.6831 -55.4173 0.113 -0.906 -0.408 205 207 204 0
13.7823 35.8198 -55.9257 0.438 -0.879 -0.185 225 233 89 0
14.0301 35.8547 -55.8560 0.565 -0.812 -0.144 226 233 86 0
14.2091 35.9745 -55.8289 0.565 -0.812 -0.144 226 235 86 0
13.1406 37.6542 -56.5777 0.227 -0.944 -0.239 227 236 85 0
13.3861 37.6961 -56.5105 0.227 -0.944 -0.239 226 235 82 0
10.8020 42.4044 -58.4797 0.194 -0.679 -0.709 228 234 76 0
16.4904 37.2198 -55.4143 0.990 -0.099 -0.102 226 232 80 0
16.1601 38.0039 -55.7107 0.990 -0.040 -0.136 227 233 83 0
15.8190 38.8073 -56.0152 0.773 -0.589 -0.233 229 233 86 0
15.9813 38.9504 -55.9990 0.777 -0.588 -0.224 230 233 88 0
21.8890 42.4281 -54.9873 0.550 -0.803 0.228 168 154 73 0
22.2940 42.1983 -54.8032 0.375 -0.879 0.294 163 150 77 0
19.6223 49.4776 -57.4301 0.800 0.430 0.418 142 159 143 0
20.0752 61.6458 -60.2694 -0.311 -0.940 -0.140 176 179 172 0
37.5245 42.2717 -50.0157 0.139 -0.777 0.615 183 179 167 0
37.6404 42.4535 -50.0237 0.409 -0.860 0.305 184 178 167 0
34.2562 54.8527 -54.1302 0.596 -0.550 0.585 182 173 167 0
39.4965 44.1119 -49.8444 0.784 -0.289 0.549 182 173 166 0
28.8835 70.6873 -59.7060 0.901 0.195 0.388 179 171 160 0
29.7547 69.8731 -59.2316 0.967 -0.128 -0.221 179 171 160 0
41.9618 45.2727 -49.3510 0.818 0.325 0.475 178 168 158 0
41.3464 47.1447 -50.0040 0.952 0.141 0.273 178 168 158 0
40.2130 55.1597 -52.3259 0.944 0.255 -0.208 171 161 149 0
39.2894 57.9274 -53.2956 0.945 0.242 -0.220 170 160 149 0
38.0140 61.5839 -54.5941 0.928 0.225 -0.297 171 161 151 0
36.4710 78.7493 -59.2878 -0.361 -0.925 -0.122 158 148 136 0
46.8832 73.0429 -54.6040 0.606 -0.172 -0.777 149 139 129 0
45.2675 82.2067 -57.3596 0.923 -0.174 -0.344 148 136 123 0
45.4296 83.1846 -57.5481 0.927 -0.254 -0.274 147 133 122 0
-42.5174 1.6779 -65.5808 0.952 -0.303 -0.047 255 255 255 0
-39.5912 0.9347 -64.4702 0.947 -0.321 -0.032 255 255 255 0
-39.5223 1.1412 -64.4992 0.947 -0.321 -0.032 133 133 133 0
-41.2670 16.3965 -68.8139 0.977 -0.207 -0.055 235 230 227 0
-14.9763 22.5482 -61.9981 0.927 0.162 -0.339 230 225 222 0
-6.2160 24.3652 -59.6697 0.864 -0.482 0.149 221 221 222 0
-6.8489 26.3778 -60.3665 0.464 -0.362 0.809 218 218 218 0
-5.1521 33.2931 -61.5339 0.277 -0.148 0.949 209 208 213 0
3.5838 34.4040 -59.0390 0.209 -0.931 -0.298 206 208 206 0
10.3936 33.1738 -56.5773 0.208 -0.894 0.397 196 193 153 0
10.9737 36.5232 -57.2194 -0.314 -0.949 -0.010 220 228 91 0
14.0136 36.5894 -56.2722 0.088 -0.371 0.925 224 233 83 0
14.6218 37.9113 -56.4054 0.333 -0.632 -0.700 227 232 77 0
16.0260 37.5040 -55.8600 0.895 -0.420 -0.154 224 230 78 0
21.2701 42.6304 -55.4620 0.627 -0.758 0.179 175 162 70 0
22.3070 42.2165 -55.0312 0.101 -0.896 0.432 161 150 80 0
37.4042 42.1520 -50.2303 0.402 -0.894 0.199 183 178 167 0
37.7346 42.3169 -50.1663 0.372 -0.889 0.266 184 177 167 0
37.8945 42.4095 -50.1384 0.374 -0.884 0.280 184 177 167 0
38.4024 41.7922 -49.8253 0.608 -0.534 -0.588 184 177 167 0
34.2460 54.4586 -54.2659 0.452 -0.776 0.440 182 171 167 0
42.1322 44.9451 -49.4206 0.818 0.325 0.475 178 168 158 0
41.9538 45.8081 -49.6899 0.819 0.323 0.474 178 168 158 0
41.4748 47.3752 -50.2282 0.960 0.271 0.067 177 167 157 0
39.3798 54.2040 -52.5760 0.163 -0.636 0.754 173 163 151 0
39.2109 55.1062 -52.8520 0.648 -0.748 0.142 171 164 149 0
41.8340 50.8016 -50.9592 0.916 0.381 0.125 172 162 150 0
38.5997 73.6534 -57.6192 0.686 -0.712 -0.150 160 148 136 0
37.6848 90.1964 -61.9884 0.881 0.182 0.437 154 141 132 0
45.1225 82.8435 -57.8180 0.673 -0.414 -0.613 149 136 123 0
45.4092 82.6193 -57.6718 0.921 -0.267 -0.282 149 135 123 0
-39.5729 0.6825 -64.6554 0.955 -0.293 -0.048 255 255 255 0
-39.6453 0.9476 -64.7442 0.963 -0.261 -0.072 255 255 255 0
-39.5328 1.1360 -64.7551 0.947 -0.321 -0.032 133 133 133 0
-24.7396 -3.8196 -58.8160 0.317 -0.945 0.079 234 222 218 0
-40.2296 13.9019 -68.1441 0.999 -0.023 -0.043 233 226 219 0
-21.4015 24.2980 -64.7291 0.047 -0.793 -0.607 229 226 224 0
-14.9412 22.8164 -62.3047 0.927 0.179 -0.329 229 224 221 0
3.0800 17.9472 -55.3593 0.574 -0.819 -0.017 219 218 217 0
-4.7664 33.2693 -61.6587 0.039 -0.481 0.876 207 209 213 0
3.5593 34.4499 -59.3010 0.302 -0.941 -0.153 206 207 210 0
9.9919 43.1248 -59.4052 0.020 -0.805 -0.593 223 233 79 0
13.4753 41.2197 -57.8235 0.831 -0.058 0.553 224 228 78 0
13.2655 41.8622 -58.0497 0.793 -0.053 0.607 224 229 79 0
13.3138 42.1685 -58.1104 0.631 -0.333 0.701 224 229 81 0
21.4516 42.3968 -55.5762 0.602 -0.783 0.159 172 162 70 0
22.1916 42.0477 -55.2540 0.060 -0.849 0.525 164 153 79 0
30.5594 55.4473 -55.9143 0.877 -0.477 0.062 184 177 167 0
37.5275 41.9581 -50.3492 -0.470 -0.867 0.168 184 176 166 0
37.9831 42.2837 -50.2850 0.367 -0.887 0.280 184 176 168 0
38.1670 42.3266 -50.2371 0.361 -0.893 0.270 184 176 167 0
38.3336 42.4041 -50.2033 0.361 -0.893 0.270 185 176 167 0
41.4402 47.5216 -50.4838 0.959 0.277 0.067 175 165 155 0
39.3687 54.3024 -52.8256 0.749 -0.429 0.504 173 163 151 0
42.4162 48.9823 -50.5355 0.919 0.363 0.153 170 161 149 0
41.8479 50.8394 -51.1772 0.916 0.381 0.125 169 160 148 0
41.8535 51.3161 -51.2936 0.982 0.108 0.154 167 158 147 0
41.5737 52.9947 -51.7992 0.904 0.190 0.383 169 161 150 0
39.3708 58.9399 -53.9755 0.880 0.252 0.403 168 159 149 0
43.2135 58.2363 -52.5775 0.366 -0.660 0.655 160 149 138 0
36.8624 77.2310 -59.3120 -0.327 -0.872 -0.364 161 147 137 0
38.7719 73.9150 -57.8814 0.748 -0.625 -0.223 157 144 134 0
38.9422 74.0818 -57.8686 0.786 -0.523 -0.330 158 145 135 0
37.8506 89.0613 -61.9325 0.922 0.185 0.341 153 140 132 0
45.3096 68.9090 -54.5581 0.888 0.037 0.459 151 140 132 0
45.6249 71.8977 -55.1991 0.843 -0.274 -0.462 151 138 129 0
45.0580 83.2026 -58.1843 0.618 -0.528 -0.583 150 134 123 0
-39.6637 0.7105 -64.9449 0.961 -0.272 -0.041 255 255 255 0
-39.6599 0.9440 -65.0020 0.960 -0.267 -0.084 255 255 255 0
-39.5433 1.1307 -65.0113 0.947 -0.321 -0.032 133 133 133 0
-39.1881 1.9275 -65.0966 0.888 -0.454 -0.071 231 220 215 0
2.4273 18.2426 -55.8605 0.814 -0.040 -0.580 220 219 217 0
-4.8782 33.3906 -61.9779 0.077 -0.271 0.959 205 208 212 0
2.5621 35.8648 -60.2161 0.424 -0.905 -0.032 207 208 213 0
2.1619 36.6309 -60.5353 0.797 -0.584 -0.154 207 208 212 0
9.2769 30.9079 -56.8314 0.672 -0.649 -0.357 206 208 207 0
12.4776 33.4368 -56.4391 0.864 -0.210 0.457 212 217 103 0
13.1262 39.5263 -57.7517 0.532 -0.741 -0.410 223 231 81 0
13.8585 38.9468 -57.3728 0.571 -0.554 -0.606 223 231 81 0
13.5762 41.1183 -58.0051 0.850 0.002 0.526 223 227 80 0
13.4025 41.7133 -58.2092 0.787 -0.057 0.615 223 227 80 0
13.3598 42.1392 -58.3291 0.672 -0.225 0.706 223 227 80 0
17.9299 37.5145 -55.7133 0.436 -0.858 0.272 220 224 77 0
20.8330 40.3398 -55.4901 0.182 -0.926 0.331 195 185 62 0
20.9769 42.7603 -56.0482 0.523 -0.848 -0.085 172 164 66 0
21.4710 42.4051 -55.8016 0.577 -0.796 0.184 170 160 69 0
24.9919 51.8063 -57.0223 0.864 0.050 0.501 174 176 171 0
25.1424 51.9809 -57.0177 0.916 0.246 0.317 175 177 172 0
24.8038 53.4601 -57.4952 0.920 0.273 0.280 176 178 173 0
38.1416 42.0157 -50.3732 0.603 -0.543 -0.585 183 174 166 0
38.8080 42.3206 -50.2362 0.139 -0.976 0.170 183 173 164 0
31.8694 60.1456 -56.9044 0.227 0.239 0.944 178 173 162 0
38.0042 50.2391 -52.4698 0.796 0.153 0.585 174 170 158 0
37.9540 50.8191 -52.6306 0.808 0.371 0.458 173 170 158 0
42.3477 44.5771 -49.6674 0.819 0.339 0.464 175 165 155 0
41.3807 47.7261 -50.7627 0.957 0.285 0.060 173 164 153 0
42.4736 48.9139 -50.7097 0.919 0.364 0.154 169 160 148 0
41.8663 51.3574 -51.5138 0.979 0.138 0.150 167 159 148 0
41.6122 52.4737 -51.8737 0.987 0.094 0.128 167 159 148 0
39.2210 59.9258 -54.4985 0.891 0.286 0.354 165 157 146 0
43.2941 58.1053 -52.7415 0.361 -0.667 0.652 158 148 137 0
43.4339 58.2792 -52.7403 0.299 -0.699 0.650 158 147 137 0
45.5140 66.4615 -54.1174 0.938 0.158 0.308 152 139 131 0
45.7409 71.6407 -55.3376 -0.191 -0.924 0.330 148 135 126 0
-39.6668 0.7020 -65.1976 0.957 -0.273 -0.095 255 255 255 0
-39.7817 0.9851 -65.3056 0.755 -0.654 -0.042 255 255 255 0
-39.5537 1.1254 -65.2677 0.947 -0.321 -0.032 133 133 133 0
-39.2957 1.4893 -65.2761 0.768 -0.639 -0.042 226 217 213 0
-39.2201 1.9319 -65.3630 0.890 -0.455 -0.040 231 221 216 0
-36.0330 11.9722 -66.8606 0.573 -0.819 -0.018 231 226 221 0
-35.9214 12.1792 -66.8767 0.491 -0.868 -0.073 232 227 223 0
2.0036 18.0728 -56.1743 0.750 -0.108 -0.653 219 218 217 0
-6.0992 29.7377 -61.7065 0.704 -0.137 0.697 212 213 217 0
-6.2859 30.2185 -61.8871 0.826 -0.067 0.559 212 213 217 0
-6.2312 30.4842 -61.9363 0.826 -0.067 0.559 212 213 217 0
-6.7323 33.5129 -62.8579 0.379 -0.699 -0.606 206 209 214 0
12.5321 33.0662 -56.5575 0.747 -0.353 0.563 208 213 112 0
12.5328 33.3954 -56.6399 0.907 -0.246 0.341 211 216 105 0
14.0241 39.1200 -57.5985 0.804 -0.544 0.240 221 227 79 0
14.0607 39.4310 -57.6648 0.885 -0.413 0.212 221 227 78 0
14.0278 39.8333 -57.7764 0.908 -0.351 0.228 222 226 79 0
14.1133 40.0835 -57.8118 0.689 -0.054 0.723 221 225 79 0
13.8577 40.7806 -58.0690 0.770 0.006 0.638 221 225 78 0
13.9304 41.0509 -58.1135 0.772 0.003 0.636 221 225 79 0
17.6433 37.5748 -56.0479 0.294 -0.833 0.468 220 223 76 0
17.8740 37.6198 -55.9851 0.237 -0.809 0.538 220 222 76 0
20.9075 40.2670 -55.6754 0.200 -0.916 0.347 193 184 63 0
21.6114 42.2326 -55.9429 0.336 -0.912 0.235 168 159 72 0
22.4302 42.1436 -55.6575 0.296 -0.920 0.257 155 150 92 0
25.7334 42.3798 -54.6558 0.994 0.083 0.073 164 174 166 0
25.5976 56.1722 -58.1630 0.804 -0.263 -0.534 177 177 165 0
38.1044 42.1455 -50.6231 0.628 -0.525 -0.574 184 175 166 0
38.4606 42.2531 -50.5357 0.148 -0.974 0.169 183 174 165 0
38.6342 42.3150 -50.4955 0.153 -0.975 0.162 182 173 164 0
38.8476 42.2939 -50.4216 0.139 -0.976 0.170 182 173 164 0
37.9599 49.4710 -52.5091 0.667 -0.339 0.664 174 171 158 0
38.1352 50.0145 -52.5893 0.796 0.153 0.585 172 169 157 0
38.2347 50.2617 -52.6194 0.807 0.364 0.465 171 168 155 0
41.0004 49.1479 -51.4513 0.957 0.284 0.054 171 163 151 0
43.6722 43.8024 -49.2507 0.905 0.295 0.306 170 162 149 0
42.0902 49.9098 -51.2926 0.499 -0.761 -0.414 170 160 148 0
41.8598 50.9542 -51.6288 0.838 0.270 0.474 169 160 148 0
41.8059 51.5771 -51.8026 0.973 0.197 0.119 167 158 147 0
40.0655 56.8561 -53.6873 0.838 0.321 0.441 165 157 146 0
39.4923 59.3316 -54.4931 0.812 0.310 0.494 164 155 145 0
43.2087 57.8714 -52.9326 0.286 -0.576 0.766 158 147 139 0
43.3404 58.0666 -52.9393 0.274 -0.597 0.754 155 145 136 0
45.6260 68.7923 -54.8986 0.915 -0.248 0.319 147 135 129 0
45.5266 73.1330 -56.0206 0.871 -0.192 -0.453 148 135 126 0
-39.8866 0.7835 -65.5432 0.763 -0.645 -0.046 255 255 255 0
-39.7391 0.9575 -65.5396 0.763 -0.645 -0.046 255 255 255 0
-39.5643 1.1202 -65.5243 0.947 -0.321 -0.032 133 133 133 0
-39.3120 1.4867 -65.5355 0.768 -0.639 -0.042 226 217 212 0
-39.1662 1.6619 -65.5327 0.768 -0.639 -0.042 229 218 212 0
-33.8442 10.5635 -66.0645 0.601 -0.526 -0.602 231 226 218 0
-35.7006 11.7936 -66.9742 0.235 -0.881 0.410 231 226 221 0
-35.2626 12.6251 -67.0429 0.213 -0.879 -0.427 234 229 226 0
-22.9731 25.4312 -66.3130 -0.128 -0.903 -0.410 228 225 223 0
-7.1185 33.5587 -63.2508 0.379 -0.703 -0.601 209 210 215 0
-6.9458 33.7261 -63.2374 0.379 -0.699 -0.606 206 209 214 0
-5.1151 35.3009 -63.0446 0.589 -0.234 -0.773 205 209 208 0
-4.7850 35.3153 -62.9417 0.606 -0.255 -0.753 205 208 210 0
4.3423 35.3405 -60.0031 0.263 -0.924 0.279 207 209 209 0
9.3837 31.7933 -57.4803 0.544 -0.820 -0.176 208 209 204 0
9.6233 31.8499 -57.4173 0.562 -0.789 -0.248 207 208 205 0
8.9256 33.6106 -58.0873 -0.312 -0.816 0.487 201 203 191 0
11.1732 32.0468 -56.9670 -0.062 -0.553 0.831 195 196 178 0
11.3527 32.1666 -56.9393 0.145 -0.529 0.836 193 193 169 0
12.6180 32.9887 -56.7388 0.740 -0.359 0.569 207 213 114 0
12.7420 33.1722 -56.7451 0.932 -0.175 0.318 210 214 107 0
12.6534 33.6080 -56.8838 0.931 -0.188 0.313 212 216 105 0
14.0986 39.7713 -57.9746 0.902 -0.367 0.227 221 227 79 0
14.1989 40.0020 -58.0005 0.902 -0.367 0.227 220 225 77 0
14.4508 40.0349 -57.9276 0.696 0.054 0.716 220 224 75 0
14.1984 41.0956 -58.2770 0.671 -0.001 0.742 220 224 75 0
14.0374 41.6766 -58.4757 0.462 -0.333 0.822 220 224 73 0
17.6971 37.5332 -56.2481 0.295 -0.837 0.462 219 221 75 0
18.0892 37.7156 -56.1677 0.295 -0.837 0.462 218 220 71 0
22.6263 40.0067 -55.2826 0.113 -0.930 0.350 173 164 71 0
21.7446 42.0708 -56.0885 0.621 -0.783 -0.036 165 157 74 0
22.1879 42.1662 -55.9696 0.187 -0.980 0.070 157 150 87 0
22.4095 42.2128 -55.9099 0.187 -0.980 0.070 153 150 96 0
22.6620 42.5948 -55.9249 0.656 -0.504 0.561 141 140 103 0
22.7085 43.6838 -56.1850 0.687 -0.474 0.551 144 148 131 0
24.9691 41.3245 -54.8596 0.507 -0.801 0.318 159 160 152 0
25.5822 41.1231 -54.6109 0.386 -0.913 0.128 163 165 158 0
25.9218 40.9672 -54.4619 0.895 -0.446 0.022 165 168 161 0
25.9890 41.2419 -54.5096 0.883 -0.468 0.024 168 171 165 0
25.5747 42.2872 -54.9074 0.863 -0.427 0.270 166 171 165 0
26.3886 41.3695 -54.4129 0.944 -0.297 0.145 166 174 166 0
29.0956 48.5021 -55.3415 0.889 0.152 0.432 177 178 167 0
23.6958 61.1722 -60.2847 0.924 -0.287 -0.252 177 175 165 0
23.6265 61.7905 -60.4633 0.934 -0.310 -0.177 178 174 165 0
23.7374 62.0740 -60.4991 0.452 -0.794 -0.406 180 176 167 0
29.7481 55.3472 -56.8603 0.203 -0.940 0.274 185 178 168 0
38.4382 49.4095 -52.5563 0.589 -0.470 0.657 176 169 158 0
39.0010 51.4483 -52.8898 0.749 -0.457 -0.480 175 165 155 0
41.9193 48.4741 -51.1968 0.854 -0.126 -0.505 170 161 148 0
42.1495 49.8373 -51.4670 0.528 -0.613 -0.587 170 160 148 0
41.3736 52.2067 -52.3159 0.871 0.325 0.367 170 160 148 0
37.3527 68.7737 -57.7988 0.865 0.306 0.397 161 151 140 0
44.4363 58.4895 -52.9150 0.060 -0.920 0.388 156 143 134 0
37.2171 84.7252 -61.8725 0.874 0.004 0.486 151 143 130 0
45.6703 66.8281 -54.6235 0.887 0.056 0.459 152 138 130 0
41.5028 87.8388 -61.2763 -0.068 -0.991 -0.118 148 135 126 0
41.8800 87.3747 -61.0373 -0.172 -0.984 0.041 147 134 125 0
40.8486 95.6763 -63.4674 -0.292 -0.937 0.192 148 135 122 0
-39.5884 1.1206 -65.7870 0.945 -0.325 -0.037 133 133 133 0
-39.3137 1.4779 -65.7888 0.763 -0.645 -0.046 226 218 213 0
-36.1641 12.5635 -67.5856 0.932 -0.311 -0.187 234 229 226 0
-36.3187 12.9130 -67.7245 0.853 -0.330 -0.403 234 229 226 0
-23.6002 26.1867 -66.9762 -0.384 -0.905 -0.184 229 225 222 0
-19.4728 23.5266 -64.9625 -0.362 -0.877 -0.316 230 225 222 0
1.2963 18.9564 -57.0701 0.765 -0.569 0.302 218 216 217 0
-0.2485 21.3750 -58.1854 0.930 -0.347 -0.121 217 215 217 0
-0.0847 21.5153 -58.1680 0.920 -0.367 -0.142 217 216 218 0
-7.2615 33.7058 -63.5921 0.715 -0.532 -0.453 211 212 217 0
-7.2046 34.3115 -63.7276 0.663 -0.404 -0.630 209 210 215 0
-7.2725 34.7062 -63.8500 0.677 -0.414 -0.608 207 208 213 0
-3.2851 32.8948 -62.0974 0.820 -0.552 -0.151 205 209 211 0
-3.1100 33.0517 -62.0805 0.287 -0.802 -0.523 204 208 208 0
5.5955 34.3356 -59.5855 -0.059 -0.997 -0.058 208 210 207 0
11.3136 31.9089 -57.1156 0.165 -0.888 0.430 195 197 181 0
12.7352 33.8676 -57.1527 0.919 -0.194 0.343 213 217 105 0
10.9966 39.7849 -59.2201 0.575 -0.736 -0.357 219 227 89 0
12.5304 38.2303 -58.3279 0.626 -0.433 -0.649 219 228 86 0
12.7370 38.3248 -58.2849 0.796 -0.574 -0.194 219 228 84 0
19.8907 31.9494 -54.3462 0.520 -0.734 0.437 218 226 78 0
14.1819 41.8863 -58.7218 0.336 -0.853 0.399 218 222 74 0
17.3602 38.0134 -56.7075 0.519 -0.667 0.535 216 220 73 0
17.6253 38.0142 -56.6218 0.283 -0.846 0.452 216 218 72 0
