ply
format ascii 1.0
element vertex 821
property float x
property float y
property float z
property float nx
property float ny
property float nz
property uchar diffuse_red
property uchar diffuse_green
property uchar diffuse_blue
property uchar class
end_header
26.7010 24.0144 -50.5093 0.715 -0.185 0.674 211 215 80 0
22.0944 36.1884 -55.1984 -0.543 -0.632 0.553 198 193 65 0
22.1921 40.6025 -56.3384 0.764 -0.644 0.034 165 155 72 0
22.8739 43.0977 -56.7842 0.592 -0.509 0.625 147 148 135 0
37.5630 35.7337 -50.1757 0.204 -0.967 -0.152 181 177 166 0
37.8660 35.5200 -50.0229 0.949 -0.308 -0.075 180 176 165 0
35.7894 42.3512 -52.4931 0.943 0.331 -0.032 180 170 161 0
35.1458 44.1506 -53.1744 0.945 0.321 -0.063 179 170 161 0
34.1710 48.0652 -54.5216 -0.011 -0.633 0.774 179 172 160 0
32.8977 54.7733 -56.7045 0.714 -0.679 0.170 176 170 158 0
33.0526 54.9374 -56.6990 0.714 -0.679 0.170 176 170 158 0
33.2432 55.0212 -56.6608 0.700 -0.703 0.124 175 169 157 0
33.5029 54.9480 -56.5591 0.288 -0.954 0.082 176 170 158 0
33.7014 55.0118 -56.5131 0.288 -0.954 0.082 176 169 158 0
34.1343 54.5392 -56.2506 0.702 -0.712 0.012 175 167 156 0
42.4647 47.0585 -51.6263 0.955 -0.234 0.183 164 154 144 0
42.4842 47.5158 -51.7414 0.946 -0.317 -0.063 164 153 143 0
43.0342 48.1266 -51.7291 0.215 -0.779 -0.590 164 153 141 0
42.4970 62.7940 -55.7900 0.840 0.046 0.541 150 141 126 0
42.9865 61.9541 -55.4121 0.302 -0.908 0.292 149 140 125 0
42.9367 62.7360 -55.6353 0.946 -0.304 -0.114 149 140 126 0
40.2708 74.9891 -59.7304 0.675 0.328 0.661 149 139 128 0
40.1401 81.3437 -61.4574 0.997 -0.004 0.075 148 136 126 0
40.4618 84.1973 -62.1124 -0.039 -0.852 -0.521 147 134 126 0
48.8782 63.8752 -54.0545 0.321 -0.126 0.939 148 131 123 0
44.3522 85.2716 -61.1644 0.992 0.068 -0.108 145 131 120 0
44.9920 83.7164 -60.5492 0.741 -0.264 -0.617 145 131 121 0
45.3401 84.9744 -60.7726 0.619 -0.675 -0.402 142 128 119 0
-44.9775 3.2252 -67.9733 0.336 -0.933 -0.129 255 255 255 0
-44.6764 3.3365 -67.9072 0.347 -0.927 -0.146 133 133 133 0
-44.3675 3.4440 -67.8375 0.339 -0.929 -0.151 70 67 66 0
-44.0227 3.5347 -67.7520 0.333 -0.933 -0.135 228 219 215 0
-39.6021 13.5046 -69.0049 -0.027 -0.997 0.072 231 223 221 0
-38.9279 13.6791 -68.8369 -0.228 -0.966 0.124 231 225 222 0
-36.4892 13.1349 -67.9154 0.412 -0.396 0.821 234 229 226 0
-4.7947 26.0926 -61.2842 0.361 -0.170 0.917 215 215 217 0
-3.9197 25.8972 -60.9536 0.482 -0.117 0.868 212 213 217 0
-5.8960 33.2252 -63.5378 0.129 -0.563 0.816 206 209 214 0
6.8418 34.0859 -59.7129 0.066 -0.436 0.898 210 212 208 0
12.6656 31.8390 -57.2597 0.316 -0.890 0.328 194 196 153 0
10.0797 35.3889 -59.0300 0.353 -0.858 0.373 197 200 147 0
10.2820 35.4887 -58.9922 0.353 -0.858 0.373 200 201 140 0
10.1501 36.0066 -59.1724 0.445 -0.724 0.526 201 204 133 0
10.2026 36.2957 -59.2328 0.534 -0.814 0.228 202 206 124 0
9.9435 37.3384 -59.5935 0.668 -0.682 0.297 206 209 108 0
9.6074 38.1271 -59.9109 0.587 -0.390 0.709 208 212 106 0
9.9562 38.4105 -59.8755 0.768 -0.637 0.074 210 216 101 0
11.6234 36.9892 -58.9656 0.490 -0.862 0.130 212 219 97 0
11.8735 37.0254 -58.8956 0.344 -0.905 -0.250 211 219 93 0
12.2119 36.9458 -58.7667 0.404 -0.904 -0.141 214 222 91 0
12.4810 38.4120 -59.0722 0.287 -0.608 0.740 216 224 86 0
18.8802 30.2372 -54.8542 0.705 -0.709 0.012 217 224 86 0
18.9489 30.4811 -54.8974 0.744 -0.588 0.318 216 223 85 0
14.1821 40.2020 -59.0083 -0.284 -0.898 -0.337 211 218 79 0
14.8298 45.1385 -60.1193 -0.267 -0.621 0.738 200 201 67 0
15.1215 45.1106 -60.0190 -0.269 -0.590 0.761 200 200 67 0
21.5607 36.2859 -55.6148 -0.524 -0.579 0.625 197 195 65 0
21.7277 40.5894 -56.7099 0.786 -0.481 -0.388 170 161 70 0
22.1068 40.3831 -56.5342 0.893 -0.444 -0.067 167 157 71 0
37.4181 36.0775 -50.5118 0.211 -0.966 -0.151 179 175 164 0
37.8102 35.6829 -50.2817 0.733 -0.665 0.145 178 174 163 0
36.1757 41.1588 -52.2630 0.920 0.372 0.121 179 171 162 0
33.2158 48.7512 -55.2308 -0.017 -0.912 0.411 178 173 161 0
27.2417 65.2213 -61.5268 -0.024 -0.856 0.517 177 168 156 0
33.7622 57.0302 -57.2659 0.995 0.097 -0.009 173 163 153 0
44.6709 39.0787 -49.0039 0.869 0.231 0.438 165 155 143 0
43.2348 44.1527 -50.8148 0.717 0.326 0.616 165 155 143 0
42.8290 63.8020 -56.1867 0.733 0.147 0.664 150 140 128 0
40.1393 80.7031 -61.5522 1.000 -0.017 0.009 148 134 124 0
40.0867 81.6435 -61.8199 0.997 0.051 0.058 148 134 123 0
45.3326 85.1547 -61.0869 0.619 -0.675 -0.402 141 127 118 0
-45.0401 3.2423 -68.2610 0.336 -0.933 -0.129 255 255 255 0
-44.7451 3.3566 -68.1974 0.347 -0.927 -0.146 133 133 133 0
-44.4388 3.4654 -68.1287 0.339 -0.929 -0.151 70 67 66 0
-44.0828 3.5513 -68.0379 0.325 -0.935 -0.141 227 218 214 0
-4.7107 32.0672 -63.1033 0.798 -0.213 -0.563 206 210 213 0
-4.8414 32.5279 -63.2687 0.710 -0.233 -0.665 206 209 213 0
9.6005 30.5478 -58.1202 -0.198 -0.966 0.169 206 211 207 0
7.4834 33.6974 -59.6423 0.758 -0.457 0.465 210 211 206 0
10.2297 35.2269 -59.1748 0.359 -0.869 0.340 194 196 151 0
10.4324 35.3256 -59.1365 0.359 -0.869 0.340 196 198 146 0
10.4363 35.6729 -59.2284 0.394 -0.609 0.689 198 202 140 0
10.1068 36.4411 -59.5399 0.586 -0.720 0.372 200 204 132 0
10.4699 36.3399 -59.3967 0.593 -0.758 0.272 202 205 122 0
10.5592 36.5837 -59.4335 0.439 -0.825 0.356 204 208 114 0
9.7273 38.0007 -60.0798 0.587 -0.390 0.709 205 210 109 0
11.4195 36.9188 -59.2485 0.868 -0.497 -0.009 208 215 102 0
11.6023 37.0430 -59.2233 0.886 -0.462 0.033 208 215 99 0
12.1186 37.0943 -59.0721 0.496 -0.860 0.115 212 218 92 0
12.5012 38.4133 -59.3037 0.086 -0.642 0.761 214 222 85 0
18.8796 30.2639 -55.0775 0.873 -0.047 0.485 215 222 84 0
15.0075 44.9113 -60.2463 -0.267 -0.621 0.738 196 197 67 0
21.8977 40.3588 -56.8217 0.807 -0.551 -0.210 169 159 70 0
21.9972 40.5935 -56.8529 0.801 -0.562 -0.206 165 155 74 0
28.7632 42.4733 -55.1943 0.767 -0.080 -0.637 173 174 167 0
31.5114 42.3952 -54.2947 0.922 0.102 0.372 175 172 165 0
22.9157 64.5820 -62.9969 0.721 -0.597 0.352 177 173 162 0
37.3757 36.2129 -50.7608 0.179 -0.970 -0.164 177 173 162 0
37.4754 38.4917 -51.3405 0.462 -0.434 -0.773 178 171 161 0
35.6565 45.9063 -53.9118 0.538 -0.807 -0.245 177 167 157 0
24.3365 72.2513 -64.6009 0.233 -0.816 -0.529 175 165 153 0
44.5796 39.3738 -49.3060 0.866 0.197 0.461 163 153 141 0
45.2006 44.5131 -50.4867 -0.162 -0.986 -0.041 159 147 135 0
42.3529 62.1609 -56.1331 0.788 -0.242 0.567 149 142 124 0
44.5978 84.6435 -61.4490 0.998 0.063 0.012 143 129 119 0
46.9198 76.7069 -58.5767 -0.069 -0.997 0.022 142 128 119 0
45.0645 85.4647 -61.5201 0.668 -0.602 -0.437 142 127 119 0
45.3330 85.3055 -61.3916 0.627 -0.671 -0.397 141 127 118 0
45.5173 85.4688 -61.3765 0.627 -0.671 -0.397 140 126 118 0
45.6999 85.6391 -61.3638 0.632 -0.668 -0.393 92 83 78 0
-45.4354 3.4072 -68.6959 0.259 -0.955 -0.148 255 255 255 0
-44.8139 3.3766 -68.4881 0.347 -0.927 -0.146 133 133 133 0
-44.5006 3.4825 -68.4161 0.347 -0.927 -0.146 70 67 65 0
-44.1506 3.5714 -68.3277 0.325 -0.935 -0.141 226 217 213 0
-9.1928 26.3786 -63.2590 0.851 -0.321 0.417 220 220 220 0
-9.0852 26.5920 -63.2820 0.808 -0.481 0.341 218 217 219 0
-9.2752 27.0690 -63.4718 0.880 -0.210 0.426 218 216 219 0
-8.6996 26.8689 -63.2329 0.842 -0.362 0.400 217 215 218 0
-3.8048 31.5128 -62.9147 0.124 -0.328 0.936 206 208 211 0
9.5991 29.5883 -58.0913 0.636 -0.701 -0.324 208 210 209 0
9.6806 29.8197 -58.1276 0.468 -0.787 -0.401 208 210 208 0
9.1794 30.7289 -58.5339 0.258 -0.855 -0.450 207 210 206 0
9.3551 30.8545 -58.5114 0.249 -0.856 -0.454 207 209 204 0
7.1889 34.0652 -60.0736 0.743 -0.543 0.390 212 213 208 0
7.5626 34.3125 -60.0203 0.765 -0.087 0.639 211 212 204 0
9.1267 33.4785 -59.2930 0.268 -0.426 0.864 210 212 200 0
7.5448 35.7260 -60.4076 0.891 0.066 0.449 208 210 196 0
11.6383 31.4640 -57.9428 0.813 -0.516 0.271 206 208 194 0
13.1369 32.3144 -57.6912 0.868 -0.331 0.370 195 198 145 0
13.1500 32.6385 -57.7744 0.854 -0.338 0.396 198 202 138 0
10.6096 36.5453 -59.6447 0.465 -0.807 0.365 201 205 118 0
9.8451 37.8769 -60.2496 0.804 -0.592 0.060 203 207 113 0
9.7675 38.3399 -60.3994 0.446 -0.829 0.337 204 209 109 0
11.3421 37.0448 -59.5443 0.727 -0.683 0.078 204 210 101 0
11.5882 37.0877 -59.4768 0.482 -0.875 0.046 205 212 99 0
12.0129 37.2591 -59.3867 0.467 -0.883 0.051 210 216 94 0
12.0864 37.5258 -59.4351 0.474 -0.875 0.095 211 217 92 0
12.9705 36.7279 -58.9359 -0.111 -0.859 0.501 211 217 89 0
19.0689 30.3723 -55.2622 0.735 -0.678 0.023 212 220 83 0
15.7778 39.5386 -58.7931 0.024 -0.974 -0.226 207 211 77 0
15.2071 44.2502 -60.2481 -0.286 -0.649 0.705 194 196 68 0
21.9517 40.3109 -57.0191 0.843 -0.537 -0.018 166 156 73 0
21.9790 40.6597 -57.1045 0.801 -0.562 -0.206 162 153 78 0
28.8318 41.1517 -55.0369 0.919 -0.017 -0.395 173 173 168 0
28.3005 43.7856 -55.9184 0.760 -0.181 -0.624 174 175 167 0
28.1202 44.5427 -56.1807 0.599 -0.794 -0.109 175 176 168 0
28.1255 44.9628 -56.2924 0.552 -0.832 -0.059 175 175 167 0
27.4276 50.7522 -58.0792 -0.109 -0.509 0.854 174 171 162 0
21.5708 66.2733 -64.1492 0.756 -0.459 0.467 175 173 161 0
37.6696 36.0690 -50.8272 0.992 -0.071 -0.100 176 172 161 0
33.9525 47.7711 -55.1794 -0.167 -0.933 0.318 174 170 158 0
33.9031 54.7553 -57.0804 0.881 -0.428 -0.201 171 163 152 0
34.0924 55.8786 -57.3228 0.681 -0.572 -0.457 169 162 150 0
37.6914 49.0222 -54.3165 -0.437 -0.895 0.083 168 158 148 0
45.8985 43.1918 -50.1075 -0.260 -0.933 0.250 155 145 135 0
46.4519 43.1767 -49.9257 0.229 -0.973 0.011 153 143 133 0
42.2356 61.3596 -56.1875 0.825 -0.036 0.565 148 140 129 0
42.0382 62.5630 -56.5757 0.979 -0.200 0.031 148 140 126 0
40.2256 80.6687 -62.0448 0.996 0.059 -0.060 146 134 122 0
44.1222 75.9619 -59.5232 0.992 -0.039 0.122 146 132 122 0
43.8521 79.2531 -60.4983 0.153 -0.254 0.955 147 130 120 0
46.5355 75.0819 -58.5107 0.187 -0.930 -0.318 140 130 120 0
45.1419 82.7404 -61.0254 0.592 -0.716 0.369 142 129 120 0
46.8761 77.0129 -58.9226 -0.047 -0.995 0.084 141 128 119 0
45.0797 85.5580 -61.8059 0.705 -0.553 -0.445 140 125 118 0
45.3391 85.4342 -61.6892 0.628 -0.644 -0.436 140 125 118 0
45.5105 85.6491 -61.6922 0.627 -0.671 -0.397 140 125 117 0
45.6972 85.8045 -61.6741 0.653 -0.656 -0.377 92 84 79 0
45.8749 85.9955 -61.6686 0.632 -0.670 -0.390 50 49 49 0
-45.5126 3.4307 -68.9917 0.250 -0.957 -0.146 255 255 255 0
-44.8829 3.3967 -68.7794 0.347 -0.927 -0.146 133 133 133 0
-44.5692 3.5027 -68.7071 0.347 -0.927 -0.146 70 67 66 0
-9.5866 27.3539 -63.9003 0.955 0.046 0.293 219 217 220 0
-8.4845 26.6877 -63.3640 0.832 -0.370 0.413 217 215 218 0
-9.6827 28.0650 -64.1244 0.892 0.083 0.445 217 215 218 0
-5.4881 34.5509 -64.5324 -0.282 -0.654 0.702 211 211 213 0
-1.6890 32.0303 -62.6229 0.199 -0.206 0.958 207 208 213 0
8.9753 30.3273 -58.7214 0.272 -0.961 -0.048 211 211 210 0
9.4085 30.1547 -58.5348 0.272 -0.959 -0.076 211 212 208 0
9.0474 30.9026 -58.8543 0.255 -0.848 -0.464 211 212 207 0
9.3278 30.9069 -58.7650 0.238 -0.844 -0.481 211 212 207 0
7.0432 34.2582 -60.4116 0.768 -0.593 0.242 212 212 207 0
7.7773 33.7368 -60.0333 0.772 -0.418 0.479 211 211 205 0
11.5211 31.6286 -58.2536 0.821 -0.500 0.275 209 210 196 0
12.8315 31.3671 -57.7601 0.936 -0.277 0.216 199 198 178 0
13.2708 32.5106 -57.9288 0.892 -0.314 0.324 196 199 145 0
10.9585 36.4852 -59.7535 0.433 -0.543 0.720 201 204 119 0
11.2830 36.7872 -59.7309 0.442 -0.810 0.384 203 208 109 0
12.8452 35.1341 -58.7783 0.095 -0.864 0.494 203 209 104 0
12.6465 35.7450 -59.0082 -0.018 -0.830 0.557 204 210 102 0
13.7560 34.6601 -58.3559 0.378 -0.258 0.889 205 212 101 0
11.2645 38.2623 -60.1373 0.591 -0.806 -0.038 209 214 96 0
11.4432 38.3954 -60.1158 0.574 -0.816 -0.072 209 214 93 0
12.9694 36.7565 -59.1787 0.933 -0.325 -0.154 207 213 90 0
14.0463 36.7744 -58.8362 0.644 -0.764 -0.049 208 218 86 0
19.1501 30.2895 -55.4298 0.716 -0.698 -0.004 208 218 84 0
21.8999 40.0391 -57.1898 0.812 -0.584 -0.002 167 156 75 0
21.9564 40.3406 -57.2534 0.791 -0.610 0.039 164 152 78 0
26.9955 38.7762 -55.2036 0.485 -0.874 0.032 170 170 162 0
25.8067 45.7731 -57.4865 -0.196 -0.977 0.086 173 172 168 0
26.9483 44.1597 -56.6803 0.811 -0.296 -0.504 172 171 167 0
27.0034 44.9118 -56.8668 0.791 -0.319 -0.522 173 172 168 0
28.2546 43.4922 -56.0778 0.741 -0.260 -0.619 172 172 165 0
28.2268 43.9672 -56.2157 0.792 -0.235 -0.564 174 174 166 0
34.2101 47.7477 -55.3125 -0.259 -0.953 0.160 174 168 155 0
34.6809 47.2043 -55.0131 -0.083 -0.952 0.294 176 168 155 0
35.2196 46.5073 -54.6502 -0.353 -0.785 0.510 176 166 154 0
35.4565 46.4589 -54.5607 -0.353 -0.785 0.510 174 164 152 0
36.1806 45.3441 -54.0245 -0.124 -0.992 -0.013 173 163 151 0
37.1758 49.8002 -54.9132 -0.299 -0.954 0.008 167 157 147 0
38.3209 47.6105 -53.9495 0.327 -0.911 0.251 166 156 146 0
39.0483 46.8676 -53.5133 -0.228 -0.966 -0.118 165 155 145 0
46.1427 43.0983 -50.2021 -0.260 -0.933 0.250 153 143 133 0
46.4121 43.3618 -50.1867 0.298 -0.952 -0.063 152 142 132 0
40.1747 80.9591 -62.4050 0.997 0.062 -0.040 145 133 121 0
46.5875 72.6886 -58.0917 0.360 -0.914 0.189 145 131 122 0
45.0126 82.5268 -61.2704 0.589 -0.715 0.378 140 128 116 0
46.7569 76.7919 -59.1510 -0.149 -0.979 0.138 140 127 118 0
46.7629 78.4063 -59.5873 0.365 -0.871 0.328 139 126 118 0
45.0577 85.7948 -62.1431 0.673 -0.643 -0.364 140 125 118 0
45.3147 85.6816 -62.0295 0.611 -0.686 -0.396 139 124 117 0
45.5016 85.8377 -62.0115 0.611 -0.686 -0.396 139 124 117 0
45.6920 85.9802 -61.9888 0.653 -0.656 -0.377 93 84 79 0
45.8736 86.1568 -61.9782 0.667 -0.649 -0.367 50 49 49 0
45.8666 88.9078 -62.7273 0.329 -0.751 -0.572 254 254 253 0
-45.5924 3.4553 -69.2892 0.250 -0.957 -0.146 255 255 255 0
-44.9520 3.4168 -69.0713 0.347 -0.927 -0.146 133 133 133 0
-44.6380 3.5229 -68.9985 0.347 -0.927 -0.146 70 67 66 0
-44.5636 3.7364 -69.0327 0.293 -0.943 -0.159 228 219 215 0
-6.7270 25.1371 -62.6207 0.340 -0.474 -0.812 216 215 218 0
-4.2592 25.9493 -62.0432 0.479 0.030 0.878 215 215 216 0
1.1206 26.0304 -60.3228 0.711 0.131 0.690 211 211 214 0
8.9820 30.3396 -58.9531 0.334 -0.942 0.036 211 212 209 0
7.3836 32.8571 -60.1582 0.206 -0.895 -0.397 212 213 208 0
7.7311 32.7908 -60.0275 0.725 -0.679 0.117 212 214 209 0
7.3975 33.5209 -60.3349 0.933 -0.340 -0.119 212 212 207 0
8.2377 33.2148 -59.9792 0.131 -0.710 0.692 211 211 205 0
7.6291 34.2778 -60.4666 0.764 -0.136 0.631 213 213 206 0
12.9613 35.0103 -58.9395 0.101 -0.865 0.491 202 206 107 0
14.1568 34.1652 -58.3215 0.447 -0.111 0.887 202 208 101 0
14.1455 34.5305 -58.4249 0.444 -0.049 0.895 207 211 97 0
15.5446 43.8229 -60.5089 0.448 -0.295 -0.844 191 193 69 0
17.0755 43.5401 -59.9358 -0.110 -0.776 0.621 185 182 68 0
21.9686 40.3584 -57.4823 0.836 -0.547 0.031 162 150 80 0
22.1271 40.5002 -57.4697 0.861 -0.503 0.081 159 150 88 0
26.1379 40.2691 -56.1075 0.992 0.039 0.120 170 170 163 0
26.1949 45.5554 -57.5324 -0.225 -0.967 0.120 174 170 167 0
27.7769 44.4097 -56.7071 0.408 -0.775 -0.483 173 172 166 0
28.3873 43.7203 -56.3212 -0.338 -0.907 0.249 176 176 168 0
29.9113 48.7718 -57.2068 -0.359 -0.796 -0.486 173 170 159 0
29.9231 49.2098 -57.3226 -0.584 -0.808 0.084 172 169 157 0
32.3986 45.1611 -55.4153 -0.576 -0.816 0.055 173 170 158 0
37.4853 37.7865 -51.7542 0.905 0.388 0.172 172 166 155 0
39.7656 36.7184 -50.7240 0.278 -0.958 0.064 174 165 153 0
32.3521 55.2952 -58.1974 0.315 -0.798 -0.514 171 162 150 0
38.3646 47.5732 -54.1416 0.327 -0.911 0.251 165 154 144 0
43.9838 48.0424 -52.4496 0.766 0.285 0.576 152 142 131 0
43.8113 49.0405 -52.7780 0.809 0.292 0.510 152 141 132 0
46.0823 43.3381 -50.4855 0.007 -0.842 0.539 152 141 132 0
46.4311 43.3844 -50.3852 0.280 -0.960 0.028 151 141 131 0
46.2994 72.3322 -58.3316 0.319 -0.942 0.107 142 128 117 0
46.4890 72.4100 -58.2914 0.332 -0.917 0.221 144 130 119 0
45.0524 85.9677 -62.4584 0.673 -0.643 -0.364 139 125 118 0
45.3092 85.8563 -62.3448 0.606 -0.705 -0.369 140 125 118 0
45.4958 86.0150 -62.3277 0.611 -0.686 -0.396 138 124 117 0
45.6802 86.1821 -62.3136 0.611 -0.694 -0.381 91 83 78 0
45.8677 86.3372 -62.2953 0.611 -0.694 -0.381 49 48 49 0
46.2895 86.4596 -62.1920 0.670 -0.632 -0.390 255 254 254 0
45.9257 88.8328 -62.9578 0.331 -0.781 -0.530 254 255 254 0
-45.6723 3.4799 -69.5872 0.250 -0.957 -0.146 255 255 255 0
-45.0212 3.4370 -69.3636 0.347 -0.927 -0.146 133 133 133 0
-44.7068 3.5432 -69.2905 0.347 -0.927 -0.146 70 67 66 0
-44.6431 3.7616 -69.3298 0.293 -0.943 -0.159 228 219 216 0
-36.1589 12.1165 -68.8641 -0.378 -0.849 0.370 233 228 222 0
-8.8560 27.6605 -64.2508 0.450 -0.388 -0.804 216 214 217 0
-4.7234 33.4730 -64.5026 -0.326 -0.631 0.704 210 210 213 0
-4.3525 33.4358 -64.3717 -0.299 -0.651 0.698 210 209 212 0
7.5729 32.9966 -60.3718 0.196 -0.923 -0.330 212 214 209 0
7.3090 33.9890 -60.7301 -0.031 -0.718 0.695 210 211 206 0
7.5805 34.0128 -60.6484 0.085 -0.704 0.705 211 212 206 0
8.2798 33.8713 -60.3821 0.721 0.023 0.693 213 213 206 0
8.5528 35.6297 -60.7761 0.681 -0.206 0.703 209 211 196 0
12.3390 34.7778 -59.3105 0.914 0.279 0.295 199 199 134 0
16.3337 30.6874 -56.8879 0.725 -0.668 0.168 200 204 109 0
16.3754 30.9696 -56.9518 0.733 -0.642 0.224 200 204 107 0
14.5188 34.4201 -58.5032 0.182 -0.680 0.710 202 208 96 0
13.9795 36.9197 -59.3650 0.333 -0.928 0.169 205 214 89 0
14.3556 45.2059 -61.5180 0.368 -0.441 -0.819 190 193 69 0
17.6167 42.7613 -59.7859 -0.149 -0.745 0.651 183 180 71 0
20.4082 40.4806 -58.2516 0.591 -0.792 0.151 175 166 73 0
21.4835 39.5969 -57.6591 0.665 -0.675 0.319 170 160 76 0
21.9115 40.4856 -57.7639 0.864 -0.477 -0.164 159 149 87 0
25.2391 40.6241 -56.7195 0.876 -0.443 -0.194 168 170 161 0
27.3257 39.0839 -55.6178 0.437 -0.895 -0.083 172 172 164 0
26.8732 40.2573 -56.0872 0.175 -0.610 -0.773 172 173 165 0
27.9030 39.2811 -55.4842 0.543 -0.838 -0.057 170 172 160 0
28.3512 43.4089 -56.4718 -0.309 -0.876 0.370 172 172 164 0
28.0562 45.2350 -57.0692 0.196 -0.758 -0.622 172 172 164 0
26.5831 53.0198 -59.6861 -0.150 -0.846 0.512 173 166 158 0
27.1065 52.4762 -59.3666 -0.144 -0.843 0.518 173 168 159 0
30.1863 48.7397 -57.3387 -0.577 -0.816 0.042 172 167 157 0
36.7516 37.2703 -52.0536 0.058 -0.988 -0.141 171 167 156 0
40.8358 31.6505 -49.1819 0.909 0.294 0.296 171 165 153 0
37.0230 45.9289 -54.3429 0.213 -0.976 -0.046 167 158 147 0
43.2297 46.5162 -52.4852 0.752 0.273 0.600 156 144 135 0
43.2746 46.9079 -52.5781 0.560 0.098 0.822 154 143 133 0
45.0302 86.2059 -62.7980 0.692 -0.635 -0.345 140 127 119 0
45.3041 86.0295 -62.6605 0.623 -0.689 -0.371 139 126 118 0
45.4793 86.2341 -62.6596 0.572 -0.715 -0.402 138 125 118 0
45.6763 86.3538 -62.6284 0.608 -0.696 -0.381 90 82 78 0
45.8644 86.5077 -62.6095 0.608 -0.696 -0.381 48 48 49 0
45.9592 88.8614 -63.2250 0.626 -0.595 -0.503 255 255 255 0
47.3432 84.1743 -61.4877 0.272 -0.790 -0.549 255 255 255 0
-45.7537 3.5052 -69.8864 0.259 -0.955 -0.148 255 255 255 0
-45.0906 3.4572 -69.6565 0.347 -0.927 -0.146 133 133 133 0
-44.7758 3.5634 -69.5831 0.347 -0.927 -0.146 70 67 65 0
-44.7202 3.7857 -69.6263 0.302 -0.939 -0.163 227 218 214 0
-34.6533 11.8071 -68.5526 -0.171 -0.981 0.089 234 230 223 0
-8.7390 26.6331 -64.1806 0.792 -0.609 -0.048 220 218 221 0
-8.5336 26.7604 -64.1487 0.861 -0.483 0.158 218 215 218 0
2.2688 19.3804 -58.5816 0.838 0.104 -0.535 216 216 217 0
-3.0934 32.8463 -64.0520 -0.177 -0.602 0.779 208 209 213 0
8.8545 33.8949 -60.4383 0.464 -0.265 0.845 214 214 206 0
10.2460 33.9330 -59.9942 0.599 -0.308 0.739 209 211 197 0
16.4231 30.9327 -57.1476 0.726 -0.645 0.238 198 201 113 0
16.4921 31.1805 -57.1935 0.718 -0.634 0.286 198 201 108 0
16.7445 31.1898 -57.1136 0.653 -0.682 0.329 197 203 104 0
14.5695 34.3801 -58.7052 0.195 -0.700 0.687 198 203 99 0
13.8642 37.1020 -59.6872 0.326 -0.944 0.049 203 209 89 0
14.0431 37.2265 -59.6632 0.425 -0.897 0.119 204 210 88 0
14.7138 39.2708 -60.0086 0.420 -0.888 -0.185 201 207 81 0
14.9725 39.2868 -59.9285 0.024 -0.997 0.068 200 206 80 0
15.9648 39.0233 -59.5316 0.184 -0.921 -0.344 198 203 77 0
16.0700 39.2510 -59.5601 0.068 -0.936 -0.345 197 202 76 0
21.6682 38.9616 -57.6512 0.620 -0.363 0.695 170 160 76 0
21.6270 39.4103 -57.7886 0.824 -0.346 0.449 167 157 77 0
25.0107 42.2618 -57.4706 0.275 -0.553 -0.787 170 171 163 0
27.9485 39.2440 -55.6774 0.453 -0.888 -0.071 171 172 162 0
31.1765 35.9352 -53.7091 0.811 -0.244 -0.532 173 172 166 0
26.1352 45.7554 -58.0680 -0.280 -0.956 -0.087 170 170 162 0
26.7210 45.1326 -57.7046 -0.067 -0.995 -0.068 171 171 163 0
26.9714 45.1098 -57.6165 -0.067 -0.995 -0.068 170 169 163 0
28.4329 43.3063 -56.6410 -0.317 -0.924 0.214 171 168 161 0
30.2369 48.6935 -57.5393 -0.577 -0.816 0.042 170 165 156 0
41.7588 28.6244 -48.2330 0.747 0.169 0.642 169 164 153 0
41.5840 30.5140 -48.8119 0.567 0.015 0.824 171 163 152 0
37.0437 45.9434 -54.5561 0.213 -0.976 -0.046 165 156 145 0
38.4146 47.1001 -54.4277 0.507 0.341 0.791 161 151 141 0
40.1671 44.8838 -53.2431 -0.026 -0.986 0.165 164 152 138 0
40.3504 44.9240 -53.1943 -0.037 -0.984 0.176 162 150 137 0
43.3931 46.1606 -52.5418 0.553 0.094 0.828 155 142 133 0
43.3644 46.7449 -52.7125 0.486 0.030 0.873 154 141 132 0
47.0293 72.2351 -58.5544 -0.004 -0.936 0.351 140 127 118 0
45.4745 86.4083 -62.9763 0.572 -0.715 -0.402 140 126 119 0
45.6697 86.5362 -62.9479 0.577 -0.710 -0.403 92 85 81 0
45.8614 86.6773 -62.9242 0.608 -0.696 -0.381 48 48 49 0
45.9725 88.9711 -63.5213 0.615 -0.608 -0.501 255 255 255 0
-45.8466 3.5356 -70.1914 0.248 -0.957 -0.152 255 255 255 0
-45.1600 3.4775 -69.9500 0.347 -0.927 -0.146 133 133 133 0
-44.8450 3.5838 -69.8761 0.347 -0.927 -0.146 70 67 65 0
-44.5148 3.6828 -69.7953 0.354 -0.923 -0.149 227 218 214 0
-38.9837 1.6682 -67.4211 0.857 -0.286 -0.429 231 220 216 0
-25.2628 1.3608 -62.8338 0.035 -0.641 0.767 233 224 219 0
-8.6234 26.2322 -64.2816 0.835 -0.398 0.380 221 220 221 0
1.9119 20.0001 -59.0942 0.748 0.031 -0.664 214 214 218 0
2.0557 20.1514 -59.0891 0.790 0.089 -0.606 213 214 218 0
-1.7396 27.6276 -62.4105 0.195 -0.495 -0.847 211 212 217 0
8.3040 33.8869 -60.8535 0.309 -0.499 0.810 214 213 208 0
11.0254 31.6458 -59.3383 0.504 -0.662 0.554 215 215 207 0
13.7305 34.0954 -59.1310 0.148 -0.550 0.822 197 198 124 0
13.7430 34.4295 -59.2197 0.506 -0.297 0.810 196 197 117 0
14.6836 34.2570 -58.8632 0.195 -0.700 0.687 195 201 104 0
13.7618 37.2672 -60.0016 0.343 -0.771 0.537 202 207 90 0
14.7560 39.2428 -60.2240 0.523 -0.781 -0.342 197 205 80 0
15.2783 38.8913 -59.9550 0.044 -0.993 0.114 197 205 80 0
15.9117 38.3804 -59.6053 0.636 -0.526 -0.565 196 204 79 0
16.8877 37.3828 -59.0081 0.816 -0.430 -0.386 195 203 77 0
17.0494 37.5245 -58.9944 0.578 -0.771 -0.268 195 201 76 0
17.1005 37.8228 -59.0605 0.532 -0.846 -0.037 194 200 77 0
15.9938 39.7692 -59.9641 0.171 -0.901 -0.398 194 199 78 0
16.0895 40.0131 -60.0005 0.174 -0.870 -0.461 192 198 77 0
22.5409 34.3208 -56.3029 0.885 -0.252 0.392 179 180 72 0
25.8722 38.4673 -56.3614 0.452 -0.370 0.812 168 170 157 0
26.9527 38.2250 -55.9396 0.705 -0.591 0.393 169 171 162 0
27.4948 37.7009 -55.6162 0.502 -0.658 0.562 170 171 163 0
24.9546 42.3988 -57.7543 0.435 -0.384 -0.814 171 172 164 0
39.7951 40.2756 -52.2955 0.423 -0.780 -0.460 162 154 143 0
39.3867 41.6465 -52.8102 0.670 -0.741 0.049 162 154 143 0
38.5000 47.4510 -54.7131 0.431 0.317 0.845 161 151 139 0
38.9715 46.8257 -54.3848 -0.180 -0.536 0.825 162 151 138 0
38.9504 47.3635 -54.5411 0.207 -0.880 0.428 162 150 135 0
40.2062 44.8553 -53.4325 -0.330 -0.782 0.529 161 149 134 0
40.5302 45.0375 -53.3767 -0.305 -0.892 0.333 158 146 133 0
40.7474 44.9942 -53.2935 -0.305 -0.892 0.333 159 148 136 0
45.7346 35.4980 -49.0199 0.355 -0.374 -0.857 157 145 134 0
43.5691 46.2781 -52.7242 0.564 0.098 0.820 154 141 132 0
45.0432 86.4630 -63.4006 0.785 -0.563 -0.258 138 123 116 0
45.4704 86.5802 -63.2929 0.576 -0.702 -0.420 140 127 120 0
45.6648 86.7126 -63.2659 0.577 -0.710 -0.403 92 84 80 0
45.8584 86.8473 -63.2398 0.608 -0.696 -0.381 48 48 49 0
46.0346 87.0514 -63.2387 0.625 -0.672 -0.398 245 246 247 0
46.1829 87.3677 -63.2779 0.669 -0.646 -0.367 255 254 254 0
46.2703 87.9318 -63.4058 0.672 -0.630 -0.390 255 255 255 0
-45.9370 3.5648 -70.4958 0.238 -0.960 -0.145 255 255 255 0
-45.2297 3.4977 -70.2440 0.347 -0.927 -0.146 133 133 133 0
-44.9138 3.6039 -70.1696 0.352 -0.925 -0.143 70 67 65 0
-44.6016 3.7113 -70.0967 0.352 -0.925 -0.143 226 217 213 0
-12.5110 -4.3342 -57.2757 0.888 -0.329 -0.321 231 222 217 0
-8.4756 26.4193 -64.5348 0.778 -0.347 0.524 219 218 221 0
-8.4181 26.6773 -64.5879 0.796 -0.334 0.505 218 216 221 0
-0.2912 26.8526 -61.9590 0.132 -0.894 -0.428 209 210 215 0
0.1951 26.6861 -61.7523 0.245 -0.787 -0.566 210 211 216 0
0.6627 26.5355 -61.5562 0.409 -0.667 -0.622 209 210 215 0
10.0288 28.8876 -59.1268 -0.067 -0.931 -0.358 209 211 209 0
11.1482 32.8744 -59.8714 0.248 -0.575 0.779 210 213 202 0
11.0805 33.3002 -60.0127 -0.028 -0.787 0.617 209 213 199 0
12.4219 33.0109 -59.4899 0.927 -0.112 0.357 204 206 184 0
12.9055 33.7831 -59.5462 0.317 -0.561 0.765 194 193 160 0
12.8972 34.1419 -59.6491 0.184 -0.624 0.760 193 191 152 0
13.9315 33.8617 -59.2300 0.354 -0.632 0.690 196 196 132 0
13.8407 34.3288 -59.3904 0.334 -0.399 0.854 196 196 123 0
14.5313 34.1317 -59.1078 0.268 -0.820 0.505 194 198 113 0
13.8618 37.1616 -60.1746 0.348 -0.767 0.539 199 203 93 0
14.0217 37.3120 -60.1639 0.575 -0.725 0.379 199 203 91 0
17.0039 37.9907 -59.3708 0.575 -0.814 0.085 192 198 78 0
17.1636 38.1367 -59.3590 0.364 -0.910 -0.197 190 197 77 0
17.3634 38.2254 -59.3179 0.746 -0.665 0.026 189 196 77 0
17.4619 38.4590 -59.3507 0.755 -0.654 0.048 189 194 77 0
17.1879 39.2297 -59.6562 0.557 -0.245 0.794 187 192 75 0
17.1263 40.0805 -59.9141 0.812 -0.398 -0.427 183 188 72 0
18.1352 38.9931 -59.2780 0.798 -0.583 -0.155 184 188 74 0
18.6208 39.0407 -59.1313 0.542 -0.783 -0.305 181 183 73 0
23.3845 33.4542 -56.0014 0.954 -0.210 0.215 176 177 75 0
23.9514 32.9621 -55.6772 0.800 -0.420 0.429 174 174 74 0
30.6838 36.8952 -54.5573 0.693 -0.266 -0.670 169 169 161 0
28.7189 42.8769 -56.8753 -0.290 -0.947 0.137 169 168 160 0
30.6177 41.4694 -55.8565 0.999 -0.008 0.034 169 168 160 0
30.7381 41.6633 -55.8710 0.986 -0.066 0.156 167 166 156 0
31.1443 41.3191 -55.6410 0.553 -0.733 -0.396 166 165 154 0
42.3321 30.5726 -48.9533 0.362 0.026 0.932 165 157 144 0
38.8845 41.4838 -53.1366 0.134 -0.938 -0.319 163 155 144 0
39.0821 41.4904 -53.0733 0.134 -0.938 -0.319 162 154 143 0
39.2969 41.4573 -52.9933 0.537 -0.843 0.004 161 153 142 0
39.3258 41.8436 -53.0916 0.901 -0.294 0.320 160 152 141 0
39.3377 46.0244 -54.2553 -0.109 -0.358 0.928 162 150 136 0
43.7388 71.3090 -59.8666 0.465 -0.212 0.860 143 131 119 0
43.5302 80.4000 -62.4743 0.521 -0.065 0.851 142 128 119 0
45.0190 86.7107 -63.7461 0.703 -0.633 -0.326 140 126 118 0
45.2727 86.6158 -63.6361 0.589 -0.699 -0.405 139 126 118 0
45.4639 86.7622 -63.6139 0.587 -0.699 -0.408 138 125 118 0
45.6553 86.9073 -63.5914 0.625 -0.672 -0.398 89 81 77 0
45.8419 87.0716 -63.5758 0.625 -0.672 -0.398 48 48 49 0
46.0284 87.2360 -63.5602 0.625 -0.672 -0.398 245 246 247 0
46.1571 87.6328 -63.6287 0.847 -0.460 -0.265 255 254 254 0
-45.6432 3.4235 -70.6258 0.273 -0.955 -0.114 255 255 255 0
-45.2994 3.5181 -70.5386 0.347 -0.927 -0.146 133 133 133 0
-44.9816 3.6236 -70.4631 0.352 -0.925 -0.143 70 68 66 0
-44.6592 3.7266 -70.3853 0.357 -0.924 -0.141 227 219 214 0
-18.5485 20.8340 -66.5495 0.808 -0.182 -0.561 228 224 221 0
-8.5604 26.8135 -64.9236 0.876 -0.194 0.442 216 216 222 0
0.0873 26.8054 -62.0597 0.241 -0.786 -0.569 208 209 214 0
0.3069 26.9001 -62.0136 0.199 -0.785 -0.587 208 209 214 0
10.4120 32.7701 -60.3182 0.243 -0.380 0.892 214 215 204 0
10.7627 32.6853 -60.1784 0.236 -0.408 0.882 214 215 205 0
10.9679 32.7763 -60.1360 0.278 -0.402 0.872 212 215 203 0
11.5694 32.7220 -59.9217 0.245 -0.555 0.795 211 215 202 0
11.5966 33.7198 -60.1930 0.292 -0.667 0.685 209 211 193 0
12.2978 33.5352 -59.9091 0.718 -0.695 0.020 204 206 186 0
13.0197 34.0108 -59.8037 -0.114 -0.797 0.593 197 194 161 0
13.1916 34.1403 -59.7832 -0.173 -0.834 0.523 194 191 151 0
13.6837 34.5583 -59.7378 0.560 -0.221 0.799 195 195 131 0
13.7332 34.8467 -59.8024 0.694 -0.124 0.709 195 195 123 0
13.8680 35.3798 -59.9075 0.718 -0.120 0.685 194 196 113 0
13.4764 36.2526 -60.2822 0.928 -0.103 0.357 193 196 108 0
14.1699 37.1413 -60.3023 0.893 -0.150 0.423 198 201 97 0
17.0136 38.0081 -59.6048 0.604 -0.791 0.099 188 195 80 0
17.3701 37.8742 -59.4492 0.560 -0.828 -0.007 187 194 79 0
17.2198 39.9778 -60.0897 0.706 -0.647 -0.289 184 188 77 0
18.1591 38.9912 -59.5018 0.806 -0.575 -0.143 182 186 77 0
18.4142 38.9975 -59.4192 0.558 -0.819 -0.132 180 183 77 0
18.4436 39.3346 -59.5041 0.386 -0.898 -0.212 179 182 77 0
21.4739 37.4631 -57.9757 0.451 -0.822 -0.347 171 168 76 0
21.5443 37.7334 -58.0283 0.672 -0.727 -0.141 169 166 76 0
26.1330 37.7264 -56.5079 0.475 -0.358 0.804 169 166 154 0
30.2637 37.2909 -55.0187 0.750 -0.169 -0.639 168 168 159 0
26.3857 45.8776 -58.7135 0.635 -0.267 0.725 168 168 158 0
26.3767 46.7651 -58.9657 0.852 -0.481 0.209 167 167 159 0
26.5680 46.8551 -58.9277 0.826 -0.532 0.187 167 167 159 0
26.6118 47.2152 -59.0144 0.899 -0.185 0.397 167 167 159 0
30.6489 41.4581 -56.0615 0.971 -0.045 0.233 166 167 159 0
30.7443 41.6990 -56.0976 0.986 -0.065 0.154 165 166 157 0
34.6697 42.1428 -54.9233 0.837 -0.166 0.521 168 159 151 0
42.3011 27.6379 -48.3244 0.624 0.091 0.776 166 156 150 0
42.3458 27.9174 -48.3881 0.607 0.086 0.790 166 156 148 0
38.8665 40.2471 -53.0021 0.496 -0.580 0.646 161 155 143 0
39.2634 43.4222 -53.7626 0.730 -0.656 0.194 160 150 138 0
39.3886 43.5985 -53.7706 0.811 -0.575 0.105 158 150 139 0
39.7441 44.1769 -53.8154 0.375 0.260 0.890 159 149 137 0
41.2606 42.9325 -52.9641 -0.401 -0.869 0.291 159 146 132 0
41.4895 42.8523 -52.8659 -0.353 -0.844 0.402 159 147 133 0
42.4253 51.0467 -54.8575 0.746 0.268 0.610 151 138 129 0
43.4557 70.2139 -59.8995 0.502 0.209 0.840 148 131 123 0
44.8010 86.8188 -64.1177 0.673 -0.593 -0.443 140 126 116 0
45.0450 86.7648 -64.0219 0.770 -0.533 -0.351 139 126 116 0
45.4573 86.9447 -63.9359 0.587 -0.699 -0.408 137 124 116 0
45.6547 87.0676 -63.9051 0.644 -0.657 -0.393 88 80 77 0
45.8354 87.2566 -63.8984 0.625 -0.672 -0.398 48 48 49 0
45.9911 87.5456 -63.9281 0.602 -0.684 -0.412 245 246 247 0
46.1928 87.6510 -63.8909 0.604 -0.700 -0.382 255 254 254 0
-46.3971 3.4985 -71.1640 0.105 -0.991 -0.087 255 255 255 0
-45.7174 3.4455 -70.9231 0.228 -0.966 -0.118 255 255 255 0
-45.3693 3.5384 -70.8337 0.347 -0.927 -0.146 133 133 133 0
-45.0496 3.6434 -70.7571 0.352 -0.925 -0.143 70 68 66 0
-45.0317 3.8836 -70.8190 0.284 -0.943 -0.170 227 219 214 0
-36.6614 11.5627 -70.2060 0.574 -0.629 -0.524 229 222 219 0
-36.5311 11.7583 -70.2179 0.452 -0.838 -0.306 229 220 219 0
-6.9913 24.8217 -64.0905 0.188 -0.838 0.513 217 217 218 0
10.8849 32.5594 -60.3351 0.264 -0.372 0.890 213 214 203 0
11.0232 32.7318 -60.3378 0.262 -0.365 0.894 214 215 202 0
11.1782 32.8839 -60.3293 0.280 -0.365 0.888 213 215 202 0
11.3695 32.9913 -60.2961 0.376 -0.369 0.850 212 215 202 0
13.8416 35.4412 -60.1664 0.705 -0.175 0.687 195 195 122 0
13.5443 36.1904 -60.4768 0.928 -0.103 0.357 195 195 116 0
14.4118 36.4815 -60.2707 0.795 -0.143 0.590 195 197 99 0
14.4484 36.7952 -60.3471 0.593 -0.284 0.754 196 198 97 0
13.4912 38.4521 -61.1332 0.315 -0.768 0.558 195 198 96 0
13.7043 38.5347 -61.0857 0.274 -0.796 0.539 193 196 93 0
13.7247 38.8792 -61.1762 0.385 -0.648 0.657 194 197 93 0
17.2499 37.7042 -59.6729 0.281 -0.911 -0.303 185 191 82 0
17.5683 37.6233 -59.5442 -0.043 -0.999 -0.011 185 189 80 0
18.1401 39.0518 -59.7576 0.810 -0.564 -0.160 178 181 77 0
18.3748 39.0883 -59.6899 0.634 -0.740 -0.224 177 179 79 0
18.5163 39.2610 -59.6917 0.328 -0.919 -0.220 175 177 79 0
24.7220 38.1353 -57.3115 0.820 -0.311 0.480 160 160 143 0
23.9007 41.4439 -58.5188 0.395 -0.893 -0.214 171 166 154 0
24.1034 41.5118 -58.4706 0.397 -0.893 -0.212 170 166 154 0
28.7798 35.2679 -55.1532 0.534 -0.262 0.804 169 167 157 0
23.7287 45.8760 -59.8276 0.039 -0.486 -0.873 169 166 157 0
26.2328 46.2007 -59.0872 0.318 -0.404 0.858 167 165 158 0
26.2738 46.5624 -59.1757 0.306 -0.419 0.855 167 165 158 0
26.3833 46.8013 -59.2068 0.849 -0.500 0.173 165 165 157 0
26.6304 46.7894 -59.1213 0.905 -0.155 0.397 164 164 156 0
30.4543 41.0324 -56.2247 0.814 -0.579 -0.038 164 164 156 0
30.6353 41.1126 -56.1872 0.950 -0.017 0.312 164 165 157 0
30.8086 41.2065 -56.1561 0.964 -0.081 0.254 164 165 157 0
31.0820 41.5316 -56.1571 0.517 -0.733 -0.442 163 163 153 0
34.7361 42.0597 -55.0919 0.886 -0.305 0.348 165 156 149 0
34.8193 42.3261 -55.1395 0.878 -0.325 0.352 165 156 150 0
34.7774 42.8521 -55.3019 0.006 -0.989 0.145 165 156 150 0
38.8998 42.9291 -53.9538 0.305 -0.231 0.924 157 150 138 0
38.9777 43.2120 -54.0078 0.335 -0.233 0.913 157 150 137 0
39.0104 43.6001 -54.1065 0.691 -0.593 -0.414 158 148 137 0
38.9543 44.1951 -54.2932 0.397 -0.734 -0.551 158 148 136 0
39.7944 43.1853 -53.7288 0.431 0.082 0.899 157 148 138 0
36.5803 58.0356 -58.9908 0.430 0.272 0.861 156 142 130 0
43.7024 62.7762 -57.9628 0.337 -0.357 -0.871 144 131 122 0
37.1155 85.4420 -66.5528 0.652 -0.455 -0.607 144 131 122 0
48.4697 70.4880 -58.5564 0.817 -0.464 -0.342 142 125 117 0
45.4507 87.1278 -64.2589 0.587 -0.699 -0.408 137 125 116 0
45.6418 87.2772 -64.2376 0.625 -0.672 -0.398 91 83 78 0
45.8286 87.4432 -64.2224 0.632 -0.668 -0.393 49 48 48 0
46.0129 87.6192 -64.2108 0.587 -0.693 -0.418 245 246 244 0
46.4080 87.8645 -64.1488 0.589 -0.716 -0.375 255 255 255 0
-46.4377 3.5054 -71.4474 0.098 -0.991 -0.091 255 255 255 0
-45.7210 3.4362 -71.1885 0.348 -0.924 -0.158 255 255 255 0
-45.4393 3.5588 -71.1293 0.347 -0.927 -0.146 133 133 133 0
-45.1304 3.6688 -71.0575 0.357 -0.923 -0.146 70 68 66 0
-45.1065 3.9066 -71.1170 0.284 -0.944 -0.169 227 220 214 0
-36.8318 11.9175 -70.6305 0.482 -0.580 -0.656 230 222 221 0
-36.6118 12.0647 -70.5988 0.482 -0.580 -0.656 232 223 224 0
-35.9179 11.9492 -70.3345 0.505 -0.584 -0.636 233 224 224 0
-32.0361 10.0593 -68.5023 0.384 -0.249 0.889 232 226 224 0
-32.3359 10.4866 -68.7237 0.178 -0.515 0.838 234 226 224 0
-7.7216 27.9554 -65.4700 0.611 -0.022 -0.792 216 216 218 0
-5.3724 26.4343 -64.2540 0.536 -0.119 -0.836 215 215 217 0
-0.7380 27.3300 -62.9617 0.204 -0.776 -0.596 209 210 215 0
-0.2259 27.1401 -62.7369 0.223 -0.789 -0.573 209 209 214 0
6.0954 38.4084 -63.8273 0.153 -0.945 -0.290 213 215 204 0
11.5475 32.7956 -60.4138 0.272 -0.365 0.890 212 214 201 0
11.7013 32.9484 -60.4059 0.029 -0.545 0.838 211 213 199 0
11.9605 34.0076 -60.6202 0.727 -0.653 0.212 211 213 192 0
11.9198 34.4078 -60.7474 -0.084 -0.741 0.667 209 209 189 0
14.1682 32.2528 -59.3851 0.113 -0.629 0.769 205 205 179 0
13.7717 33.4477 -59.8568 0.726 -0.317 0.610 200 200 168 0
13.5418 35.1484 -60.4164 0.660 -0.303 0.688 190 190 137 0
13.6509 35.3615 -60.4406 0.662 -0.301 0.686 192 191 133 0
13.7066 36.0036 -60.6043 0.647 -0.304 0.699 192 192 119 0
14.5160 36.3699 -60.4382 0.795 -0.143 0.590 194 194 104 0
14.2060 37.5157 -60.8670 0.327 -0.827 0.457 192 194 97 0
14.7270 37.1771 -60.5970 0.351 -0.789 0.505 191 193 95 0
13.8964 38.6750 -61.2996 0.325 -0.784 0.529 191 193 94 0
13.7497 39.2487 -61.5115 0.166 -0.734 0.659 191 193 93 0
18.0861 37.2867 -59.5071 0.040 -0.998 0.051 183 185 80 0
18.2720 37.3913 -59.4748 0.775 -0.554 0.305 181 184 80 0
18.3908 37.5923 -59.4922 0.767 -0.554 0.324 179 182 79 0
18.7176 37.4928 -59.3549 0.660 -0.649 0.379 176 180 77 0
21.0957 36.2328 -58.2034 0.722 -0.133 0.679 171 170 78 0
21.8059 37.4042 -58.2991 0.940 -0.335 -0.069 163 159 86 0
21.6694 37.9904 -58.5111 0.889 -0.320 0.327 160 157 89 0
21.7502 38.2471 -58.5570 0.766 -0.485 0.422 158 154 93 0
25.0325 37.6716 -57.2982 0.746 -0.468 0.474 165 165 148 0
25.2971 38.0130 -57.3068 0.687 -0.426 0.589 168 165 150 0
23.6102 41.5594 -58.8769 0.442 -0.699 0.561 172 166 154 0
23.7796 41.6836 -58.8556 0.442 -0.699 0.561 170 166 154 0
24.0247 41.6825 -58.7735 0.362 -0.897 -0.252 170 166 154 0
24.1024 41.9583 -58.8260 0.446 -0.869 -0.214 169 167 155 0
26.3991 45.5151 -59.0695 0.663 -0.461 0.590 167 164 157 0
26.2640 46.1917 -59.3067 0.321 -0.436 0.841 167 163 156 0
26.4660 46.2616 -59.2592 0.262 -0.512 0.818 166 163 156 0
26.4099 46.8010 -59.4311 0.853 -0.494 0.169 166 163 156 0
26.5310 47.0195 -59.4527 0.902 0.353 0.248 164 162 154 0
30.7214 40.9988 -56.3445 0.981 -0.192 -0.042 164 162 154 0
30.9052 41.0728 -56.3042 0.895 -0.418 0.155 163 162 154 0
30.9907 41.3310 -56.3490 0.984 -0.168 0.066 161 161 152 0
38.6125 44.1059 -54.5934 0.986 -0.022 -0.166 156 150 138 0
41.2868 54.8243 -56.7447 0.819 -0.572 0.053 152 138 127 0
41.5823 54.5839 -56.5778 0.846 -0.517 -0.131 151 138 126 0
43.5085 64.1307 -58.6461 0.331 -0.391 -0.859 142 132 122 0
47.0492 62.6445 -57.0423 0.914 -0.370 0.168 144 131 119 0
45.4441 87.3115 -64.5829 0.587 -0.699 -0.408 137 125 115 0
45.6317 87.4760 -64.5670 0.596 -0.695 -0.402 90 83 77 0
46.1463 88.1635 -64.5905 0.609 -0.691 -0.389 255 255 254 0
-46.1453 3.3652 -71.5775 0.347 -0.927 -0.146 255 255 255 0
-45.7968 3.4589 -71.4875 0.348 -0.924 -0.158 255 255 255 0
-45.5094 3.5792 -71.4255 0.347 -0.927 -0.146 133 133 133 0
-45.1925 3.6859 -71.3498 0.347 -0.927 -0.146 70 68 66 0
-45.1930 3.9348 -71.4210 0.284 -0.944 -0.169 227 219 214 0
-34.8664 11.3615 -70.0809 0.533 -0.636 -0.559 233 225 223 0
-33.5524 10.8968 -69.5078 0.610 -0.637 -0.472 234 226 224 0
-32.2775 10.4487 -68.9526 0.199 -0.411 0.889 235 227 225 0
-26.9480 27.3690 -71.9980 0.996 -0.071 -0.056 231 225 225 0
-26.7331 27.8417 -72.0610 0.610 -0.384 0.693 228 226 223 0
-9.9134 28.0452 -66.4821 -0.258 -0.966 -0.014 217 216 220 0
-0.5319 27.4545 -63.1694 0.219 -0.797 -0.563 210 211 214 0
8.8948 31.5994 -61.1937 -0.425 -0.900 0.094 209 210 204 0
11.9180 32.7040 -60.4959 0.011 -0.575 0.818 212 214 201 0
13.3284 33.6923 -60.3055 0.346 -0.403 0.847 206 209 178 0
13.9984 33.5292 -60.0343 0.909 -0.099 0.405 199 203 169 0
14.0440 33.8190 -60.1018 0.899 -0.093 0.427 198 201 164 0
13.8374 34.4370 -60.3475 0.883 -0.190 0.430 195 199 156 0
13.7885 34.8535 -60.4828 0.767 -0.551 0.329 189 192 144 0
14.2877 34.9091 -60.3314 0.721 -0.662 0.204 189 189 130 0
15.1016 36.6978 -60.5694 0.366 -0.713 0.598 190 191 100 0
18.3340 37.3339 -59.6678 0.149 -0.982 -0.112 179 182 80 0
18.4709 37.5087 -59.6718 0.154 -0.982 -0.110 177 179 78 0
19.0493 37.0444 -59.3454 0.034 -0.978 -0.206 177 179 79 0
25.3416 37.9785 -57.5033 0.537 -0.844 -0.003 170 164 150 0
25.6233 37.9052 -57.3880 0.500 -0.866 0.027 170 165 151 0
23.6617 41.5148 -59.0761 0.445 -0.690 0.571 170 166 153 0
23.8355 41.6317 -59.0512 0.597 -0.682 0.422 169 166 154 0
25.8368 39.9054 -57.8876 -0.055 -0.931 0.362 167 165 155 0
26.5171 46.2165 -59.4617 0.288 -0.460 0.840 166 162 153 0
26.3063 47.0380 -59.7669 0.799 -0.161 0.579 166 162 153 0
26.5426 47.0469 -59.6903 0.904 0.368 0.217 165 160 151 0
31.7723 39.0875 -55.6648 0.866 -0.340 0.366 165 159 151 0
31.1515 40.6588 -56.3216 0.861 -0.493 0.126 163 159 150 0
31.1914 41.0010 -56.4059 0.991 -0.111 -0.076 162 158 149 0
39.1113 37.2908 -52.6922 0.293 -0.538 0.791 161 151 141 0
38.6835 39.0681 -53.3431 0.203 -0.311 0.928 157 150 139 0
40.4419 40.8904 -53.2741 0.416 -0.010 0.909 155 147 134 0
41.4308 53.9599 -56.6746 0.642 -0.352 -0.681 153 139 127 0
41.4353 55.0661 -56.9890 0.713 -0.689 -0.132 151 137 124 0
41.9885 55.2485 -56.8557 0.696 -0.400 -0.596 151 137 124 0
43.6446 54.5968 -56.1146 0.053 -0.579 0.814 150 136 123 0
43.3267 65.4629 -59.3239 0.244 -0.530 -0.812 140 130 120 0
47.2886 59.2891 -56.2332 0.962 -0.275 0.008 140 130 119 0
47.1898 60.9355 -56.7364 0.909 0.190 0.371 141 130 119 0
47.4051 62.2255 -57.0326 0.999 0.041 -0.003 141 128 118 0
45.4343 87.5080 -64.9125 0.587 -0.698 -0.409 136 125 113 0
45.6263 87.6566 -64.8905 0.587 -0.698 -0.409 90 83 77 0
46.1956 88.1280 -64.8344 0.618 -0.687 -0.383 255 255 254 0
-46.6737 3.5875 -72.0870 0.095 -0.991 -0.092 255 255 255 0
-45.8728 3.4817 -71.7870 0.348 -0.924 -0.158 255 255 255 0
-45.5797 3.5997 -71.7223 0.347 -0.927 -0.146 133 133 133 0
-45.2624 3.7065 -71.6462 0.347 -0.927 -0.146 71 68 66 0
-34.9190 11.1199 -70.2936 0.650 -0.635 -0.418 233 225 224 0
-32.7691 10.4560 -69.3795 0.420 -0.740 -0.526 235 227 225 0
1.1186 5.1498 -56.4511 0.841 -0.401 -0.362 229 225 223 0
1.1702 5.3415 -56.4888 0.794 -0.534 -0.291 229 224 221 0
-22.1100 23.7811 -69.6180 0.682 -0.114 -0.723 230 225 225 0
-26.7585 27.8646 -72.3549 0.669 -0.735 0.112 226 227 222 0
-14.8233 30.1218 -68.9862 -0.259 -0.966 -0.001 221 219 220 0
-8.8299 26.7810 -66.0100 0.102 -0.917 0.387 217 215 217 0
-8.0060 28.5526 -66.2413 0.536 -0.116 -0.836 216 212 216 0
1.0442 24.3938 -62.0014 0.299 -0.485 0.821 211 212 217 0
0.4963 25.2267 -62.4250 0.334 -0.491 0.805 211 212 217 0
8.0659 28.6273 -60.8538 0.799 -0.346 0.493 210 210 206 0
8.9171 31.5943 -61.4192 -0.418 -0.905 0.078 209 210 202 0
9.9134 31.0931 -60.9400 -0.255 -0.959 0.124 209 210 204 0
9.8130 31.8825 -61.2005 0.057 -0.900 0.431 208 211 204 0
9.4118 33.0402 -61.6679 0.075 -0.690 0.720 209 212 205 0
11.2465 33.5580 -61.1991 0.548 -0.230 0.804 214 216 202 0
9.0121 37.0382 -62.9503 0.759 -0.080 -0.646 213 216 198 0
11.7932 35.3227 -61.5217 0.013 -0.891 0.454 208 211 187 0
14.0116 32.8449 -60.0637 -0.061 -0.721 0.691 207 211 183 0
14.0057 33.1981 -60.1671 0.737 -0.599 0.314 204 209 179 0
14.3738 33.0714 -60.0069 0.895 -0.188 0.404 202 207 175 0
14.2237 33.9617 -60.3130 0.896 -0.124 0.427 196 200 164 0
18.3803 36.9285 -59.7660 0.633 -0.764 0.121 180 180 85 0
18.6306 36.9393 -59.6848 0.447 -0.759 0.473 178 179 83 0
20.6988 36.8879 -58.9740 -0.073 -0.997 0.025 168 165 87 0
20.5338 37.5076 -59.2074 0.294 -0.956 -0.013 168 164 92 0
21.1387 38.1084 -59.1764 0.010 -0.969 0.246 155 151 92 0
24.7618 40.1433 -58.5413 0.708 -0.613 0.350 167 165 152 0
25.6785 42.6502 -58.9525 0.705 -0.247 -0.665 166 163 156 0
20.7373 52.5251 -63.4508 0.201 -0.356 -0.913 163 159 150 0
23.7847 49.4127 -61.5315 0.196 -0.363 -0.911 165 161 152 0
26.7564 45.8297 -59.5027 0.251 -0.506 0.825 164 160 151 0
26.3073 47.0845 -60.0141 0.775 -0.132 0.618 164 160 151 0
26.6185 46.9565 -59.8726 0.910 0.364 0.198 164 159 150 0
26.2086 48.1528 -60.3540 0.894 0.374 0.247 163 158 150 0
32.0368 39.0479 -55.7784 -0.324 -0.837 0.440 163 158 149 0
32.2827 38.9956 -55.6806 -0.416 -0.865 0.283 164 157 149 0
39.2598 37.0252 -52.7668 0.482 -0.218 0.849 158 148 138 0
38.8089 38.4207 -53.3191 0.364 -0.108 0.925 158 149 139 0
38.7841 38.9048 -53.4665 0.203 -0.323 0.924 157 150 138 0
34.4268 50.2811 -58.1992 0.387 -0.657 -0.647 159 149 140 0
36.8299 47.3332 -56.5441 -0.034 -0.748 -0.663 155 148 138 0
37.0750 47.2580 -56.4400 -0.034 -0.748 -0.662 154 148 137 0
41.0201 42.8235 -53.8391 0.030 -0.782 0.623 153 143 131 0
41.1240 43.0458 -53.8680 0.060 -0.804 0.592 152 142 130 0
41.1317 54.8466 -57.2536 0.924 -0.365 -0.112 153 139 126 0
41.2413 55.1120 -57.2929 0.927 -0.357 -0.118 153 139 126 0
41.4787 55.0309 -57.1897 0.748 -0.657 -0.100 151 137 124 0
44.2622 53.4820 -55.8082 0.388 -0.709 -0.590 148 135 120 0
47.6428 52.0420 -54.2570 0.751 -0.430 -0.501 140 130 120 0
49.5985 62.9433 -56.7288 0.652 -0.689 0.315 139 124 117 0
44.5730 89.2224 -65.9653 0.491 -0.723 -0.487 138 126 114 0
45.4346 87.6658 -65.2284 0.602 -0.680 -0.418 136 125 112 0
45.6286 87.8075 -65.2038 0.608 -0.672 -0.424 89 82 76 0
45.8179 87.9676 -65.1860 0.608 -0.672 -0.424 49 48 48 0
46.0122 88.1076 -65.1608 0.543 -0.771 -0.333 246 246 243 0
46.1923 88.3048 -65.1569 0.618 -0.687 -0.383 255 255 254 0
-46.7459 3.6083 -72.3865 0.095 -0.991 -0.092 255 255 255 0
-45.9684 3.5131 -72.0963 0.347 -0.927 -0.146 255 255 255 0
-45.6501 3.6202 -72.0196 0.347 -0.927 -0.146 133 133 133 0
-45.3324 3.7271 -71.9431 0.347 -0.927 -0.146 70 68 66 0
-45.0393 3.8444 -71.8779 0.433 -0.892 -0.130 226 219 214 0
-35.0244 10.6439 -70.4562 0.477 -0.742 0.472 231 222 223 0
-33.0229 9.8089 -69.5387 0.272 -0.803 -0.529 231 222 223 0
-32.6010 9.8365 -69.4041 0.297 -0.773 -0.561 234 225 225 0
1.0126 4.9998 -56.6477 0.557 -0.677 -0.480 228 227 225 0
1.1465 5.3608 -56.7067 0.871 -0.417 -0.260 228 224 223 0
1.0764 5.6421 -56.8116 0.975 -0.090 -0.205 228 224 223 0
-28.2226 28.9639 -73.4462 0.970 -0.242 -0.026 227 226 222 0
3.2270 22.0070 -60.8092 0.151 -0.811 -0.565 211 212 217 0
0.2873 25.4417 -62.7942 0.230 -0.468 0.853 210 212 217 0
8.3568 28.3212 -60.8983 0.844 -0.260 0.468 209 210 206 0
10.4168 29.2069 -60.4578 0.025 -0.966 0.259 207 209 203 0
8.6803 32.2296 -61.9173 -0.251 -0.966 0.067 209 210 203 0
9.9087 32.1280 -61.4728 -0.031 -0.841 0.540 209 211 206 0
9.1810 33.6832 -62.1677 -0.066 -0.518 0.853 212 213 205 0
16.4035 28.4961 -58.2294 0.752 -0.441 0.489 212 214 194 0
16.8747 28.8830 -58.1818 0.832 -0.417 0.366 209 211 189 0
16.9457 29.1217 -58.2267 0.757 -0.489 0.433 209 212 186 0
13.9794 33.2570 -60.4230 0.729 -0.627 0.276 206 210 183 0
14.4405 33.0108 -60.1961 0.919 -0.096 0.383 205 210 180 0
14.7269 32.9873 -60.0925 0.899 0.196 0.391 203 208 176 0
14.6396 33.7969 -60.3558 0.830 -0.404 0.385 203 204 169 0
14.7442 34.0108 -60.3821 0.782 -0.465 0.415 204 201 165 0
18.5912 34.4793 -59.2173 0.882 -0.334 0.332 181 183 99 0
17.0506 37.7388 -60.6789 0.884 -0.284 0.371 177 180 93 0
18.5108 36.7729 -59.9066 0.447 -0.752 0.484 176 176 91 0
18.6852 36.8923 -59.8821 0.447 -0.752 0.484 174 174 88 0
20.0679 38.2362 -59.8028 0.728 -0.624 -0.285 163 159 97 0
20.1098 38.5533 -59.8802 0.221 -0.648 0.729 159 155 96 0
21.1216 38.9331 -59.6479 0.242 -0.696 0.676 142 137 99 0
22.0088 40.6688 -59.8491 0.675 -0.688 -0.267 163 161 140 0
23.4282 40.7739 -59.3997 0.627 -0.045 0.778 168 164 149 0
23.7107 40.7128 -59.2866 0.668 -0.015 0.744 170 164 150 0
24.9196 39.5269 -58.5357 0.797 -0.593 0.118 169 164 152 0
24.9475 39.8764 -58.6272 0.648 -0.557 0.519 168 164 153 0
22.2957 51.6598 -62.9251 0.238 -0.320 -0.917 164 160 151 0
23.8453 49.3528 -61.7354 0.286 -0.290 -0.913 163 159 150 0
25.3003 48.0767 -60.8753 0.285 -0.291 -0.913 161 157 148 0
35.8237 31.6227 -52.5687 0.391 -0.659 -0.642 161 157 148 0
35.6929 32.2445 -52.7924 0.412 -0.699 -0.584 161 156 147 0
34.4162 41.1856 -55.8051 0.031 -0.961 -0.276 159 153 142 0
38.3559 39.8882 -54.0991 0.986 -0.152 0.066 156 149 137 0
38.4102 40.2082 -54.1731 0.986 -0.152 0.066 154 150 138 0
36.9269 47.6579 -56.8250 -0.025 -0.737 -0.675 152 146 135 0
37.5558 49.1451 -57.0418 0.397 -0.767 -0.503 154 143 132 0
37.8723 55.6628 -58.8165 0.748 -0.354 0.562 151 141 129 0
40.7903 55.2854 -57.7213 0.569 -0.806 0.166 152 141 127 0
41.2506 54.6082 -57.3703 0.764 -0.579 -0.286 152 139 126 0
41.7829 55.9865 -57.5883 0.722 -0.559 -0.407 150 137 122 0
39.9881 66.5550 -61.2458 0.529 -0.783 -0.327 146 134 118 0
45.4257 87.8598 -65.5586 0.602 -0.675 -0.427 136 124 113 0
45.6170 88.0136 -65.5384 0.661 -0.636 -0.398 89 81 75 0
45.8004 88.1989 -65.5299 0.661 -0.636 -0.398 49 48 48 0
46.0184 88.2453 -65.4696 0.543 -0.771 -0.333 246 246 243 0
46.2176 88.3662 -65.4372 0.543 -0.771 -0.332 255 255 254 0
46.4154 88.4923 -65.4067 0.543 -0.771 -0.332 254 255 255 0
-46.7900 3.6166 -72.6734 0.100 -0.991 -0.090 255 255 255 0
-45.4026 3.7477 -72.2406 0.347 -0.927 -0.146 70 67 66 0
-33.6502 10.4092 -70.1857 -0.491 -0.809 0.323 232 223 223 0
-31.9452 9.9873 -69.4846 0.475 -0.698 0.536 231 225 223 0
1.0924 5.1727 -56.8750 0.823 -0.492 -0.283 228 227 225 0
2.7718 22.4564 -61.3219 0.277 -0.886 -0.373 211 212 217 0
11.2587 22.3836 -58.4205 0.004 -0.668 0.744 208 210 209 0
6.7083 29.2016 -61.9438 0.600 -0.275 0.751 206 207 209 0
8.9941 28.2670 -60.8968 0.763 -0.353 0.542 206 208 205 0
8.5098 30.7747 -61.7891 0.194 -0.784 0.590 207 208 203 0
8.9828 30.5601 -61.5662 0.285 -0.814 0.506 207 208 202 0
9.3427 30.4739 -61.4190 0.244 -0.797 0.552 208 209 202 0
17.0888 29.2930 -58.4475 -0.121 -0.988 0.092 209 212 186 0
15.1014 33.2209 -60.2621 0.766 -0.582 0.273 206 205 172 0
15.0618 33.6213 -60.3917 0.783 -0.568 0.252 205 203 172 0
20.7653 38.7442 -59.9431 0.227 -0.648 0.727 144 140 101 0
21.2035 38.8431 -59.8231 0.261 -0.680 0.685 150 144 113 0
23.3657 40.9144 -59.6905 0.627 0.037 0.778 168 163 151 0
28.5949 34.2638 -55.9855 0.079 -0.515 0.854 164 161 149 0
25.7009 41.0601 -58.9403 0.351 -0.936 -0.007 166 162 152 0
24.1184 45.4265 -60.7447 0.120 -0.953 0.278 164 162 151 0
33.9972 40.7902 -56.0464 0.203 -0.667 -0.717 161 152 144 0
34.3180 41.0050 -55.9999 0.377 -0.612 -0.695 159 152 142 0
34.3806 41.3090 -56.0669 0.054 -0.951 -0.306 156 152 141 0
34.1187 42.2713 -56.4351 0.869 -0.128 -0.478 157 154 142 0
34.1235 43.1391 -56.6853 0.976 -0.012 -0.218 157 152 140 0
37.9336 40.8602 -54.7309 0.757 -0.291 0.585 154 148 134 0
38.0884 40.9659 -54.7090 0.547 -0.192 0.815 152 148 136 0
