ply
format ascii 1.0
element vertex 836
property float x
property float y
property float z
property float nx
property float ny
property float nz
property uchar diffuse_red
property uchar diffuse_green
property uchar diffuse_blue
property uchar class
end_header
26.9342 46.1172 -23.5513 0.519 -0.835 -0.181 219 206 185 0
23.6680 73.8442 -25.3110 0.573 -0.766 0.293 209 194 174 0
30.4590 68.1372 -24.2455 0.946 0.203 -0.254 203 190 171 0
45.5976 46.8787 -21.4443 0.779 0.191 0.597 194 176 154 0
43.4224 71.2141 -22.9092 0.612 -0.365 -0.702 164 145 115 0
43.7486 73.1658 -22.9691 -0.107 -0.964 -0.243 102 91 74 0
43.9705 73.1019 -22.9404 -0.118 -0.960 -0.253 51 50 51 0
44.6872 72.6868 -22.8373 0.020 -0.992 -0.121 254 255 255 0
-28.5503 -1.9319 -27.7295 0.993 -0.098 -0.059 240 221 201 0
-19.1879 26.3923 -28.0966 0.863 -0.500 0.068 232 224 213 0
-12.7938 26.6136 -27.3657 -0.431 -0.878 0.208 128 74 75 0
-11.6113 26.7026 -27.2329 0.036 -0.931 0.364 122 60 63 0
-9.0575 26.9567 -26.9495 0.499 -0.809 -0.310 114 46 51 0
-6.6112 25.7445 -26.6032 0.800 -0.597 -0.064 122 47 54 0
-6.0522 26.3850 -26.5712 0.817 -0.574 0.050 126 47 51 0
-5.9210 26.5542 -26.5647 0.812 -0.581 0.046 127 47 51 0
-0.0194 31.1366 -26.1148 0.178 -0.664 0.726 126 52 46 0
-2.5623 40.7032 -26.9012 0.017 -0.984 0.180 121 87 42 0
-2.3417 40.7950 -26.8803 -0.016 -0.975 0.221 122 88 43 0
-2.3616 41.1856 -26.9026 0.497 -0.860 -0.119 125 90 45 0
-2.2690 41.4375 -26.9048 0.793 -0.473 -0.383 131 93 48 0
-2.2187 41.7433 -26.9147 0.550 -0.684 -0.479 132 95 47 0
9.4412 42.8902 -25.6198 0.039 -0.960 0.277 97 44 42 0
17.6908 72.1517 -26.1643 0.430 -0.475 0.768 216 203 186 0
18.4255 71.1157 -26.0259 -0.081 -0.700 0.709 214 201 184 0
30.1214 70.4187 -24.6322 0.928 0.279 -0.247 202 189 171 0
44.4457 52.7138 -22.0602 0.749 0.215 0.627 192 174 152 0
42.8615 72.7163 -23.2710 0.757 0.040 -0.652 169 148 119 0
43.2180 72.9435 -23.2413 0.719 -0.646 -0.258 165 146 114 0
43.7756 73.1913 -23.1893 -0.118 -0.960 -0.253 103 92 76 0
43.9900 73.1580 -23.1627 -0.118 -0.960 -0.253 51 50 50 0
44.7029 72.7593 -23.0595 0.021 -0.994 -0.111 254 255 255 0
-25.2198 30.3865 -29.2439 0.869 -0.297 -0.397 232 226 212 0
-21.5537 27.8467 -28.6800 0.851 -0.267 0.451 232 225 212 0
-19.4656 26.6393 -28.3715 0.900 -0.426 0.095 233 225 214 0
-19.4238 26.9030 -28.3805 0.933 -0.359 0.021 232 224 213 0
-21.2242 30.6475 -28.7891 -0.057 -0.955 0.291 225 216 201 0
-21.1587 30.9035 -28.7950 -0.319 -0.891 0.323 228 217 203 0
-12.7052 26.5386 -27.5734 -0.427 -0.882 0.199 126 70 73 0
-11.6426 26.7407 -27.4595 -0.065 -0.975 0.211 121 57 61 0
-9.4060 26.7020 -27.1951 0.224 -0.912 0.343 117 47 55 0
-6.7669 25.6104 -26.8281 0.714 -0.675 0.187 124 49 56 0
-6.2195 26.2627 -26.7983 0.802 -0.595 0.045 121 42 47 0
-6.1057 26.4495 -26.7948 0.775 -0.631 0.003 119 40 45 0
-6.0263 26.6715 -26.7972 0.730 -0.679 -0.075 120 39 45 0
-2.7527 40.9594 -27.1671 0.788 -0.468 -0.400 121 88 44 0
-2.3960 41.6178 -27.1600 0.568 -0.808 -0.156 130 94 47 0
-2.3542 41.9349 -27.1719 0.629 -0.667 -0.400 132 96 46 0
-2.0722 42.6958 -27.1789 0.544 -0.771 -0.331 140 103 52 0
-1.6215 42.4971 -27.1156 0.349 -0.932 -0.095 140 105 51 0
-1.4254 42.6211 -27.0991 0.371 -0.922 -0.108 143 108 52 0
-1.1895 42.6937 -27.0753 0.406 -0.912 -0.059 146 111 56 0
-0.9719 42.7894 -27.0548 0.406 -0.912 -0.059 146 111 55 0
2.7277 41.6876 -26.5629 -0.392 -0.729 0.561 144 86 57 0
2.9179 41.8080 -26.5469 -0.260 -0.797 0.545 140 83 53 0
3.9635 41.1484 -26.3895 -0.275 -0.609 0.744 138 77 49 0
7.8292 39.5438 -25.8516 0.809 -0.266 0.525 132 61 45 0
9.2089 40.5721 -25.7440 0.575 -0.498 0.650 116 56 45 0
9.2306 40.9196 -25.7598 0.689 -0.351 0.634 117 58 47 0
9.4128 42.5732 -25.8257 0.149 -0.913 0.381 98 44 42 0
9.5003 42.8323 -25.8291 0.039 -0.960 0.277 94 43 40 0
7.0719 51.4511 -26.5686 0.860 -0.507 0.060 101 72 68 0
6.8791 56.6330 -26.8646 0.113 -0.550 0.827 222 212 195 0
18.5408 69.7769 -26.1905 0.250 -0.334 0.909 215 202 185 0
18.9659 69.9898 -26.1519 0.192 -0.973 0.127 216 203 186 0
19.2756 69.8801 -26.1098 0.465 -0.509 0.724 214 201 184 0
19.2823 70.4431 -26.1387 0.601 -0.492 0.630 213 200 183 0
33.3331 77.5563 -24.8663 -0.056 -0.949 -0.312 200 182 162 0
33.5995 77.4539 -24.8297 -0.051 -0.888 -0.457 200 182 162 0
43.3691 73.2957 -23.4647 -0.074 -0.955 -0.288 164 145 114 0
43.7950 73.2476 -23.4122 -0.118 -0.960 -0.253 104 92 76 0
44.0055 73.2302 -23.3866 -0.103 -0.979 -0.178 51 50 51 0
44.7360 72.7604 -23.2761 0.020 -0.994 -0.109 254 255 255 0
45.4315 70.7333 -23.0876 0.067 -0.986 -0.152 255 255 255 0
-21.4469 27.1543 -28.8641 0.945 -0.235 0.228 232 226 212 0
-23.4819 29.2087 -29.2164 0.887 -0.220 -0.405 231 225 211 0
-21.4610 27.7717 -28.8992 0.851 -0.267 0.451 232 225 211 0
-19.4881 26.6642 -28.6056 0.927 -0.366 0.078 232 224 213 0
-19.4529 26.9338 -28.6160 0.930 -0.358 0.085 230 222 211 0
-18.7915 26.6554 -28.5226 0.867 -0.298 0.400 229 221 210 0
-18.7794 26.9452 -28.5368 0.604 -0.581 0.546 229 221 209 0
-18.7871 27.2535 -28.5545 0.611 -0.647 0.456 227 219 206 0
-14.8202 27.9120 -28.1203 -0.342 -0.937 0.070 125 73 75 0
-12.3005 27.0702 -27.7763 0.018 -0.968 -0.250 118 57 59 0
-11.6500 26.7560 -27.6823 -0.093 -0.976 0.195 121 56 60 0
-11.2618 26.6883 -27.6326 -0.195 -0.973 0.124 121 56 60 0
-10.8952 26.6398 -27.5866 -0.198 -0.973 0.117 118 53 57 0
-10.5776 26.6369 -27.5488 -0.060 -0.971 -0.232 118 53 57 0
-9.4529 26.7569 -27.4221 0.385 -0.911 0.145 120 48 56 0
-9.4198 27.0271 -27.4328 0.230 -0.941 0.246 117 44 53 0
-6.8315 25.3861 -27.0374 -0.009 -1.000 0.009 121 48 54 0
-6.7374 25.5909 -27.0373 0.704 -0.686 0.182 127 53 58 0
1.8842 34.5660 -26.5025 0.630 -0.090 0.771 117 84 41 0
-3.7516 43.7094 -27.6653 0.483 -0.691 -0.538 132 96 45 0
-2.1333 42.4222 -27.4039 0.539 -0.578 -0.613 137 101 49 0
-1.8490 42.4353 -27.3710 0.506 -0.815 -0.282 139 104 51 0
7.7437 39.3195 -26.0661 -0.015 -0.939 0.344 135 64 49 0
7.9139 39.4512 -26.0531 0.843 -0.265 0.469 131 61 48 0
9.0829 40.4047 -25.9663 0.572 -0.795 0.204 112 53 39 0
9.1360 40.7059 -25.9763 0.637 -0.755 -0.157 112 52 41 0
9.2576 40.9088 -25.9729 0.699 -0.507 0.505 111 52 42 0
9.8312 42.7590 -26.0052 0.086 -0.920 0.382 94 43 42 0
7.0540 51.5146 -26.8085 0.815 -0.579 -0.030 102 71 68 0
7.6422 51.0233 -26.7122 0.887 -0.158 0.433 107 77 72 0
17.8180 72.0072 -26.6439 0.532 -0.751 -0.391 215 204 186 0
18.8665 70.2764 -26.4259 0.352 -0.888 0.295 215 203 186 0
32.1300 64.4460 -24.5393 0.936 0.313 -0.161 202 187 171 0
34.7455 75.4013 -24.8230 0.182 -0.816 -0.549 199 181 161 0
34.5182 76.8564 -24.9288 -0.041 -0.975 -0.217 199 182 162 0
40.4719 67.2719 -23.7044 0.926 0.263 0.270 192 175 153 0
42.9439 69.5026 -23.5325 0.723 0.024 -0.690 178 161 135 0
44.6285 73.3382 -23.5408 -0.137 -0.977 -0.166 254 255 255 0
-21.4404 27.1536 -29.0966 0.630 -0.162 0.760 233 226 211 0
-22.6468 29.4191 -29.3668 0.997 0.024 0.078 230 222 211 0
-21.6160 30.6964 -29.3145 -0.226 -0.832 0.507 227 218 202 0
-14.5921 27.7079 -28.3084 -0.326 -0.900 0.290 125 73 75 0
-14.2298 27.6753 -28.2632 -0.309 -0.940 -0.145 124 69 72 0
-11.5998 26.7168 -27.8954 -0.182 -0.977 0.107 122 57 61 0
-11.4234 26.8507 -27.8817 -0.016 -0.983 0.181 119 54 58 0
-9.8739 26.5709 -27.6809 -0.146 -0.973 0.177 121 50 57 0
-6.5737 25.7369 -27.2398 0.353 -0.852 0.385 129 51 57 0
-6.4567 25.9197 -27.2360 0.814 -0.548 0.193 125 47 52 0
-6.3507 26.1139 -27.2341 0.813 -0.550 0.190 128 49 55 0
-4.5463 26.3938 -27.0338 0.573 -0.709 0.411 132 53 54 0
1.6674 33.1579 -26.6668 0.515 -0.577 0.634 127 71 45 0
2.1561 32.9030 -26.5941 0.484 -0.484 0.729 127 75 46 0
1.7755 34.7187 -26.7406 0.206 -0.174 0.963 117 84 43 0
1.7652 35.0741 -26.7616 0.243 -0.148 0.959 118 85 44 0
-2.0592 41.9789 -27.6029 0.836 -0.433 -0.339 132 98 44 0
-1.8447 42.4524 -27.6035 0.441 -0.860 -0.257 137 105 51 0
8.4252 39.1282 -26.1905 0.688 -0.645 0.333 123 55 43 0
8.9948 40.5599 -26.2019 0.621 -0.768 0.159 112 53 42 0
9.0171 40.9066 -26.2185 0.621 -0.758 -0.198 109 50 40 0
9.0412 41.2525 -26.2349 0.732 -0.615 0.293 108 50 41 0
9.8630 42.3523 -26.1978 0.504 -0.685 0.527 95 48 42 0
7.0856 51.5006 -27.0385 0.834 -0.482 -0.267 102 69 64 0
7.2169 51.7262 -27.0354 0.834 -0.482 -0.267 109 79 73 0
22.8780 59.8792 -25.6156 0.929 0.361 0.083 215 203 187 0
34.8107 75.3003 -25.0458 0.167 -0.824 -0.541 195 180 162 0
35.0302 75.3286 -25.0212 0.167 -0.824 -0.541 196 180 163 0
35.3047 83.6234 -25.4495 0.609 -0.409 -0.680 192 175 154 0
44.2210 73.4623 -23.8182 -0.108 -0.994 -0.008 246 246 245 0
44.6163 73.5259 -23.7745 -0.130 -0.979 -0.156 254 255 254 0
45.1637 72.1113 -23.6304 -0.216 -0.968 -0.129 255 255 255 0
-20.8261 26.9318 -29.2432 0.644 -0.135 0.753 231 224 208 0
-20.8163 27.2248 -29.2588 0.544 -0.474 0.693 230 222 209 0
-19.3029 27.1149 -29.0697 0.731 -0.612 0.302 230 222 209 0
-20.7563 30.2481 -29.4239 -0.027 -0.835 0.550 225 212 198 0
-13.7354 27.2223 -28.4035 -0.304 -0.952 0.038 124 69 72 0
-11.4746 26.6062 -28.0953 -0.253 -0.958 0.132 117 52 57 0
-11.2683 26.7114 -28.0764 -0.043 -0.976 0.214 119 54 58 0
-10.5885 27.2704 -28.0262 -0.315 -0.722 0.616 122 51 57 0
-6.5862 25.7592 -27.4567 0.539 -0.797 0.273 124 46 52 0
-6.4518 25.9249 -27.4499 0.808 -0.578 0.119 121 42 47 0
-4.4674 26.3237 -27.2330 0.585 -0.711 0.390 129 49 51 0
-4.2722 26.4253 -27.2152 0.449 -0.806 0.386 129 48 53 0
-2.3995 26.5938 -26.9987 0.403 -0.914 0.035 125 43 52 0
0.3011 27.6619 -26.7334 0.560 -0.608 0.563 133 51 51 0
2.2993 32.7483 -26.7821 0.479 -0.480 0.734 127 70 45 0
2.4447 32.9065 -26.7736 0.479 -0.480 0.734 128 74 48 0
8.4151 39.1690 -26.4096 0.668 -0.687 0.287 113 48 38 0
9.1086 40.4236 -26.3974 0.665 -0.435 0.607 106 47 40 0
9.0823 40.8405 -26.4244 0.591 -0.432 0.682 104 45 39 0
9.3968 41.9116 -26.4475 0.578 -0.632 0.516 94 43 40 0
7.0584 51.5786 -27.2810 0.829 -0.470 -0.303 99 66 60 0
3.8195 61.2738 -28.2250 0.911 0.181 0.372 218 210 191 0
7.6416 55.5067 -27.4346 0.663 -0.470 0.582 221 211 193 0
33.6678 77.5597 -25.5489 -0.027 -0.957 -0.287 194 181 163 0
34.7846 75.4900 -25.2960 0.163 -0.828 -0.536 193 180 163 0
35.2232 74.8184 -25.2047 0.127 -0.932 0.340 194 179 163 0
35.4815 76.1879 -25.2516 0.773 -0.579 -0.258 196 177 162 0
35.6887 76.2553 -25.2305 0.672 -0.660 -0.337 195 176 161 0
36.5127 75.7787 -25.1038 0.938 -0.012 -0.348 194 177 157 0
40.6580 77.5763 -24.7057 0.258 0.078 0.963 184 166 144 0
41.2520 76.1521 -24.5527 0.209 0.055 0.976 182 165 142 0
42.6259 71.7384 -24.1351 0.847 -0.518 0.117 183 166 143 0
41.9168 75.2503 -24.4210 0.759 0.013 -0.651 181 163 141 0
43.9513 70.5877 -23.9095 -0.205 -0.972 -0.116 171 152 127 0
44.2565 73.4547 -24.0361 -0.094 -0.993 0.072 246 246 245 0
44.9614 73.0853 -23.9299 -0.100 -0.978 -0.185 255 255 254 0
-23.8752 31.1299 -30.0930 0.937 0.153 0.314 229 221 208 0
-17.8474 29.8050 -29.2806 0.792 -0.259 -0.553 126 80 80 0
-15.3871 27.8489 -28.8663 -0.210 -0.962 -0.173 123 76 76 0
-14.2987 27.4507 -28.7103 -0.269 -0.963 0.015 121 67 69 0
-13.7975 27.2880 -28.6397 -0.284 -0.958 0.031 120 63 67 0
-6.1719 26.2560 -27.6496 0.778 -0.623 0.077 123 44 49 0
-4.0920 26.2507 -27.3956 0.426 -0.900 -0.099 129 48 54 0
-3.6562 26.4049 -27.3515 0.212 -0.977 0.032 130 48 55 0
-3.3625 26.4022 -27.3155 0.246 -0.967 0.063 125 43 51 0
0.2507 28.0433 -26.9709 0.376 -0.904 0.201 119 40 39 0
0.2040 28.4082 -26.9979 0.766 -0.636 0.092 120 40 40 0
2.4360 32.6013 -26.9708 0.502 -0.427 0.752 126 67 42 0
2.6107 32.7235 -26.9566 0.502 -0.433 0.749 120 63 38 0
0.5622 38.7209 -27.5569 0.492 0.288 0.821 131 97 45 0
8.9745 38.7743 -26.5342 0.613 -0.790 0.019 109 46 38 0
9.1138 38.9468 -26.5273 0.732 -0.655 0.187 106 43 35 0
9.2591 39.1107 -26.5192 0.670 -0.673 0.314 107 44 37 0
9.9074 41.9585 -26.6066 0.338 -0.865 0.371 88 38 36 0
9.8449 42.4397 -26.6423 0.781 -0.572 0.252 88 40 37 0
9.9077 42.7359 -26.6520 0.847 -0.507 0.160 90 42 39 0
6.9811 51.7352 -27.5347 0.839 -0.475 -0.264 95 64 58 0
7.1113 51.9637 -27.5322 0.839 -0.475 -0.264 100 71 64 0
34.5718 77.0103 -25.6475 0.022 -0.971 -0.240 194 178 163 0
37.1858 69.3399 -24.8805 0.751 -0.361 -0.552 194 178 162 0
35.8020 76.7422 -25.4818 0.832 -0.535 -0.146 195 177 160 0
42.1646 72.8241 -24.4770 0.237 0.085 0.968 183 167 144 0
41.7465 75.2171 -24.6679 0.215 0.043 0.976 182 166 143 0
42.7097 73.1418 -24.4291 0.853 -0.116 -0.509 180 163 140 0
42.2654 76.5083 -24.6801 0.920 -0.047 -0.390 179 161 137 0
44.0159 70.4628 -24.1133 -0.162 -0.984 -0.074 176 159 134 0
44.2838 73.4802 -24.2570 -0.072 -0.993 0.097 246 246 245 0
-46.9300 11.3546 -31.9898 -0.384 -0.884 0.266 234 221 205 0
-18.1583 25.8246 -29.3141 0.745 -0.526 0.409 229 221 209 0
-20.2163 29.7775 -29.8040 0.840 -0.199 0.505 219 204 189 0
-14.9199 27.7299 -29.0294 -0.255 -0.923 -0.288 123 71 73 0
-14.3809 27.5347 -28.9514 -0.247 -0.922 -0.299 121 65 68 0
-10.9739 26.4479 -28.4669 -0.112 -0.729 0.676 116 50 54 0
-6.4592 25.9523 -27.8815 0.805 -0.593 0.032 119 41 46 0
-5.3748 25.7640 -27.7367 0.153 -0.841 0.518 120 43 47 0
-4.1071 26.2776 -27.6114 0.330 -0.849 0.413 129 47 54 0
-3.8147 26.8857 -27.6118 0.076 -0.810 0.581 128 47 55 0
-2.3613 26.5778 -27.4145 0.792 -0.611 0.019 126 40 50 0
-2.2320 26.7456 -27.4086 0.792 -0.611 0.019 126 39 48 0
-1.7911 27.1937 -27.3811 0.308 -0.948 -0.076 128 43 46 0
-1.2190 27.5004 -27.3291 0.327 -0.850 0.413 147 66 67 0
0.9886 29.7514 -27.1921 0.521 -0.542 0.660 124 51 45 0
2.9124 30.7295 -27.0138 0.330 -0.381 0.864 133 65 45 0
3.8350 33.9340 -27.0920 0.091 -0.150 0.985 128 89 44 0
4.1322 33.9026 -27.0536 0.197 -0.061 0.979 130 93 46 0
1.6025 37.4315 -27.5762 0.561 0.323 0.762 131 96 48 0
9.0682 38.6682 -26.7312 0.628 -0.734 0.258 105 42 37 0
9.2107 38.8357 -26.7237 0.772 -0.584 0.252 101 40 34 0
9.3099 39.0652 -26.7252 0.670 -0.673 0.314 102 40 35 0
9.6951 40.7655 -26.7796 0.831 -0.451 0.326 95 40 37 0
9.8149 40.9713 -26.7771 0.818 -0.458 0.348 88 37 33 0
9.6780 42.7188 -26.8986 0.868 -0.496 0.024 85 38 37 0
9.1486 44.3000 -27.0584 0.587 -0.788 0.186 89 41 41 0
7.4571 51.8891 -27.7209 0.896 -0.319 0.310 109 82 75 0
16.6712 73.0299 -27.8522 0.226 -0.927 -0.301 215 204 187 0
16.8931 73.1335 -27.8311 0.166 -0.915 -0.369 215 203 186 0
25.7817 55.7463 -25.6960 0.949 -0.074 0.306 212 200 184 0
28.4415 62.5203 -25.7741 0.524 -0.379 0.763 206 193 180 0
35.3543 76.8222 -25.7792 0.751 -0.474 -0.459 193 176 161 0
36.2682 76.8183 -25.6665 0.940 0.013 -0.341 191 176 158 0
43.2040 62.3584 -23.9471 0.799 0.217 0.560 186 172 154 0
42.5024 65.6039 -24.2277 0.844 0.227 0.486 186 172 152 0
43.4257 70.5051 -24.4074 0.881 -0.226 0.417 180 165 142 0
42.2687 76.6296 -24.9165 0.923 -0.047 -0.382 179 163 139 0
44.0507 70.4548 -24.3275 -0.065 -0.995 -0.076 177 161 138 0
44.3222 73.4611 -24.4740 -0.062 -0.998 -0.028 246 246 245 0
45.0383 73.0449 -24.3610 -0.104 -0.981 -0.167 255 255 254 0
-38.3108 1.3138 -30.5447 -0.205 -0.979 0.016 255 255 255 0
-20.2935 25.8907 -29.8118 0.735 0.057 0.676 234 225 210 0
-20.1453 26.0616 -29.8039 0.731 0.074 0.678 233 224 209 0
-19.6988 25.9758 -29.7431 0.219 -0.484 0.847 234 225 210 0
-18.1605 25.8319 -29.5431 0.654 -0.681 0.330 230 222 209 0
-17.5624 25.6055 -29.4549 0.694 -0.566 0.445 229 222 207 0
-17.4417 28.8272 -29.6373 -0.328 -0.816 0.477 130 84 84 0
-14.2091 26.7772 -29.1100 -0.501 -0.825 0.263 120 70 71 0
-12.7602 26.3363 -28.9029 0.108 -0.736 -0.669 119 61 65 0
-11.9698 26.7987 -28.8330 -0.407 -0.889 0.211 116 50 57 0
-10.8241 26.3136 -28.6609 -0.167 -0.802 0.573 117 48 53 0
-6.1617 25.6652 -28.0417 0.785 -0.518 0.340 124 45 50 0
-6.1270 25.9305 -28.0537 0.844 -0.461 0.275 123 44 49 0
3.4537 33.0720 -27.3007 0.503 0.025 0.864 127 76 47 0
3.3918 33.4860 -27.3338 0.446 -0.001 0.895 132 83 51 0
2.1694 36.7382 -27.6850 0.323 0.187 0.928 135 95 51 0
9.3607 39.0198 -26.9311 0.670 -0.673 0.314 96 36 33 0
9.3696 43.6031 -27.2109 0.917 -0.368 -0.153 81 34 36 0
9.2916 44.1161 -27.2521 0.763 -0.600 -0.240 81 35 36 0
9.2778 53.8409 -27.8498 0.973 -0.206 -0.107 222 214 195 0
28.5390 62.3503 -25.9776 0.540 -0.361 0.760 206 194 180 0
35.4971 75.7258 -25.9326 0.945 0.118 -0.304 194 175 161 0
35.1617 79.8456 -26.2268 0.912 0.013 -0.409 191 175 159 0
44.3468 73.4980 -24.6963 -0.069 -0.997 -0.017 246 246 245 0
44.5577 73.4769 -24.6688 -0.037 -0.999 -0.036 254 255 255 0
45.0635 73.0798 -24.5816 -0.104 -0.981 -0.167 255 255 254 0
-38.4644 1.3820 -30.7854 -0.197 -0.980 0.035 255 255 255 0
-34.2565 12.5340 -30.9569 0.525 -0.816 0.241 231 220 203 0
-33.9768 12.6126 -30.9268 0.493 -0.846 0.205 230 220 204 0
-32.4421 11.8987 -30.6895 0.402 -0.767 0.501 231 222 207 0
-32.2824 12.0495 -30.6789 0.395 -0.764 0.510 235 227 211 0
-26.2785 31.6484 -31.1548 -0.247 -0.966 -0.079 233 225 210 0
-25.6664 31.4383 -31.0648 -0.165 -0.985 -0.054 232 225 209 0
-17.8520 25.5677 -29.7164 0.708 -0.589 0.390 230 222 209 0
-16.9917 25.1105 -29.5798 0.621 -0.734 0.276 229 222 206 0
-19.6381 29.8954 -30.2118 0.745 -0.480 0.463 146 118 112 0
-19.4019 29.9947 -30.1884 0.770 -0.458 0.444 140 104 100 0
-17.3729 28.7716 -29.8572 -0.337 -0.833 0.438 131 83 83 0
-16.5001 28.2815 -29.7170 -0.387 -0.881 0.274 126 77 77 0
-9.7320 25.2814 -28.6798 0.755 -0.653 0.059 120 49 55 0
-9.6614 25.5114 -28.6854 0.756 -0.651 0.072 120 48 55 0
-9.5190 25.6731 -28.6776 0.747 -0.661 0.068 121 48 55 0
-9.3765 25.8350 -28.6699 0.747 -0.661 0.068 123 49 56 0
-6.1237 25.9374 -28.2683 0.982 -0.175 -0.069 125 45 51 0
-0.2641 27.7221 -27.6451 0.547 -0.725 0.419 129 48 50 0
0.2555 28.0809 -27.6024 0.338 -0.838 0.429 110 35 34 0
2.4881 28.6917 -27.3607 0.118 -0.787 0.606 128 53 48 0
4.5843 33.0366 -27.3702 -0.337 -0.886 0.318 136 83 48 0
2.8974 35.8415 -27.7577 0.323 0.187 0.928 141 92 54 0
9.4489 38.1816 -27.0826 0.276 -0.565 0.777 95 31 31 0
9.4639 38.8994 -27.1257 0.436 -0.875 0.209 91 31 31 0
9.7644 38.8404 -27.0843 0.350 -0.933 0.085 88 29 30 0
9.2697 44.1801 -27.4812 0.763 -0.600 -0.240 78 32 34 0
16.6639 61.1224 -27.6161 0.667 -0.529 -0.525 218 210 191 0
28.6258 62.2071 -26.1836 0.809 -0.355 0.469 207 195 180 0
29.2530 61.2126 -26.0425 0.855 -0.468 -0.223 205 193 178 0
43.3565 62.7393 -24.3690 0.815 0.217 0.538 184 172 150 0
44.3801 73.4994 -24.9154 -0.069 -0.997 -0.017 246 246 245 0
44.5948 73.4628 -24.8862 -0.049 -0.998 -0.032 254 255 255 0
45.1599 72.8193 -24.7749 -0.139 -0.983 -0.123 255 254 255 0
-38.5740 1.4279 -31.0199 -0.190 -0.981 0.030 255 255 255 0
-35.8161 2.0085 -30.7079 0.981 0.060 -0.186 236 220 207 0
-48.9660 11.9363 -33.0097 -0.383 -0.910 0.156 233 220 203 0
-34.3247 12.5716 -31.1966 0.312 -0.920 0.237 231 220 201 0
-33.9820 12.6110 -31.1557 0.261 -0.910 0.322 231 220 202 0
-32.1380 11.7020 -30.8639 0.269 -0.833 0.484 231 219 203 0
-25.9378 31.3602 -31.3397 -0.226 -0.974 0.005 231 224 206 0
-23.4000 29.7957 -30.9180 0.347 -0.909 -0.230 230 223 207 0
-19.5953 29.8636 -30.4406 0.898 -0.312 0.308 141 111 105 0
-19.3046 29.9135 -30.4070 0.783 -0.443 0.437 134 94 94 0
-17.7319 28.7969 -30.1363 -0.297 -0.853 0.429 130 85 86 0
-17.3700 28.7761 -30.0891 -0.323 -0.868 0.377 124 76 79 0
-15.6370 27.4983 -29.7877 -0.406 -0.899 0.164 123 74 76 0
-15.0316 27.2467 -29.6949 -0.401 -0.908 0.120 121 69 73 0
-9.8891 25.1423 -28.9088 0.747 -0.660 0.081 121 51 59 0
-9.7470 25.3041 -28.9012 0.747 -0.660 0.081 129 58 64 0
-9.6466 25.5057 -28.9014 0.747 -0.661 0.068 133 61 65 0
-9.1705 25.9445 -28.8693 0.325 -0.858 0.398 121 46 53 0
-7.4575 24.8780 -28.5840 0.588 -0.716 0.376 119 44 51 0
-0.0583 27.8198 -27.8358 0.539 -0.721 0.435 123 43 46 0
0.3138 28.0303 -27.8022 0.341 -0.829 0.444 116 37 40 0
3.7868 30.0626 -27.4928 0.336 -0.792 0.509 128 51 40 0
3.5894 32.9432 -27.7025 0.540 -0.045 0.840 129 62 42 0
4.9832 34.9479 -27.6546 0.413 -0.370 0.832 139 76 47 0
5.0914 35.1561 -27.6543 0.416 -0.359 0.836 138 73 46 0
5.0540 35.5535 -27.6845 0.307 -0.269 0.913 136 70 46 0
9.4159 38.9954 -27.3529 0.460 -0.886 -0.053 87 28 28 0
9.6829 38.9849 -27.3185 0.439 -0.883 -0.163 85 27 26 0
9.6301 39.4342 -27.3540 0.435 -0.827 -0.357 84 29 27 0
7.0889 51.7092 -28.4630 0.894 -0.270 0.359 88 59 55 0
28.8900 61.0516 -26.3018 0.442 -0.521 0.730 204 195 177 0
28.8828 61.6391 -26.3404 0.732 -0.485 0.478 204 194 177 0
29.2443 61.3069 -26.2733 0.855 -0.468 -0.223 205 193 177 0
29.4594 61.3390 -26.2481 0.856 -0.493 -0.155 205 193 177 0
43.0303 64.7578 -24.7490 0.839 0.229 0.493 184 171 154 0
40.9079 75.6563 -25.7168 0.921 -0.195 -0.337 186 170 152 0
41.0158 76.0610 -25.7291 0.924 -0.186 -0.334 186 169 150 0
44.4090 73.5190 -25.1364 -0.049 -0.998 -0.027 246 246 245 0
-38.6272 1.4452 -31.2459 -0.219 -0.975 0.033 255 255 255 0
-34.3803 7.4281 -31.0954 0.253 -0.919 -0.303 228 216 194 0
-25.8154 31.2600 -31.5634 -0.255 -0.967 0.006 231 224 206 0
-25.2004 31.0462 -31.4708 -0.233 -0.972 0.009 231 224 206 0
-24.6252 30.8642 -31.3854 -0.178 -0.983 -0.046 230 223 206 0
-24.8351 31.3635 -31.4449 0.109 -0.311 0.944 230 223 207 0
-17.7950 25.8261 -30.1822 0.435 -0.878 0.200 230 221 206 0
-20.6183 30.7941 -30.8687 0.993 -0.115 -0.029 139 106 102 0
-19.1022 29.7371 -30.6057 0.783 -0.441 0.438 133 92 91 0
-17.5338 28.6238 -30.3323 -0.301 -0.854 0.425 128 83 84 0
-16.7198 28.4974 -30.2199 -0.389 -0.905 0.171 121 71 74 0
-14.8902 27.1240 -29.8961 -0.383 -0.921 0.067 118 67 71 0
-14.0516 27.2594 -29.7978 0.093 -0.821 -0.563 119 61 67 0
-14.0042 27.5197 -29.8088 -0.158 -0.882 -0.443 118 57 65 0
-13.1380 27.0143 -29.6650 -0.194 -0.924 -0.328 117 53 62 0
-10.0488 25.3023 -29.1579 0.338 -0.941 0.003 122 53 60 0
-9.8218 25.3837 -29.1343 0.338 -0.941 0.003 142 70 75 0
-7.4856 24.9145 -28.8050 0.562 -0.733 0.383 119 42 50 0
-7.3191 25.0487 -28.7925 0.562 -0.733 0.383 120 43 51 0
1.6771 27.7632 -27.8208 0.727 -0.607 0.321 115 36 41 0
1.8561 28.1867 -27.8257 0.405 -0.754 0.517 126 47 49 0
3.8584 29.9943 -27.6883 0.465 -0.785 0.410 126 47 39 0
4.0022 30.1460 -27.6799 0.422 -0.796 0.433 121 43 34 0
5.2380 34.9886 -27.8395 0.298 -0.268 0.916 133 66 44 0
9.7545 40.0345 -27.5931 0.653 -0.624 -0.428 84 29 30 0
8.0564 46.0693 -28.2058 0.194 -0.680 -0.707 76 34 35 0
11.3108 66.9217 -29.1571 0.407 -0.892 -0.197 220 212 196 0
11.4076 67.2671 -29.1674 0.268 -0.962 -0.050 218 210 195 0
28.7184 61.5494 -26.5803 0.173 -0.662 0.729 205 194 178 0
28.8302 61.8428 -26.5853 0.422 -0.627 0.654 205 193 177 0
29.2034 61.4825 -26.5140 0.858 -0.482 0.176 205 193 177 0
29.4189 61.5143 -26.4885 0.772 -0.623 0.130 205 192 176 0
30.8731 68.5747 -26.7656 0.009 -0.981 -0.195 200 187 171 0
32.2536 68.5715 -26.5890 -0.008 -0.927 -0.376 200 184 169 0
43.2093 71.0552 -25.3517 0.505 0.066 0.861 185 166 148 0
44.2250 67.9142 -25.0160 0.726 -0.682 -0.084 184 165 146 0
44.4400 73.5304 -25.3568 -0.043 -0.998 -0.039 246 246 246 0
-38.6354 1.4397 -31.4649 -0.219 -0.975 0.033 255 255 255 0
-34.0898 0.8676 -30.8403 0.930 0.001 -0.367 237 220 205 0
-37.2461 6.9106 -31.6522 -0.280 -0.697 0.660 228 215 199 0
-27.3816 9.4151 -30.5478 0.743 0.147 0.653 235 226 211 0
-20.6554 30.8346 -31.1153 0.994 -0.109 -0.030 137 102 98 0
-14.3117 27.2046 -30.0540 0.954 -0.274 0.122 119 62 67 0
-13.8878 27.1149 -29.9933 0.920 -0.340 0.198 118 61 66 0
-13.5384 27.0931 -29.9468 0.879 -0.056 0.474 118 57 64 0
-13.5447 27.4030 -29.9684 -0.256 -0.966 0.040 117 53 62 0
-10.0318 25.2944 -29.3740 0.353 -0.934 0.061 121 51 56 0
-7.7032 25.1356 -29.0631 0.643 -0.757 0.111 122 44 51 0
-0.8810 26.5850 -28.2803 0.096 -0.767 0.634 131 39 44 0
0.0292 27.4402 -28.2202 0.520 -0.685 0.510 127 42 49 0
1.6791 27.7758 -28.0299 0.657 -0.710 0.254 121 42 47 0
1.9319 28.1153 -28.0201 0.419 -0.809 0.412 122 43 45 0
2.4071 28.2005 -27.9645 0.327 -0.698 0.637 125 46 47 0
2.6967 28.1822 -27.9259 0.327 -0.830 0.452 129 50 50 0
2.8133 28.3630 -27.9230 0.322 -0.822 0.470 135 55 56 0
3.0064 28.4552 -27.9043 0.422 -0.692 0.586 136 55 54 0
3.2208 28.5224 -27.8811 0.394 -0.688 0.610 130 49 48 0
3.7088 29.5445 -27.8867 0.317 -0.632 0.707 122 44 40 0
4.0765 30.0744 -27.8748 0.780 -0.551 0.299 117 41 34 0
7.9152 46.3138 -28.4676 0.195 -0.688 -0.699 74 33 34 0
7.7075 51.6752 -28.8536 0.690 -0.401 0.603 101 74 68 0
11.2342 67.1215 -29.4336 0.361 -0.902 -0.238 220 211 196 0
12.4238 68.0365 -29.3415 0.525 -0.837 -0.156 219 208 194 0
28.9802 61.5413 -26.7711 0.883 -0.466 -0.056 206 194 179 0
29.3288 61.2408 -26.7060 0.868 -0.477 0.134 206 194 178 0
30.4482 59.5575 -26.4489 0.522 -0.631 0.573 206 193 177 0
30.0386 74.9588 -27.5335 0.760 -0.354 -0.546 201 185 170 0
30.5018 74.3199 -27.4310 0.683 -0.414 -0.602 200 184 169 0
38.4665 58.0326 -25.3126 0.211 -0.916 -0.341 197 181 166 0
43.1537 71.3970 -25.6035 0.420 -0.077 0.904 185 166 149 0
44.2661 67.8795 -25.2243 0.761 -0.642 -0.095 184 165 148 0
-38.3513 1.2863 -31.6359 -0.195 -0.980 0.039 255 255 255 0
-37.5878 6.8560 -31.9176 -0.227 -0.517 0.825 230 217 202 0
-21.4594 32.5306 -31.5754 -0.256 -0.939 -0.228 121 73 76 0
-14.8045 27.6686 -30.3766 0.595 -0.054 0.802 119 63 66 0
-14.3369 27.5400 -30.3070 0.694 -0.018 0.720 118 62 65 0
-13.2685 26.8491 -30.1206 0.607 -0.165 0.777 118 59 63 0
-13.5304 27.3976 -30.1922 -0.234 -0.956 0.178 117 54 62 0
-10.0820 25.3504 -29.6034 0.320 -0.947 0.004 120 49 55 0
-7.6635 25.1060 -29.2719 0.596 -0.796 0.107 125 46 52 0
-7.5579 25.3007 -29.2715 0.521 -0.833 0.185 126 47 54 0
-3.2268 25.7370 -28.7377 0.321 -0.818 0.477 128 47 52 0
-1.8399 25.4940 -28.5405 0.217 -0.949 0.228 125 38 47 0
1.2153 27.3777 -28.2718 0.601 -0.749 0.278 127 49 54 0
1.4173 27.4621 -28.2513 0.612 -0.747 0.258 128 49 54 0
1.6357 27.5276 -28.2274 0.673 -0.643 0.366 127 48 54 0
1.8488 27.5986 -28.2045 0.746 -0.505 0.434 126 47 53 0
1.8868 27.8682 -28.2180 0.704 -0.628 0.331 124 45 51 0
2.7879 28.0927 -28.1161 0.334 -0.867 0.370 133 54 56 0
4.1831 29.9639 -28.0625 0.770 -0.522 0.367 111 39 35 0
4.4671 30.9256 -28.0914 0.866 -0.393 0.310 110 38 32 0
4.5315 31.1761 -28.1001 0.806 -0.490 0.333 115 41 35 0
10.3540 35.9185 -27.6669 0.801 -0.567 0.192 88 25 27 0
10.4776 36.1039 -27.6635 0.693 -0.673 0.259 88 26 30 0
10.6238 36.2576 -27.6550 0.693 -0.673 0.259 87 27 31 0
10.4722 39.0476 -27.8656 0.877 -0.381 -0.293 81 29 32 0
9.0531 42.2669 -28.2706 0.055 -0.919 -0.391 77 28 30 0
8.2850 46.1945 -28.6393 0.051 -0.785 -0.617 72 32 32 0
7.6446 51.3773 -29.0773 0.721 -0.344 0.601 88 62 57 0
22.1741 45.4808 -26.7829 -0.044 -0.922 -0.384 220 211 196 0
10.7420 70.2756 -29.9673 0.358 -0.770 -0.528 218 209 195 0
30.3928 59.7708 -26.6911 0.446 -0.638 0.628 205 192 176 0
27.1532 76.2850 -28.2427 0.961 0.274 0.034 202 189 175 0
30.2359 81.5796 -28.2037 0.572 0.081 0.816 195 179 164 0
38.4137 58.2806 -25.5452 0.257 -0.935 -0.246 197 181 166 0
38.7741 66.2960 -26.0468 0.669 0.027 0.742 192 176 158 0
44.2844 67.9335 -25.4417 0.761 -0.642 -0.095 182 163 147 0
-29.3522 9.6811 -31.2586 0.583 0.196 0.789 232 220 204 0
-18.3549 29.0808 -31.1697 0.685 -0.554 0.472 131 88 88 0
-10.0882 25.3645 -29.8245 0.330 -0.944 0.016 119 48 54 0
-7.6409 25.0932 -29.4841 0.591 -0.798 0.119 126 47 54 0
-7.5230 25.2759 -29.4814 0.521 -0.833 0.185 128 49 55 0
-6.1750 24.8429 -29.2741 0.324 -0.946 -0.032 128 52 57 0
-3.4705 25.3982 -28.9578 0.015 -0.805 0.593 127 45 47 0
-3.3712 25.5965 -28.9586 0.377 -0.799 0.468 129 45 50 0
-3.0290 25.5433 -28.9099 0.342 -0.871 0.353 128 44 49 0
-1.4001 25.0432 -28.6611 0.441 -0.863 0.245 124 37 45 0
1.4552 27.4341 -28.4532 0.612 -0.745 0.264 137 59 64 0
1.7004 27.4694 -28.4234 0.680 -0.636 0.365 130 51 56 0
2.5990 28.0111 -28.3433 0.357 -0.888 0.289 129 48 53 0
2.9399 28.2481 -28.3150 0.665 -0.740 0.097 122 46 47 0
3.1200 28.3552 -28.2989 0.663 -0.742 0.106 121 45 47 0
4.2367 29.5938 -28.2388 0.834 -0.424 0.354 110 38 38 0
4.2518 29.8989 -28.2581 0.816 -0.389 0.427 109 37 37 0
4.4590 30.9539 -28.3046 0.815 -0.578 -0.042 110 39 36 0
4.5170 31.2125 -28.3150 0.811 -0.571 -0.126 110 36 34 0
4.8424 32.8127 -28.3841 0.497 -0.285 0.820 125 54 39 0
4.8690 33.1178 -28.4019 0.491 -0.291 0.821 129 60 46 0
5.0094 33.2804 -28.3948 0.486 -0.298 0.822 134 65 52 0
10.3876 35.8968 -27.8713 0.801 -0.567 0.192 85 23 28 0
10.5330 36.0516 -27.8630 0.641 -0.708 0.298 86 24 29 0
10.6534 36.2417 -27.8605 0.633 -0.724 0.275 86 26 31 0
9.4826 39.0089 -28.2076 0.154 -0.988 -0.028 83 27 30 0
9.4098 40.2412 -28.3032 0.759 -0.382 -0.527 80 30 31 0
9.0054 42.3667 -28.5048 -0.126 -0.914 -0.386 76 25 30 0
9.9105 41.8057 -28.3468 0.200 -0.812 -0.548 75 27 32 0
10.0779 69.9732 -30.2925 0.416 -0.855 -0.310 218 209 194 0
10.4212 69.8592 -30.2394 0.172 -0.965 -0.196 218 209 194 0
9.1058 74.0646 -30.7059 0.263 -0.825 -0.500 217 207 195 0
23.6144 54.7783 -27.4534 0.882 -0.468 -0.059 216 204 188 0
19.2776 70.1070 -29.0937 0.345 0.084 0.935 213 200 184 0
29.6169 61.2354 -27.1162 0.678 -0.290 0.675 208 195 179 0
30.2206 81.7305 -28.4686 0.654 0.181 0.734 196 180 165 0
38.3899 58.4411 -25.7689 0.210 -0.940 -0.268 196 180 166 0
39.0168 58.3904 -25.6830 0.270 -0.912 -0.308 194 178 165 0
44.1195 67.9188 -25.6786 -0.009 -0.888 0.460 181 165 145 0
-19.0674 26.9648 -31.3478 0.899 -0.423 -0.114 228 220 204 0
-18.3577 29.0903 -31.4053 0.720 -0.562 0.407 130 85 85 0
-21.4076 32.4983 -32.0523 -0.281 -0.942 -0.182 122 74 77 0
-13.5093 27.0893 -30.6202 0.995 0.039 0.095 118 60 63 0
-12.6216 26.5625 -30.4650 0.900 -0.216 0.377 117 56 61 0
-12.1313 26.7063 -30.4103 -0.411 -0.911 0.042 116 51 57 0
-8.0709 24.9255 -29.7454 0.098 -0.935 0.340 158 78 84 0
-7.8318 24.9907 -29.7184 0.576 -0.805 0.139 145 65 73 0
-7.6172 25.0792 -29.6962 0.591 -0.798 0.119 128 48 57 0
-7.4767 25.2399 -29.6891 0.510 -0.839 0.187 125 45 52 0
-5.2588 25.1310 -29.3874 0.321 -0.946 -0.044 137 60 62 0
1.5279 27.3669 -28.6476 0.575 -0.780 0.247 132 54 59 0
3.0876 28.0928 -28.4927 0.746 -0.580 0.326 123 46 51 0
5.0906 31.8514 -28.4952 0.849 -0.352 0.393 110 37 30 0
5.0910 32.8587 -28.5670 0.577 -0.262 0.774 125 53 42 0
5.2280 33.0248 -28.5607 0.587 -0.290 0.755 129 57 46 0
6.4098 33.5621 -28.4424 0.615 -0.347 0.708 111 38 28 0
6.6702 33.5681 -28.4083 0.607 -0.640 0.471 110 37 29 0
6.8309 33.7031 -28.3967 0.658 -0.686 0.310 110 37 29 0
8.8250 34.5296 -28.1914 0.595 -0.656 0.465 107 29 33 0
8.9868 34.6611 -28.1793 0.587 -0.658 0.472 108 29 34 0
10.2235 35.7938 -28.0962 0.633 -0.774 0.021 88 23 30 0
10.4390 35.8503 -28.0717 0.665 -0.697 0.269 87 25 31 0
10.5345 36.0752 -28.0750 0.661 -0.700 0.272 86 24 30 0
10.6859 36.2218 -28.0654 0.661 -0.700 0.272 84 24 30 0
9.4756 39.0464 -28.4272 0.162 -0.986 -0.034 81 25 28 0
9.2107 39.8013 -28.5161 0.528 -0.506 -0.682 82 27 30 0
9.3727 39.9448 -28.5048 0.743 -0.402 -0.535 81 28 30 0
9.9956 39.7971 -28.4118 0.860 -0.322 -0.396 77 27 30 0
9.9342 40.2653 -28.4533 0.158 -0.902 0.402 77 27 31 0
10.8996 39.2306 -28.2516 0.877 -0.054 0.477 76 23 30 0
7.2346 57.0317 -30.0063 0.816 -0.071 0.574 219 208 187 0
10.2091 70.3228 -30.5597 0.303 -0.860 -0.410 217 209 193 0
10.7695 70.3362 -30.4864 0.367 -0.770 -0.522 217 206 193 0
38.7686 58.6189 -25.9412 0.170 -0.981 -0.097 195 179 166 0
35.4813 85.2006 -28.2718 0.970 0.143 -0.194 188 173 156 0
35.7499 85.0939 -28.2286 0.978 -0.010 -0.208 191 174 156 0
44.7149 67.2847 -25.7711 0.377 -0.505 0.776 184 165 149 0
-37.9854 1.0723 -32.2262 -0.250 -0.968 0.039 255 255 255 0
-32.1433 11.4258 -32.1982 0.372 -0.915 0.156 232 220 204 0
-12.7827 25.2223 -30.6135 0.629 -0.096 0.772 119 67 71 0
-12.3201 26.2880 -30.6292 0.844 -0.339 0.416 117 56 61 0
-8.1696 24.7331 -29.9613 0.373 -0.892 0.257 144 64 70 0
-7.9840 24.8502 -29.9450 0.404 -0.883 0.238 147 66 73 0
-7.8049 24.9735 -29.9300 0.576 -0.805 0.139 133 52 61 0
-7.5934 25.0651 -29.9084 0.591 -0.798 0.119 126 45 55 0
-7.4657 25.2384 -29.9039 0.494 -0.845 0.205 125 44 52 0
-6.9225 25.3021 -29.8359 0.382 -0.794 0.473 130 49 56 0
-6.1273 24.8150 -29.6942 0.385 -0.900 -0.204 134 54 60 0
-5.8466 24.8340 -29.6581 0.361 -0.932 0.033 129 50 56 0
-0.4221 26.4469 -29.0502 0.459 -0.448 0.767 129 40 48 0
2.3429 29.6115 -28.9107 0.736 -0.657 0.166 121 46 51 0
2.3563 29.9179 -28.9312 0.976 -0.211 0.061 119 44 49 0
4.5966 30.1683 -28.6500 0.664 -0.610 0.432 114 45 44 0
4.6846 30.3878 -28.6542 0.654 -0.592 0.470 112 44 44 0
4.7201 30.6721 -28.6701 0.701 -0.480 0.527 111 41 43 0
4.7969 30.9069 -28.6769 0.690 -0.539 0.484 108 35 39 0
4.7473 31.2979 -28.7120 0.718 -0.682 0.140 105 30 33 0
5.1592 31.4526 -28.6682 0.897 -0.437 -0.057 103 29 26 0
5.2851 32.6346 -28.7373 0.602 -0.297 0.742 122 49 40 0
5.3928 32.8370 -28.7376 0.599 -0.296 0.744 127 54 45 0
6.5831 33.3596 -28.6165 0.650 -0.624 0.433 113 40 31 0
6.7408 33.4982 -28.6055 0.629 -0.625 0.462 110 37 30 0
6.8856 33.6536 -28.5975 0.667 -0.675 0.316 108 35 29 0
7.0312 33.8081 -28.5892 0.658 -0.686 0.310 109 36 30 0
7.9697 36.0652 -28.6279 -0.013 -0.965 0.263 105 29 32 0
7.7999 36.6542 -28.6934 -0.076 -0.997 -0.012 104 28 33 0
10.2993 35.7132 -28.2909 0.637 -0.771 0.004 90 24 33 0
10.4602 35.8460 -28.2790 0.637 -0.771 0.004 88 25 33 0
10.6017 36.0062 -28.2718 0.586 -0.810 -0.001 85 24 31 0
9.2819 39.7266 -28.7188 0.614 -0.776 -0.145 79 24 29 0
9.4518 39.8587 -28.7057 0.614 -0.776 -0.145 78 24 28 0
9.4684 40.2127 -28.7292 0.641 -0.761 -0.100 76 24 27 0
9.7393 40.1985 -28.6919 0.615 -0.760 -0.210 76 26 30 0
8.6862 68.4038 -30.8839 0.977 -0.207 -0.058 219 210 195 0
25.0101 39.8428 -26.6247 0.130 -0.928 -0.349 221 212 197 0
43.5960 66.3288 -26.0664 -0.366 -0.930 -0.000 185 169 152 0
44.1280 67.3589 -26.0702 0.196 -0.457 0.868 183 168 148 0
-37.9276 1.0335 -32.4335 -0.265 -0.964 0.029 255 255 255 0
-30.1258 10.6468 -32.0943 0.092 -0.925 0.368 232 222 208 0
-20.1551 28.5453 -32.0770 0.446 -0.842 0.303 227 216 199 0
-19.9419 28.6653 -32.0571 0.446 -0.842 0.303 226 211 196 0
-19.7289 28.7852 -32.0373 0.446 -0.842 0.303 192 170 157 0
-13.0801 26.4023 -30.9640 0.911 -0.058 0.409 116 59 65 0
-10.8059 25.7712 -30.6104 0.723 -0.528 -0.445 117 51 55 0
-8.3849 24.6531 -30.2011 0.399 -0.916 -0.032 127 48 54 0
-8.1361 24.7096 -30.1717 0.406 -0.914 -0.024 130 49 56 0
-7.9527 24.8288 -30.1558 0.576 -0.805 0.139 129 47 55 0
-7.7779 24.9563 -30.1417 0.576 -0.805 0.139 125 42 51 0
-7.5448 25.0269 -30.1155 0.560 -0.813 0.158 125 42 52 0
-7.4273 25.2100 -30.1132 0.494 -0.845 0.205 124 41 51 0
-6.1559 24.8529 -29.9153 0.385 -0.900 -0.204 129 48 56 0
3.7468 27.0486 -28.7426 0.294 -0.893 0.341 123 49 53 0
3.8407 27.2521 -28.7451 0.409 -0.738 0.537 123 49 53 0
4.0601 27.3101 -28.7198 0.366 -0.688 0.626 122 47 52 0
2.2600 29.7246 -29.1416 0.742 -0.583 0.332 122 47 52 0
2.2728 30.0324 -29.1627 0.948 -0.232 0.218 122 47 53 0
4.4436 30.0456 -28.8709 0.632 -0.602 0.488 112 43 42 0
4.6752 30.0911 -28.8431 0.664 -0.599 0.447 109 41 41 0
5.0110 30.3354 -28.8159 0.686 -0.532 0.497 106 37 40 0
5.0637 30.5985 -28.8283 0.852 -0.511 -0.115 104 33 38 0
5.3095 31.6178 -28.8708 0.878 -0.478 0.015 103 29 28 0
5.2605 32.0129 -28.9067 0.748 -0.337 0.572 103 30 26 0
5.3297 32.2617 -28.9158 0.555 -0.354 0.753 108 34 28 0
5.4474 32.4505 -28.9139 0.555 -0.354 0.753 120 46 39 0
6.8944 33.6638 -28.8087 0.683 -0.672 0.285 108 34 31 0
7.0811 33.7648 -28.7911 0.658 -0.686 0.310 105 32 28 0
9.9461 35.5161 -28.5346 0.206 -0.921 -0.331 90 24 28 0
10.6309 35.9908 -28.4774 0.602 -0.797 0.054 89 27 34 0
9.2451 39.0575 -28.8917 0.936 -0.352 0.001 78 18 26 0
9.1429 39.5780 -28.9441 0.427 -0.619 0.659 77 18 27 0
9.2269 39.8336 -28.9517 0.374 -0.643 0.668 76 19 28 0
9.4266 39.9230 -28.9314 0.387 -0.643 0.661 76 21 29 0
9.6081 40.0384 -28.9155 0.408 -0.650 0.641 75 21 29 0
9.9724 39.8876 -28.8552 -0.101 -0.854 0.510 74 23 30 0
10.1100 40.0659 -28.8499 0.063 -0.834 0.548 72 22 30 0
20.3456 45.5776 -27.8783 0.332 -0.905 -0.264 220 211 196 0
8.6064 68.0744 -31.1297 0.883 -0.425 -0.200 220 211 196 0
9.0560 68.3018 -31.0860 0.789 -0.533 0.305 219 210 195 0
30.2347 47.8297 -26.7117 0.268 -0.920 0.285 213 199 186 0
31.0233 46.5187 -26.5081 0.286 -0.914 0.288 213 199 186 0
28.7341 81.2996 -29.3961 0.972 -0.221 -0.078 196 184 168 0
29.0244 81.1808 -29.3482 0.844 -0.457 0.281 195 183 167 0
39.2309 56.7614 -26.1608 -0.126 -0.984 -0.122 195 179 166 0
44.2487 67.7929 -26.3022 0.400 -0.646 0.650 184 168 152 0
44.5643 68.1286 -26.2846 0.231 -0.715 0.660 182 164 150 0
43.6802 72.4144 -26.7216 0.958 -0.225 0.176 181 162 150 0
-37.9402 1.0302 -32.6529 -0.265 -0.964 0.029 255 255 255 0
-36.5363 5.9944 -32.8372 -0.262 -0.957 0.125 227 213 200 0
-19.6996 28.7654 -32.2682 0.404 -0.881 0.247 184 161 150 0
-8.5017 24.7739 -30.4431 0.081 -0.986 0.142 125 46 52 0
-8.1009 24.6844 -30.3818 0.407 -0.873 0.268 126 46 53 0
-7.8983 24.7850 -30.3618 0.407 -0.873 0.268 126 43 51 0
-7.6669 24.8575 -30.3358 0.136 -0.850 0.509 126 43 52 0
-6.8917 24.9925 -30.2406 0.542 -0.795 0.272 126 43 53 0
-6.0746 24.7821 -30.1135 0.402 -0.908 0.122 128 47 56 0
-4.2643 24.7563 -29.8653 0.253 -0.665 0.703 127 48 54 0
3.4777 27.0627 -28.9865 0.519 -0.828 0.212 122 51 56 0
3.7464 27.0646 -28.9500 0.489 -0.856 0.170 124 52 57 0
3.8444 27.2635 -28.9518 0.435 -0.884 0.173 121 49 53 0
2.4283 29.5446 -29.3168 0.709 -0.613 0.349 116 41 47 0
4.2382 28.6975 -29.0066 0.592 -0.415 0.690 116 41 48 0
5.2300 30.0863 -28.9766 0.810 -0.484 0.332 106 37 42 0
6.0516 31.7102 -28.9876 0.900 -0.307 0.310 115 42 36 0
6.4482 32.5534 -28.9974 0.651 -0.445 0.615 109 34 30 0
6.9644 33.5944 -29.0059 0.691 -0.674 0.262 106 32 32 0
7.1337 33.7180 -28.9922 0.671 -0.683 0.289 103 29 29 0
9.4545 38.7858 -29.0596 0.970 -0.186 -0.159 79 18 26 0
9.4880 39.1108 -29.0796 0.938 -0.267 -0.221 80 19 29 0
9.3409 39.6974 -29.1440 0.400 -0.655 0.641 78 19 28 0
9.5372 39.7913 -29.1244 0.387 -0.643 0.661 75 19 27 0
9.7013 39.9316 -29.1126 0.416 -0.648 0.638 73 19 26 0
10.0719 39.7712 -29.0501 -0.090 -0.855 0.511 73 22 28 0
10.3000 39.8167 -29.0225 0.418 -0.886 0.198 75 24 31 0
8.9377 50.8081 -30.0387 0.758 -0.381 0.530 105 84 79 0
9.2289 68.0336 -31.3013 0.823 -0.491 0.285 219 209 196 0
11.7841 64.8275 -30.7113 0.662 -0.670 0.335 218 208 195 0
30.2469 47.3770 -26.8805 0.895 -0.439 -0.079 212 198 186 0
30.8421 46.5092 -26.7339 0.214 -0.937 0.275 212 198 185 0
31.0332 46.5530 -26.7112 0.215 -0.935 0.280 212 198 185 0
31.7894 45.7783 -26.5498 -0.114 -0.573 0.811 210 197 183 0
28.8371 81.8285 -29.6766 0.874 -0.384 0.299 196 184 169 0
43.8893 66.2187 -26.4490 0.269 -0.945 0.188 182 170 150 0
43.9442 67.5396 -26.5413 0.038 -0.716 0.697 182 170 151 0
44.9056 74.2900 -26.9209 -0.132 -0.968 -0.216 254 255 255 0
-47.4981 10.2892 -34.8958 0.403 -0.716 -0.570 235 222 208 0
-47.5561 10.5742 -34.9258 0.349 -0.740 -0.576 233 221 206 0
-24.8605 30.1643 -33.3206 0.144 -0.027 0.989 234 225 208 0
-10.6071 25.5994 -31.0131 0.785 -0.600 0.151 117 50 57 0
-8.0798 24.6728 -30.5949 0.156 -0.953 0.261 123 42 51 0
-7.5864 24.4920 -30.5133 0.144 -0.745 0.651 127 45 54 0
-0.9673 25.8519 -29.7098 0.725 -0.519 0.453 130 37 48 0
2.6067 29.6744 -29.5138 0.680 -0.628 0.379 116 41 50 0
3.0459 29.4809 -29.4386 0.483 -0.716 0.504 116 41 50 0
4.3631 28.5664 -29.1874 0.598 -0.417 0.684 115 40 49 0
6.5147 32.4892 -29.1944 0.663 -0.440 0.606 110 35 31 0
9.7250 39.1723 -29.2687 0.690 -0.723 -0.019 77 18 24 0
9.5831 39.7530 -29.3329 0.451 -0.443 0.775 75 17 24 0
10.0416 39.4660 -29.2479 -0.067 -0.885 0.462 74 19 25 0
10.2126 39.5946 -29.2343 -0.075 -0.845 0.530 71 20 24 0
9.8793 42.0016 -29.4655 0.185 -0.964 -0.194 69 22 28 0
9.3879 50.1263 -30.1587 0.743 -0.072 0.665 101 79 74 0
7.4901 56.3126 -30.8957 0.945 0.119 0.305 215 207 188 0
9.3218 66.3377 -31.4166 0.378 -0.743 -0.552 217 209 195 0
10.1792 66.8441 -31.3380 0.151 -0.924 0.352 219 209 197 0
11.5016 64.8919 -31.0061 0.467 -0.884 -0.032 217 207 195 0
30.5820 46.6767 -26.9848 0.644 -0.716 0.272 212 198 186 0
30.8497 46.5486 -26.9382 0.247 -0.956 0.155 212 198 186 0
31.0806 46.5020 -26.9029 0.222 -0.929 0.295 211 197 186 0
31.5542 45.8978 -26.7914 -0.166 -0.551 0.818 211 197 185 0
31.8606 45.6717 -26.7319 -0.134 -0.568 0.812 211 197 184 0
39.6329 56.3190 -26.4856 -0.167 -0.972 -0.164 195 179 166 0
41.4629 54.2804 -26.0774 0.399 -0.722 -0.565 194 178 165 0
42.6156 68.8344 -27.0404 -0.205 -0.973 0.103 183 171 149 0
42.9358 68.4050 -26.9634 -0.208 -0.971 0.122 183 171 148 0
43.2617 71.8787 -27.1862 1.000 0.007 -0.001 182 168 152 0
43.4764 71.8503 -27.1546 0.924 -0.323 0.204 181 165 152 0
45.0909 73.6596 -27.0724 -0.170 -0.973 -0.157 254 255 255 0
-22.2567 -0.2902 -30.8152 -0.438 -0.616 0.654 233 220 204 0
-22.1823 29.1032 -33.1114 0.536 -0.783 -0.317 232 224 204 0
-6.4718 25.1943 -30.6303 0.215 -0.750 0.625 128 49 55 0
2.4367 29.8902 -29.7659 0.964 -0.022 -0.266 116 40 50 0
6.6443 32.3441 -29.3761 0.666 -0.429 0.610 112 37 34 0
9.2761 34.0369 -29.1447 0.536 -0.827 -0.169 103 27 31 0
9.4523 34.1475 -29.1290 0.508 -0.843 -0.180 103 27 31 0
9.8478 42.0786 -29.6966 0.212 -0.958 -0.194 66 19 25 0
10.6553 42.4342 -29.6127 0.925 -0.152 -0.348 69 25 28 0
9.2744 49.0595 -30.3237 0.510 -0.038 0.859 84 56 53 0
7.4879 56.3564 -31.1436 0.947 0.119 0.297 215 207 188 0
8.1183 65.9850 -31.8119 0.746 -0.519 0.417 219 212 196 0
9.2733 66.4783 -31.6908 0.511 -0.661 -0.550 217 209 196 0
9.3693 67.8786 -31.7874 0.625 -0.583 -0.519 219 209 197 0
10.1559 67.4692 -31.6464 0.305 -0.575 -0.759 217 207 195 0
10.4143 67.5140 -31.6141 0.296 -0.577 -0.761 217 207 195 0
30.1271 46.3266 -27.2232 0.622 -0.742 -0.249 214 202 188 0
30.3683 46.2615 -27.1847 0.526 -0.826 -0.203 213 200 186 0
31.0543 45.1938 -27.0060 0.303 -0.953 0.008 212 199 185 0
31.2409 45.2439 -26.9841 0.304 -0.953 0.008 212 198 185 0
31.6067 44.8862 -26.9054 0.693 -0.693 -0.198 212 198 185 0
31.6209 45.3265 -26.9380 0.857 -0.359 0.370 211 197 186 0
32.8775 66.3120 -28.4108 0.688 -0.097 -0.719 199 187 173 0
41.6582 50.1680 -25.9288 0.885 -0.180 -0.430 193 179 166 0
41.3356 51.7511 -26.0976 0.922 -0.238 -0.305 193 180 165 0
35.0116 84.9761 -29.5801 0.566 -0.270 -0.779 188 175 159 0
44.3567 53.5861 -25.8235 0.608 -0.762 -0.222 187 174 158 0
42.9111 68.6191 -27.2032 0.874 -0.066 0.481 183 170 151 0
43.3050 71.0369 -27.3384 0.995 -0.031 0.094 182 170 150 0
45.0545 73.9530 -27.3251 -0.160 -0.969 -0.188 254 255 254 0
-38.5685 1.3189 -33.4187 -0.247 -0.969 0.027 255 255 255 0
-27.2555 1.9038 -31.8863 -0.372 -0.485 0.791 228 215 201 0
-26.9406 1.9449 -31.8456 -0.438 -0.617 0.654 227 214 201 0
-23.8568 6.8945 -31.8107 0.340 0.194 0.920 234 221 207 0
-26.5622 30.9985 -34.1145 0.626 -0.529 0.573 236 227 211 0
-26.5172 31.2783 -34.1306 0.610 -0.414 0.676 235 226 209 0
-21.1202 27.2656 -33.0566 0.068 -0.995 -0.072 233 224 206 0
-19.5228 26.1884 -32.7476 -0.068 -0.965 -0.254 232 224 205 0
-7.2588 24.4880 -30.8998 0.098 -0.973 0.208 127 46 56 0
7.0511 32.8611 -29.5714 0.935 -0.127 0.332 102 27 30 0
9.6341 34.2743 -29.3238 0.905 -0.365 -0.219 103 27 32 0
11.5486 36.9668 -29.2717 0.114 -0.993 0.008 76 18 25 0
11.8806 36.8525 -29.2163 0.181 -0.981 0.072 75 19 25 0
9.7279 48.8029 -30.4717 0.758 -0.040 0.651 91 65 63 0
9.8057 49.1047 -30.4850 0.727 -0.041 0.685 98 74 70 0
7.5447 56.3035 -31.3759 0.948 0.115 0.297 215 207 188 0
9.7357 56.3460 -31.0734 -0.033 -0.940 0.341 220 211 196 0
11.2356 54.2561 -30.6971 -0.448 -0.762 0.468 220 211 196 0
7.9378 65.8438 -32.0834 0.682 -0.561 0.468 219 212 196 0
8.0449 66.1670 -32.0942 0.738 -0.568 0.364 219 212 196 0
8.4573 65.9398 -32.0185 0.805 -0.488 0.339 217 210 196 0
8.7700 66.4088 -32.0123 0.694 -0.642 0.325 217 209 196 0
9.1807 66.7001 -31.9783 0.348 -0.828 -0.439 216 208 195 0
9.5244 66.5903 -31.9215 0.508 -0.739 -0.442 217 209 196 0
9.5000 67.1602 -31.9705 0.452 -0.799 -0.398 218 208 196 0
9.3017 68.0574 -32.0699 0.625 -0.583 -0.519 216 206 194 0
9.6898 67.8648 -32.0003 0.624 -0.526 -0.578 217 207 195 0
17.7681 67.5780 -30.8498 0.107 -0.991 0.076 212 203 189 0
18.4330 67.2791 -30.7331 0.931 -0.277 -0.237 214 202 189 0
30.3740 46.3045 -27.3902 0.397 -0.908 -0.132 213 200 186 0
31.1386 45.0594 -27.1840 0.510 -0.855 -0.091 213 200 185 0
31.3117 45.1397 -27.1662 0.366 -0.930 0.030 212 199 185 0
31.9364 44.1930 -27.0034 0.514 -0.845 0.151 211 197 184 0
32.7799 66.0384 -28.6313 0.631 -0.372 -0.681 197 186 172 0
41.7737 49.8956 -26.0859 0.729 -0.512 -0.454 193 179 165 0
42.0477 50.2125 -26.0730 0.738 -0.552 -0.388 192 178 165 0
43.1194 67.9591 -27.3415 0.883 -0.079 0.462 182 169 152 0
43.2451 69.0276 -27.4094 0.878 -0.080 0.471 183 167 152 0
43.3274 69.4949 -27.4353 0.904 -0.163 0.396 183 167 149 0
43.4225 69.9168 -27.4557 0.908 -0.055 0.415 182 168 150 0
43.4762 70.5029 -27.4950 0.908 -0.055 0.415 180 168 151 0
43.5280 71.1017 -27.5356 0.932 -0.034 0.362 179 168 151 0
43.8552 70.6272 -27.4521 0.956 0.083 0.280 180 168 152 0
45.0397 74.1569 -27.5688 -0.157 -0.959 -0.236 254 255 254 0
-38.5465 1.2980 -33.6338 -0.227 -0.974 0.014 255 255 255 0
-34.2859 0.8820 -33.0002 0.834 -0.244 -0.495 234 223 205 0
-22.2342 29.1596 -33.6041 -0.079 -0.990 -0.114 230 222 203 0
-13.4211 25.5533 -32.0701 -0.215 -0.907 0.362 121 69 71 0
-3.2220 24.3350 -30.5352 0.096 -0.941 0.326 131 49 58 0
4.8510 28.3563 -29.7260 0.624 -0.336 0.706 115 40 51 0
5.4808 29.2041 -29.7063 0.511 -0.778 0.366 119 44 51 0
6.5937 30.7750 -29.6774 0.653 -0.356 0.669 100 27 28 0
6.8083 31.1691 -29.6793 0.510 -0.474 0.718 115 41 45 0
9.2790 49.5498 -30.8268 0.876 -0.076 0.477 91 65 64 0
7.4094 56.5662 -31.6607 0.939 0.202 0.279 214 205 188 0
16.5985 48.1524 -29.6827 -0.389 -0.823 0.414 219 211 197 0
7.9137 65.9366 -32.3521 0.747 -0.558 0.361 219 211 197 0
8.0569 66.1954 -32.3529 0.752 -0.553 0.358 220 211 196 0
8.4978 65.9168 -32.2682 0.548 -0.696 0.464 217 209 197 0
8.4802 66.4668 -32.3154 0.774 -0.491 0.400 217 209 197 0
8.7900 66.4234 -32.2683 0.755 -0.520 0.401 216 208 195 0
8.8223 66.8859 -32.3014 0.338 -0.838 -0.427 216 208 194 0
9.1904 66.7339 -32.2372 0.318 -0.846 -0.429 217 209 194 0
9.5886 67.0484 -32.2067 0.331 -0.755 0.566 216 207 194 0
9.0718 68.5388 -32.4007 0.496 -0.714 -0.494 216 206 194 0
30.9251 45.1247 -27.4197 0.288 -0.952 0.109 211 200 185 0
31.1422 45.1068 -27.3876 0.173 -0.982 -0.072 211 199 185 0
31.3162 45.1851 -27.3695 0.510 -0.855 -0.091 210 199 185 0
31.8518 44.4411 -27.2336 0.833 -0.500 -0.238 209 198 184 0
33.8217 42.7110 -26.8155 0.314 -0.845 0.433 210 196 183 0
31.6693 67.9626 -29.1728 0.743 -0.205 -0.637 201 189 175 0
32.2094 68.3811 -29.1308 0.157 -0.960 -0.233 198 186 172 0
33.0198 68.0211 -28.9874 0.114 -0.937 -0.330 198 186 172 0
35.2409 65.4399 -28.4648 0.040 -0.842 -0.538 196 183 170 0
36.0349 64.3691 -28.2659 0.861 0.110 0.496 197 183 170 0
29.5004 87.8501 -31.0960 0.654 -0.338 0.676 192 179 163 0
41.2511 55.8513 -26.8387 0.757 -0.155 0.635 190 178 164 0
41.2222 56.5749 -26.9016 0.771 -0.043 0.636 188 176 160 0
43.5592 66.4291 -27.3743 -0.203 -0.979 0.008 181 168 152 0
44.2272 65.4178 -27.1980 -0.377 -0.923 0.082 182 166 152 0
44.5279 65.0279 -27.1239 -0.399 -0.915 0.061 182 166 151 0
44.2600 66.8198 -27.3074 0.952 0.116 0.284 181 167 151 0
44.1453 68.0390 -27.4228 0.952 0.116 0.284 180 168 151 0
43.9612 69.5426 -27.5710 0.929 0.119 0.351 180 169 151 0
45.1733 73.7406 -27.7419 -0.161 -0.974 -0.162 254 255 255 0
-38.5428 1.2865 -33.8523 -0.236 -0.971 0.031 255 255 255 0
-26.3655 0.9517 -32.0959 -0.362 -0.466 0.807 226 214 198 0
-25.9358 0.9263 -32.0328 -0.314 -0.321 0.893 228 216 200 0
-21.8412 27.8974 -33.6846 0.241 -0.904 -0.353 233 226 207 0
-12.9997 25.4722 -32.2287 -0.242 -0.892 0.382 119 62 68 0
-11.4632 24.9440 -31.9669 -0.346 -0.878 0.331 120 59 65 0
-2.0175 24.8952 -30.6220 0.396 -0.918 -0.020 128 46 57 0
-1.6536 24.8151 -30.5637 0.160 -0.956 0.246 127 46 57 0
-1.4245 24.8749 -30.5361 0.202 -0.951 0.235 122 42 53 0
2.2997 27.2366 -30.2030 0.698 -0.684 0.214 138 67 74 0
2.7122 28.6553 -30.2619 0.843 -0.045 -0.536 131 66 72 0
5.4107 28.9842 -29.9061 0.366 -0.804 0.469 116 41 52 0
12.3772 36.5516 -29.5437 0.040 -0.963 0.267 71 15 22 0
10.2322 43.1666 -30.3958 0.882 0.053 -0.468 67 26 30 0
9.3886 49.4120 -31.0327 0.967 0.064 0.248 88 62 61 0
8.8262 66.4084 -32.5197 0.788 -0.512 0.343 216 208 195 0
8.8757 66.8397 -32.5484 0.320 -0.832 -0.453 216 209 194 0
9.3644 66.9897 -32.4914 0.284 -0.869 -0.405 215 208 193 0
9.6621 66.9648 -32.4471 0.310 -0.821 -0.479 215 208 192 0
31.1598 45.1227 -27.5870 0.171 -0.983 -0.067 207 199 184 0
31.9328 44.3127 -27.4102 0.706 -0.695 0.137 207 199 184 0
31.0462 69.1408 -29.5917 0.889 0.195 -0.415 201 189 175 0
32.4728 67.0795 -29.2185 0.567 -0.538 -0.623 200 187 173 0
32.6430 68.5400 -29.3153 0.025 -0.991 -0.131 198 186 171 0
34.7343 69.7254 -29.1165 -0.126 -0.693 0.709 195 182 168 0
28.9159 88.9734 -31.5361 0.594 -0.741 0.313 195 181 168 0
29.1188 89.1422 -31.5213 0.594 -0.741 0.313 194 180 167 0
29.3217 89.3111 -31.5065 0.594 -0.741 0.313 192 178 165 0
