ply
format ascii 1.0
element vertex 834
property float x
property float y
property float z
property float nx
property float ny
property float nz
property uchar diffuse_red
property uchar diffuse_green
property uchar diffuse_blue
property uchar class
end_header
-9.6100 29.4071 -23.1711 0.632 -0.634 0.447 138 72 68 0
-8.4054 29.3647 -23.0750 0.110 -0.972 0.209 145 74 74 0
-6.7724 30.1257 -22.9830 0.158 -0.621 0.767 132 52 49 0
-5.8778 30.4085 -22.9263 0.318 -0.764 0.562 123 48 42 0
-5.6594 30.4843 -22.9128 0.196 -0.807 0.557 123 48 43 0
-5.4392 32.2408 -22.9777 0.272 -0.644 0.716 114 46 38 0
-5.2245 32.3232 -22.9648 0.296 -0.435 0.850 112 44 40 0
-3.1122 33.8674 -22.8719 -0.054 -0.807 0.588 122 60 47 0
3.5228 49.5462 -23.0865 0.718 -0.167 0.675 109 60 55 0
4.7133 48.4964 -22.9443 0.799 -0.197 0.568 111 65 61 0
3.6624 52.0117 -23.1908 0.880 -0.132 0.457 118 86 76 0
3.8427 53.0895 -23.2272 0.880 -0.132 0.457 139 115 102 0
26.5947 57.1451 -21.6386 0.763 0.157 0.627 208 197 178 0
24.7792 66.9806 -22.2404 0.928 0.124 -0.351 211 196 175 0
27.7586 74.4376 -22.3563 0.361 -0.923 0.131 206 192 166 0
27.8460 74.9169 -22.3719 0.112 -0.988 -0.102 206 192 166 0
35.1952 86.4160 -22.3352 0.391 -0.011 0.920 177 153 117 0
44.4659 56.5428 -20.2138 0.146 -0.730 0.668 169 145 117 0
45.3512 67.5261 -20.6582 0.153 -0.961 -0.231 245 246 243 0
45.5339 67.5999 -20.6473 0.154 -0.959 -0.238 254 255 255 0
45.5889 69.3009 -20.7226 0.002 -0.985 -0.171 255 255 255 0
-32.0475 -0.1014 -23.7438 0.729 -0.662 -0.173 231 210 180 0
-34.2302 1.8186 -24.0093 0.911 -0.349 0.218 232 212 187 0
-57.2175 19.9500 -26.7049 0.290 -0.763 -0.578 232 216 190 0
-57.2395 20.2457 -26.7209 0.249 -0.773 -0.583 233 216 191 0
-56.7521 20.2232 -26.6812 0.545 -0.831 -0.111 235 217 193 0
-56.9839 20.6517 -26.7202 0.582 -0.781 -0.225 236 218 194 0
-56.7754 20.8043 -26.7110 0.582 -0.781 -0.225 235 217 193 0
-23.5595 35.8067 -24.8024 -0.580 -0.733 0.356 227 220 203 0
-9.5577 29.3533 -23.3818 0.634 -0.619 0.464 138 72 69 0
-9.0482 29.4373 -23.3455 0.180 -0.854 0.488 140 71 69 0
-8.6171 29.2814 -23.3038 0.010 -0.823 0.568 141 70 68 0
-8.3060 29.2579 -23.2780 0.078 -0.835 0.545 142 69 68 0
-6.4603 30.1004 -23.1724 0.191 -0.602 0.776 126 45 44 0
-6.3044 30.2499 -23.1672 0.147 -0.647 0.748 124 44 42 0
-5.9826 30.2059 -23.1396 0.057 -0.837 0.544 125 46 43 0
-5.7803 30.3006 -23.1282 0.318 -0.764 0.562 124 48 46 0
-5.5334 30.3427 -23.1106 0.195 -0.813 0.548 126 52 50 0
0.6651 44.2177 -23.2884 -0.015 -0.672 0.740 159 82 73 0
0.7189 44.9571 -23.3198 0.410 -0.842 0.351 153 77 67 0
0.9250 45.0622 -23.3085 0.410 -0.842 0.351 148 74 65 0
2.3365 46.6816 -23.2747 0.252 -0.754 0.607 126 55 49 0
4.3954 49.0381 -23.2252 0.783 -0.332 0.525 111 64 60 0
3.2833 51.2995 -23.4223 0.530 -0.716 -0.455 111 67 64 0
4.0149 53.2904 -23.4603 0.842 -0.030 0.539 141 116 106 0
34.0667 59.6832 -21.3873 0.867 0.194 0.458 205 188 162 0
42.9603 71.3317 -21.2442 0.829 -0.559 0.024 166 142 104 0
44.3927 67.4889 -20.9454 0.093 -0.979 -0.181 161 139 100 0
45.3741 67.5497 -20.8706 0.156 -0.979 -0.133 245 246 243 0
45.5617 67.5990 -20.8581 0.172 -0.972 -0.160 254 255 255 0
-35.7183 0.4886 -24.2670 0.868 -0.457 -0.193 255 255 255 0
-32.0870 -0.0918 -23.9465 0.729 -0.662 -0.173 231 211 181 0
-57.0046 20.3663 -26.9639 0.543 -0.819 -0.183 236 219 195 0
-6.9905 8.8705 -22.3759 0.703 0.133 0.699 239 228 206 0
-13.5346 29.4501 -23.9235 -0.266 -0.831 0.489 137 85 82 0
-10.0763 27.9975 -23.5736 0.183 -0.538 0.823 135 74 71 0
-9.2847 29.3796 -23.5786 0.414 -0.631 0.656 134 68 65 0
-8.0911 29.0216 -23.4650 0.329 -0.749 0.575 137 63 64 0
-6.1803 30.1117 -23.3656 0.195 -0.645 0.739 127 47 46 0
-5.8580 30.0667 -23.3375 0.035 -0.861 0.507 127 48 47 0
-5.3725 30.1600 -23.3031 -0.085 -0.910 0.407 126 50 50 0
-4.2359 30.1416 -23.2109 0.587 -0.519 0.621 125 53 47 0
-3.4540 33.9659 -23.3380 0.266 -0.633 0.727 118 58 43 0
0.3776 44.6597 -23.5613 0.787 -0.484 0.381 163 86 75 0
0.9814 44.9967 -23.5296 0.401 -0.862 0.311 158 83 70 0
1.2360 45.0288 -23.5107 0.397 -0.854 0.336 158 82 70 0
1.4567 45.1109 -23.4971 0.455 -0.693 0.560 157 79 68 0
2.3469 47.5393 -23.5462 0.433 -0.516 0.739 122 51 44 0
4.2907 49.2326 -23.4741 0.794 -0.292 0.533 109 62 58 0
3.7821 50.5083 -23.5783 0.422 -0.848 -0.321 108 65 61 0
24.5076 68.5185 -22.8080 0.959 0.207 -0.191 210 195 174 0
37.5967 80.6529 -22.3593 0.528 0.107 0.842 171 149 112 0
45.0894 57.3095 -20.5983 0.557 -0.157 0.816 167 142 112 0
42.9465 71.5263 -21.4764 0.824 -0.566 0.034 166 142 104 0
44.4101 67.5365 -21.1607 0.144 -0.967 -0.211 162 140 101 0
45.3951 67.5820 -21.0838 0.156 -0.979 -0.133 246 246 244 0
45.5871 67.6106 -21.0698 0.156 -0.979 -0.133 254 255 255 0
-35.7748 0.5064 -24.4766 0.865 -0.459 -0.201 255 255 255 0
-32.1047 -0.0948 -24.1471 0.714 -0.679 -0.174 232 212 183 0
-13.3066 29.5339 -24.1312 -0.323 -0.718 0.617 130 77 74 0
-4.8124 31.1724 -23.5235 0.789 -0.606 0.100 121 51 44 0
-4.1870 37.4197 -23.7919 0.803 -0.592 0.065 116 61 40 0
1.7388 45.1193 -23.7031 0.349 -0.550 0.759 155 74 61 0
3.7392 47.9537 -23.6851 0.388 -0.371 0.844 109 50 47 0
27.6881 52.7355 -21.9800 0.721 0.142 0.678 211 200 177 0
37.3049 72.0375 -22.1837 -0.303 -0.816 -0.492 179 159 123 0
34.5840 84.4433 -23.0392 0.962 0.035 -0.270 179 156 126 0
44.4159 67.6396 -21.3800 0.054 -0.945 -0.322 162 140 101 0
45.6216 67.5767 -21.2787 0.014 -0.969 -0.246 254 255 255 0
-35.8179 0.5167 -24.6850 0.865 -0.459 -0.201 255 255 255 0
-32.3425 -1.2386 -24.3061 0.713 -0.650 -0.261 255 255 255 0
-32.2625 -0.2295 -24.3525 0.843 -0.499 -0.202 230 211 186 0
-32.1644 -0.0735 -24.3526 0.729 -0.662 -0.173 233 212 185 0
-34.7416 1.8579 -24.6668 0.555 -0.646 -0.524 231 213 188 0
-13.4989 29.4171 -24.3631 0.835 -0.339 0.433 128 74 72 0
-9.5356 27.4193 -23.9311 0.240 -0.673 0.699 139 76 75 0
-7.8698 29.4322 -23.8995 0.531 -0.727 0.435 135 60 59 0
-4.0730 29.9613 -23.6142 0.584 -0.491 0.647 117 44 38 0
-4.6457 30.9801 -23.7150 0.794 -0.484 0.369 114 44 37 0
-4.4931 31.1334 -23.7104 0.596 -0.801 -0.053 115 47 40 0
-4.3481 31.2963 -23.7070 0.623 -0.782 0.022 118 50 43 0
-3.2970 33.7874 -23.7513 0.350 -0.537 0.768 111 52 41 0
-3.9075 38.5453 -24.0517 0.465 -0.868 -0.175 118 64 42 0
33.8231 63.5081 -22.2515 0.769 0.132 0.625 208 188 165 0
34.3513 87.3923 -23.4634 0.957 0.027 -0.287 180 157 129 0
34.2976 88.5811 -23.5303 0.957 0.027 -0.287 181 158 128 0
45.1681 56.3528 -20.9395 0.175 -0.444 0.879 166 142 112 0
44.4264 67.7207 -21.5983 0.057 -0.944 -0.325 162 140 101 0
45.6383 67.6314 -21.4936 0.014 -0.969 -0.246 254 255 255 0
-35.8276 0.5080 -24.8899 0.905 -0.402 -0.139 255 255 255 0
-32.5447 -0.5050 -24.5609 0.855 -0.485 -0.184 69 63 55 0
-32.4618 -0.3405 -24.5628 0.837 -0.517 -0.181 227 211 183 0
-32.3010 -0.2206 -24.5558 0.839 -0.506 -0.198 230 213 187 0
-32.1886 -0.0728 -24.5544 0.729 -0.660 -0.185 233 213 185 0
-13.5323 29.1332 -24.5729 0.964 -0.261 -0.049 127 74 72 0
-13.7467 29.6807 -24.6204 0.738 -0.547 0.396 127 72 71 0
-9.5090 27.0782 -24.1256 0.390 -0.581 0.715 140 77 77 0
-9.4152 27.2923 -24.1294 0.296 -0.584 0.756 142 76 77 0
-8.0899 29.0340 -24.1127 0.343 -0.852 0.396 135 60 62 0
-7.7450 28.9711 -24.0805 0.354 -0.814 0.460 133 58 58 0
-7.7657 29.3195 -24.1010 0.504 -0.745 0.437 131 57 56 0
-7.5362 29.3860 -24.0854 0.443 -0.742 0.503 131 55 54 0
-4.4157 31.0478 -23.9144 0.118 -0.992 0.047 116 48 41 0
-4.1617 31.0789 -23.8948 0.118 -0.992 0.047 121 53 47 0
-3.0492 33.4854 -23.9319 0.417 -0.378 0.827 110 50 39 0
-4.8991 38.7316 -24.3699 -0.294 -0.898 -0.328 117 61 41 0
0.1832 43.3721 -24.1958 0.741 -0.498 0.450 162 87 74 0
0.4892 44.1407 -24.2117 0.686 -0.572 0.450 163 96 72 0
1.9880 44.7813 -24.1210 0.367 -0.618 0.695 152 71 52 0
2.2267 44.8341 -24.1040 0.394 -0.607 0.690 145 65 50 0
4.9327 46.9515 -23.9922 -0.130 -0.768 0.627 109 52 49 0
4.1205 52.7559 -24.3736 0.962 0.058 0.266 110 77 72 0
34.0617 62.8048 -22.4141 0.768 0.126 0.628 208 187 166 0
41.2604 75.7553 -22.5120 0.468 -0.804 0.366 166 141 111 0
44.4567 66.7639 -21.7592 -0.114 -0.901 -0.418 163 142 103 0
44.4380 67.7965 -21.8165 0.057 -0.944 -0.325 162 141 102 0
45.6551 67.6862 -21.7088 0.014 -0.969 -0.246 254 255 255 0
-32.6718 -0.6574 -24.7628 0.842 -0.511 -0.174 136 136 135 0
-32.5765 -0.5002 -24.7635 0.842 -0.511 -0.174 69 62 55 0
-32.5004 -0.3317 -24.7664 0.837 -0.517 -0.181 227 211 186 0
-32.3586 -0.2008 -24.7617 0.844 -0.502 -0.186 231 213 190 0
-32.2229 -0.0662 -24.7576 0.715 -0.662 -0.223 235 215 189 0
-34.1354 1.2590 -24.9931 0.070 -0.773 -0.631 235 215 190 0
-33.1140 1.5335 -24.9218 0.955 -0.180 -0.234 236 218 193 0
-46.6672 17.2909 -26.9434 0.581 -0.535 0.614 230 214 191 0
-46.9156 17.7264 -26.9886 0.531 -0.416 0.738 231 215 192 0
-46.1503 17.4948 -26.9109 0.413 -0.530 0.740 229 214 191 0
-15.9379 13.8146 -24.1489 -0.114 -0.993 0.043 239 227 206 0
-29.6307 40.4948 -26.7882 -0.668 -0.743 0.024 229 223 207 0
-13.7143 29.0055 -24.8034 0.858 -0.493 0.143 128 78 78 0
-13.7946 29.4109 -24.8326 0.834 -0.532 0.146 126 73 74 0
-8.2328 28.8744 -24.3320 0.343 -0.852 0.396 137 63 64 0
-8.0238 28.9645 -24.3193 0.343 -0.852 0.396 136 61 63 0
-7.6017 28.8145 -24.2753 0.385 -0.818 0.427 130 55 58 0
-7.7206 29.2735 -24.3108 0.503 -0.738 0.450 126 51 53 0
-7.4440 29.2866 -24.2881 0.305 -0.776 0.552 123 49 49 0
-4.4375 31.0815 -24.1331 0.160 -0.977 -0.138 120 49 46 0
-4.2164 31.1524 -24.1183 0.156 -0.986 -0.058 122 53 48 0
-4.8439 38.6713 -24.5886 -0.208 -0.895 -0.393 117 63 42 0
1.3730 44.4867 -24.3848 0.314 -0.549 0.774 162 97 64 0
3.2498 45.3722 -24.2750 0.053 -0.765 0.642 136 58 52 0
3.4922 45.4165 -24.2570 0.075 -0.723 0.686 128 52 47 0
4.9902 45.1731 -24.1167 0.248 -0.466 0.849 120 54 50 0
5.1147 46.2513 -24.1659 0.362 -0.649 0.669 107 47 42 0
24.2769 55.8279 -23.0748 0.205 -0.651 -0.731 213 202 180 0
22.9253 73.1393 -24.1496 0.963 -0.267 -0.046 209 197 175 0
22.7521 76.4436 -24.3476 0.690 -0.578 -0.436 207 195 173 0
35.1795 61.3100 -22.4559 0.947 0.052 0.318 206 188 165 0
46.1485 60.7013 -21.4935 0.111 -0.987 -0.119 161 142 105 0
45.6707 67.7465 -21.9248 0.006 -0.966 -0.260 254 255 255 0
-32.7076 -0.6506 -24.9661 0.850 -0.505 -0.150 135 135 135 0
-32.6138 -0.4923 -24.9670 0.842 -0.511 -0.174 71 62 58 0
-32.5435 -0.3204 -24.9708 0.840 -0.520 -0.155 230 212 192 0
-34.5941 1.5121 -25.2509 0.125 -0.741 -0.660 234 216 194 0
-33.1920 1.3480 -25.1214 0.990 0.135 0.049 234 219 192 0
-31.2523 0.6378 -24.9146 0.999 -0.034 0.015 234 220 194 0
-45.7635 16.6857 -27.0726 0.589 -0.234 0.773 231 215 192 0
-46.1258 17.1940 -27.1326 0.526 -0.474 0.706 231 216 193 0
-45.1277 16.8071 -27.0250 0.512 -0.537 0.671 231 216 193 0
-33.5292 10.1321 -25.6504 -0.358 -0.892 0.275 233 217 194 0
-31.2970 9.6089 -25.4292 0.879 -0.155 0.450 232 218 197 0
-29.5205 9.3699 -25.2632 0.983 -0.083 0.164 231 220 198 0
-23.5176 29.8175 -25.9126 0.907 -0.293 -0.303 234 228 214 0
-12.8151 28.3840 -24.9132 -0.240 -0.692 0.681 127 73 75 0
-6.5590 28.6116 -24.3897 0.262 -0.853 0.451 128 56 57 0
-3.4615 29.5832 -24.1794 0.389 -0.606 0.694 125 51 50 0
-4.5346 31.2056 -24.3638 0.325 -0.912 -0.251 123 50 49 0
-4.2387 31.1869 -24.3373 0.159 -0.985 -0.068 118 48 43 0
-3.7965 31.3283 -24.3075 0.411 -0.894 -0.176 120 51 43 0
-3.4659 31.2645 -24.2755 0.807 -0.583 0.097 120 52 44 0
-2.3559 34.3866 -24.3581 0.344 -0.294 0.892 112 56 40 0
-3.7023 38.6844 -24.7182 0.518 -0.854 0.048 115 67 40 0
-3.5163 38.8135 -24.7096 0.528 -0.848 0.038 116 68 41 0
-3.1945 38.7626 -24.6791 0.836 -0.520 0.177 118 68 40 0
-3.0063 39.2647 -24.6915 0.852 -0.452 0.264 124 74 43 0
3.1855 45.0731 -24.4913 0.061 -0.788 0.612 147 73 62 0
3.3360 45.2594 -24.4890 0.132 -0.737 0.663 145 71 62 0
3.5278 45.3820 -24.4795 0.180 -0.867 0.464 139 66 57 0
5.0015 44.7554 -24.3175 0.549 -0.466 0.694 130 62 56 0
5.2929 45.1368 -24.3142 0.588 -0.410 0.697 118 54 46 0
5.1956 46.1442 -24.3799 0.362 -0.482 0.798 109 48 41 0
4.6314 52.4124 -24.7851 0.944 -0.329 -0.027 110 75 73 0
3.4707 54.8399 -25.0228 -0.065 -0.717 -0.694 110 78 74 0
34.9380 60.7811 -22.6627 0.955 0.049 0.293 203 187 165 0
46.1697 60.7254 -21.6964 0.114 -0.986 -0.124 160 142 106 0
45.6868 67.8047 -22.1408 0.006 -0.966 -0.260 254 255 255 0
-32.7403 -0.6455 -25.1692 0.850 -0.505 -0.150 136 136 136 0
-32.6465 -0.4872 -25.1703 0.850 -0.505 -0.150 69 63 58 0
-32.5151 -0.3502 -25.1669 0.851 -0.492 -0.184 231 214 196 0
-20.0840 30.9905 -25.9173 0.349 -0.661 0.665 226 224 203 0
-6.2368 28.2501 -24.5548 0.235 -0.956 0.174 128 55 56 0
-3.0968 31.1605 -24.4520 0.473 -0.772 0.424 119 47 40 0
-3.0416 31.4326 -24.4631 0.384 -0.803 0.457 117 47 39 0
-2.4736 31.7548 -24.4326 0.277 -0.526 0.804 112 43 35 0
-4.2000 38.6017 -24.9823 0.097 -0.815 0.572 114 68 44 0
0.8065 44.1351 -24.8706 0.543 -0.584 0.604 157 104 63 0
5.4958 46.1128 -24.5789 0.183 -0.558 0.809 109 49 43 0
4.6510 52.8697 -25.0468 0.864 -0.263 -0.429 108 76 71 0
20.0724 51.6265 -23.6350 0.862 -0.339 0.377 219 208 190 0
40.7566 76.4623 -23.2889 0.917 -0.014 -0.399 168 147 114 0
46.1759 60.8208 -21.9050 -0.092 -0.975 -0.204 161 142 103 0
45.5039 67.8666 -22.3747 0.006 -0.966 -0.260 246 245 246 0
-32.7674 -0.6436 -25.3718 0.841 -0.520 -0.147 135 135 136 0
-32.6707 -0.4869 -25.3727 0.841 -0.520 -0.147 69 64 58 0
-32.5216 -0.3599 -25.3672 0.854 -0.481 -0.199 232 214 195 0
-46.1666 16.3842 -27.5691 0.695 0.200 0.691 231 215 199 0
-22.9481 33.1739 -26.5323 -0.440 -0.849 0.292 230 223 205 0
-12.5023 28.6975 -25.3459 0.128 -0.923 -0.362 130 69 69 0
-11.8245 28.2985 -25.2624 0.098 -0.967 -0.233 130 69 69 0
-11.4045 28.1706 -25.2179 0.128 -0.983 -0.133 129 65 66 0
-10.9743 28.0298 -25.1716 0.282 -0.942 -0.181 126 61 62 0
-6.7560 27.2376 -24.7533 0.723 -0.597 0.348 126 51 53 0
-6.7055 27.4999 -24.7645 0.699 -0.634 0.331 126 51 53 0
-6.4626 27.5465 -24.7460 0.437 -0.816 0.379 124 48 52 0
-5.5803 28.1517 -24.7046 0.179 -0.979 0.095 130 56 57 0
-3.4708 37.6611 -25.0882 0.488 -0.256 0.834 113 67 41 0
-3.1811 37.6519 -25.0622 0.323 -0.358 0.876 115 69 42 0
-3.0865 40.5407 -25.2268 0.918 -0.248 -0.309 125 81 46 0
0.6827 43.9274 -25.0980 0.634 -0.535 0.558 152 104 64 0
5.6368 45.9085 -24.7810 0.367 -0.637 0.678 110 51 46 0
6.1935 46.2966 -24.7553 0.542 -0.463 0.702 106 56 52 0
40.5285 78.5977 -23.6693 0.921 0.035 -0.387 166 143 111 0
46.7274 61.0191 -22.0722 0.608 -0.763 -0.220 50 48 49 0
45.5188 67.9307 -22.5921 -0.010 -0.966 -0.260 246 245 246 0
45.7191 67.9214 -22.5740 0.006 -0.966 -0.260 254 255 253 0
-32.7999 -0.6387 -25.5754 0.841 -0.520 -0.147 136 135 136 0
-32.6973 -0.4852 -25.5757 0.847 -0.512 -0.145 71 64 59 0
-56.4558 19.9018 -28.9405 0.889 -0.455 0.052 228 213 195 0
-20.3666 31.9279 -26.4652 0.359 -0.867 0.344 229 212 197 0
-12.6605 28.2281 -25.5523 0.193 -0.849 -0.492 126 67 70 0
-11.8460 28.0054 -25.4662 0.336 -0.900 -0.278 126 64 64 0
-11.5208 27.9785 -25.4356 0.248 -0.930 -0.270 126 64 63 0
-11.2322 27.9895 -25.4106 0.284 -0.929 -0.237 127 62 63 0
-10.9267 27.9816 -25.3829 0.385 -0.862 -0.331 124 58 59 0
-9.1759 28.0025 -25.2283 -0.093 -0.643 0.760 134 61 62 0
-6.8206 26.9964 -24.9570 0.712 -0.623 0.324 130 56 55 0
-6.7168 27.1983 -24.9601 0.724 -0.609 0.325 124 48 49 0
-6.6454 27.4370 -24.9684 0.689 -0.651 0.319 125 49 51 0
-6.4151 27.4977 -24.9516 0.522 -0.830 0.199 122 46 50 0
-6.1834 27.5565 -24.9346 0.638 -0.754 0.158 122 45 50 0
-6.0599 27.7373 -24.9347 0.449 -0.816 0.365 123 48 50 0
-5.8937 27.8698 -24.9280 0.794 -0.591 0.142 128 53 55 0
-4.9096 28.3562 -24.8702 0.154 -0.935 0.319 131 52 52 0
-4.6388 28.3668 -24.8467 0.205 -0.944 0.257 133 51 53 0
-2.4385 30.0345 -24.7531 0.751 -0.295 0.591 121 37 35 0
5.5409 44.8080 -24.9485 0.706 -0.459 0.539 128 61 52 0
5.6608 45.4651 -24.9781 0.691 -0.445 0.569 120 59 50 0
21.4984 61.6898 -24.5630 0.004 -0.976 -0.216 215 204 185 0
38.5514 44.1095 -21.9671 0.501 0.135 0.855 204 189 170 0
40.3351 79.6017 -23.9842 0.916 0.046 -0.400 169 145 115 0
47.3479 52.0550 -21.6711 0.979 -0.114 -0.168 166 142 111 0
45.5349 67.9890 -22.8094 -0.010 -0.966 -0.260 246 245 245 0
-32.8325 -0.6337 -25.7792 0.841 -0.520 -0.147 135 135 136 0
-39.8764 10.0092 -27.0820 -0.176 -0.944 0.279 230 214 198 0
-39.3579 9.9290 -27.0303 -0.297 -0.912 0.282 231 215 199 0
-27.1360 26.2503 -26.9534 0.649 -0.600 0.468 235 228 218 0
-26.9031 26.3504 -26.9387 0.631 -0.537 0.560 234 229 217 0
-12.6776 21.5518 -25.3556 0.118 -0.985 0.122 231 224 208 0
-23.8722 33.4172 -27.1092 -0.349 -0.583 0.733 229 222 206 0
-10.9482 27.3729 -25.5651 -0.165 -0.913 0.372 126 62 62 0
-6.9432 27.1371 -25.1895 0.255 -0.914 0.314 124 49 50 0
-6.7316 27.2191 -25.1755 0.277 -0.900 0.337 121 45 47 0
-6.7163 27.5211 -25.1931 0.318 -0.737 0.597 123 46 48 0
-5.6064 28.1924 -25.1352 0.030 -0.951 0.308 134 54 57 0
-4.5396 28.2573 -25.0432 0.146 -0.945 0.293 134 49 51 0
-1.8553 34.1405 -25.1706 0.487 -0.459 0.743 105 46 35 0
-3.2698 43.9603 -25.9144 0.786 -0.271 -0.555 145 100 56 0
0.1473 43.9331 -25.6048 0.479 -0.647 0.594 146 101 59 0
0.7534 44.2677 -25.5712 0.404 -0.914 -0.030 148 97 52 0
0.9670 44.3617 -25.5578 0.404 -0.914 -0.030 148 94 51 0
5.3675 43.0154 -25.0768 0.729 -0.513 0.453 145 73 58 0
5.5556 43.1341 -25.0673 0.736 -0.501 0.455 140 68 54 0
5.8381 43.5193 -25.0660 0.738 -0.457 0.496 131 59 48 0
5.7067 44.1452 -25.1171 0.709 -0.471 0.526 131 60 50 0
5.8731 44.7224 -25.1384 0.704 -0.512 0.492 130 63 54 0
6.0104 44.9261 -25.1388 0.482 -0.651 0.586 126 64 53 0
6.2191 45.0150 -25.1255 0.236 -0.658 0.715 126 66 56 0
23.2338 43.9029 -23.5225 -0.478 -0.867 0.141 220 211 191 0
45.7478 68.0567 -23.0098 0.019 -0.963 -0.269 254 255 253 0
45.5646 69.9781 -23.1469 0.096 -0.970 -0.221 254 254 255 0
-32.8585 -0.6325 -25.9825 0.844 -0.509 -0.170 135 135 136 0
-23.8609 33.7402 -27.3697 -0.183 -0.402 0.897 227 220 203 0
-4.6280 28.0414 -25.2495 0.196 -0.940 0.279 138 52 52 0
-1.6714 33.9144 -25.3571 0.475 -0.458 0.752 108 47 37 0
-1.3284 33.8265 -25.3202 0.869 0.021 0.495 105 47 34 0
0.3864 44.4171 -25.8440 0.909 -0.398 -0.122 147 97 50 0
0.7540 44.2849 -25.8020 0.602 -0.781 -0.169 148 95 52 0
0.8786 44.5111 -25.8051 0.434 -0.866 -0.247 150 93 54 0
6.0443 44.4706 -25.3314 0.168 -0.532 0.830 126 59 50 0
6.7789 45.8418 -25.3525 0.001 -0.561 0.828 109 57 48 0
7.0124 45.8902 -25.3343 -0.024 -0.564 0.825 106 58 51 0
45.7621 68.1251 -23.2283 0.016 -0.966 -0.259 254 255 253 0
45.5663 70.1129 -23.3739 0.172 -0.941 -0.292 254 254 255 0
-32.8307 -1.0849 -26.1512 0.672 -0.687 -0.277 255 255 255 0
-32.8953 -0.6252 -26.1874 0.844 -0.509 -0.170 135 135 136 0
-32.2501 -0.3572 -26.1454 0.825 -0.468 -0.317 235 217 197 0
-32.2526 -0.1426 -26.1597 0.847 -0.443 -0.296 235 217 197 0
-24.9429 34.1304 -27.7366 -0.561 -0.720 0.408 228 220 205 0
-12.8637 27.8119 -26.2067 -0.285 -0.780 0.557 128 66 70 0
-12.0065 27.2319 -26.0894 -0.141 -0.789 0.598 130 68 71 0
-11.7383 27.2656 -26.0669 -0.193 -0.771 0.607 128 64 68 0
-3.0981 30.1898 -25.4615 0.991 -0.129 0.030 126 36 35 0
-1.6105 34.2015 -25.5878 0.810 0.147 0.568 107 48 36 0
-2.8564 40.2831 -26.1023 0.941 -0.041 -0.336 117 80 41 0
-3.0311 40.9048 -26.1593 0.915 -0.067 -0.398 119 81 41 0
-3.4081 42.1972 -26.2790 0.752 -0.137 -0.644 126 86 43 0
-1.1828 42.2614 -26.0778 0.468 -0.548 0.694 152 110 61 0
0.4366 43.9523 -26.0394 0.884 -0.427 0.189 148 99 52 0
0.5144 44.2465 -26.0516 0.942 -0.329 0.066 149 97 51 0
0.7879 44.2529 -26.0267 0.607 -0.681 0.409 147 92 50 0
0.8918 44.5099 -26.0340 0.466 -0.861 -0.203 147 87 50 0
7.1020 45.3357 -25.5151 0.296 -0.394 0.870 109 55 48 0
5.6033 50.9328 -26.0211 0.989 0.120 -0.086 100 60 59 0
6.4696 49.9236 -25.8749 0.976 0.044 0.215 99 62 60 0
22.6221 62.0762 -25.1824 0.175 -0.849 -0.499 214 201 184 0
36.5211 52.0367 -23.2400 0.890 -0.360 0.278 203 188 166 0
46.8318 61.0246 -22.8788 0.059 -0.995 -0.080 52 50 52 0
45.7725 68.2131 -23.4488 -0.000 -0.964 -0.266 254 255 253 0
45.5805 70.1845 -23.5960 0.172 -0.941 -0.292 254 254 255 0
-36.1248 0.5484 -26.7690 0.897 -0.409 -0.167 255 255 255 0
-32.9277 -1.0438 -26.3635 0.705 -0.660 -0.259 255 255 255 0
-32.9321 -0.6179 -26.3925 0.844 -0.509 -0.170 136 136 136 0
-32.3445 -0.1028 -26.3722 0.849 -0.439 -0.294 237 217 201 0
-22.3502 28.0715 -27.3310 -0.323 -0.370 0.871 235 227 214 0
-23.2270 33.1154 -27.7516 -0.219 -0.558 0.801 225 216 201 0
-12.4939 27.4279 -26.3673 -0.461 -0.802 0.380 132 68 73 0
-11.4928 26.6960 -26.2246 -0.193 -0.943 0.272 132 68 72 0
-11.2957 26.8027 -26.2134 0.227 -0.973 0.048 131 66 70 0
-11.1193 26.9310 -26.2055 0.325 -0.934 0.150 126 60 64 0
-8.4228 27.1936 -25.9713 0.119 -0.919 0.376 118 47 53 0
-2.2580 29.5119 -25.5513 0.627 -0.709 0.323 130 37 37 0
-1.8763 29.3798 -25.5068 0.756 -0.654 0.024 130 37 37 0
-1.2711 30.3118 -25.5128 0.550 -0.505 0.665 129 41 34 0
-1.7006 34.6859 -25.8467 0.124 -0.020 0.992 105 47 33 0
-3.2394 41.2012 -26.4280 0.816 0.065 0.575 118 83 41 0
-3.3212 41.7013 -26.4692 0.984 -0.059 0.165 120 83 39 0
-3.7461 42.6736 -26.5742 0.959 -0.181 -0.216 122 82 39 0
-3.7565 43.0832 -26.6027 0.860 -0.304 -0.409 125 86 42 0
-3.6434 43.3248 -26.6083 0.915 -0.178 -0.362 130 89 44 0
-3.3747 43.3518 -26.5851 0.730 -0.205 -0.652 137 95 48 0
-3.7884 44.3255 -26.6891 0.882 0.076 -0.465 141 99 50 0
0.3926 44.4438 -26.3066 0.230 -0.194 0.954 145 92 49 0
5.5420 51.0628 -26.2702 0.974 0.102 0.200 100 59 58 0
7.5802 49.4191 -25.9694 0.627 -0.033 0.779 102 71 68 0
6.4200 51.8741 -26.2427 0.815 0.080 0.574 105 77 72 0
31.7586 85.3541 -26.1247 0.157 -0.009 0.988 202 183 163 0
34.6154 84.6933 -25.8136 0.478 -0.103 0.872 194 176 158 0
46.8364 61.1321 -23.0899 0.265 -0.961 0.082 51 50 51 0
45.7885 68.2734 -23.6673 -0.000 -0.964 -0.266 254 255 253 0
45.5965 70.2478 -23.8179 0.167 -0.941 -0.293 254 254 255 0
-36.2080 0.5811 -26.9857 0.831 -0.525 -0.183 255 255 255 0
-32.9637 -0.6135 -26.5972 0.842 -0.505 -0.192 135 135 136 0
-34.4778 1.3356 -26.8740 0.912 -0.338 -0.232 236 217 202 0
-36.8867 5.9380 -27.4175 -0.403 -0.516 0.756 229 214 193 0
-24.6262 33.8197 -28.1724 -0.496 -0.861 0.114 228 220 205 0
-23.4108 32.9630 -27.9988 -0.485 -0.823 0.294 226 219 204 0
-11.4811 26.6858 -26.4408 -0.141 -0.966 0.215 134 68 72 0
-11.0931 26.9056 -26.4192 0.316 -0.931 0.181 123 57 61 0
-10.7132 27.1335 -26.3990 0.106 -0.829 0.550 123 57 62 0
-3.9839 27.3120 -25.7754 0.602 -0.622 0.501 130 38 43 0
-1.9112 28.7666 -25.6794 0.609 -0.591 0.529 132 38 38 0
-2.5586 29.8853 -25.8173 0.847 -0.417 -0.331 131 37 37 0
-1.8138 29.3113 -25.7075 0.830 -0.551 -0.090 131 37 37 0
-1.6773 29.4778 -25.7061 0.957 -0.287 0.041 131 37 37 0
0.1309 30.2546 -25.5885 0.846 -0.483 0.225 116 42 35 0
-0.8976 32.9497 -25.8707 0.697 -0.019 0.717 110 50 38 0
-1.1692 34.0077 -25.9689 0.704 0.242 0.668 113 54 41 0
-1.1652 34.3592 -25.9927 0.089 -0.111 0.990 116 59 44 0
-1.5321 37.7683 -26.2613 0.782 -0.237 0.576 115 76 40 0
-3.0251 40.9240 -26.6189 0.800 0.091 0.593 119 85 41 0
-3.3593 41.7672 -26.7084 0.936 -0.024 0.351 121 85 40 0
5.4612 41.7225 -25.8719 0.080 -0.534 0.841 145 72 55 0
5.2812 42.4091 -25.9360 0.028 -0.600 0.799 141 69 51 0
6.8751 51.1175 -26.3830 0.791 -0.004 0.611 106 75 72 0
5.1001 58.5681 -27.0620 0.128 -0.367 0.921 220 211 194 0
22.0837 61.7214 -25.6737 0.172 -0.878 -0.447 215 204 186 0
22.2894 61.8124 -25.6605 0.448 -0.710 -0.543 212 203 184 0
22.6026 61.6345 -25.6187 0.198 -0.867 -0.458 212 201 183 0
35.8122 53.1627 -23.7892 0.691 -0.566 0.450 202 186 170 0
36.2382 53.0936 -23.7442 0.589 -0.772 0.240 201 186 167 0
46.8667 61.1128 -23.2903 0.246 -0.968 0.058 51 50 51 0
45.8072 68.3201 -23.8850 0.007 -0.964 -0.264 254 255 253 0
-35.6720 0.2647 -27.1192 0.864 -0.480 -0.153 255 255 255 0
-33.0009 -0.6060 -26.8029 0.874 -0.459 -0.162 135 135 136 0
-32.4243 -0.2973 -26.7694 0.817 -0.477 -0.322 234 218 202 0
-24.2226 33.4246 -28.3492 -0.508 -0.804 0.308 228 219 205 0
-12.3143 27.2444 -26.7777 -0.351 -0.892 0.286 131 63 68 0
-10.8528 26.9688 -26.6187 0.051 -0.843 0.536 119 54 60 0
-10.3389 27.0533 -26.5755 -0.000 -0.846 0.534 120 55 59 0
-5.0030 26.8866 -26.0538 0.741 -0.597 0.308 126 40 45 0
-4.6747 26.8312 -26.0186 0.733 -0.572 0.367 131 45 50 0
-4.4887 26.9377 -26.0083 0.702 -0.599 0.384 133 45 50 0
-4.4755 27.2428 -26.0284 0.870 -0.485 -0.084 130 43 46 0
-1.8498 28.6997 -25.8795 0.408 -0.722 0.559 131 37 38 0
-2.0595 29.2859 -25.9406 0.069 -0.702 0.709 131 37 38 0
-1.8218 29.3290 -25.9210 0.069 -0.702 0.709 131 37 38 0
-1.7032 29.5177 -25.9228 0.350 -0.488 0.800 131 37 38 0
-1.3484 29.7510 -25.9053 0.664 -0.216 0.716 130 35 37 0
-0.1533 30.2839 -25.8284 0.615 -0.564 0.551 117 39 35 0
0.0663 30.3460 -25.8118 0.765 -0.478 0.431 111 36 31 0
0.2393 30.4667 -25.8037 0.790 -0.458 0.408 108 36 30 0
0.2715 30.7673 -25.8217 0.745 -0.522 0.415 111 43 35 0
0.4335 30.9028 -25.8157 0.766 -0.516 0.382 115 50 39 0
0.2579 43.0484 -26.6838 -0.005 -0.836 0.548 142 100 49 0
7.3841 43.2478 -26.0166 -0.145 -0.485 0.863 122 62 49 0
6.8973 50.6457 -26.5817 0.762 -0.011 0.648 105 68 67 0
6.7298 51.3959 -26.6503 0.841 0.054 0.539 108 73 71 0
6.7643 51.8013 -26.6754 0.923 -0.048 0.383 111 80 77 0
6.2969 57.4477 -27.1159 0.660 -0.523 -0.539 220 211 194 0
6.2210 58.0852 -27.1678 0.590 -0.605 -0.535 222 213 196 0
23.8902 50.6770 -24.9597 -0.028 -0.769 -0.639 218 206 189 0
21.6701 76.6007 -26.9889 0.529 -0.828 0.188 209 198 179 0
35.1517 54.6838 -24.1641 0.304 -0.824 0.477 204 189 171 0
46.1768 60.9154 -23.5471 0.242 -0.963 0.117 167 143 117 0
46.5446 60.9696 -23.5157 0.054 -0.994 -0.091 163 141 115 0
46.9070 61.0444 -23.4863 0.209 -0.976 0.068 52 50 51 0
-36.0963 0.4896 -27.3824 0.881 -0.450 -0.144 255 255 255 0
-33.0359 -0.5998 -27.0086 0.874 -0.459 -0.162 135 136 135 0
-32.4788 -0.2794 -26.9776 0.819 -0.477 -0.319 234 220 200 0
-39.8157 9.1535 -28.3620 -0.445 -0.883 0.148 227 215 195 0
-10.7567 26.8694 -26.8204 0.205 -0.961 0.185 118 52 58 0
-10.5110 26.9237 -26.8005 0.054 -0.842 0.537 116 51 57 0
-7.2119 25.8801 -26.4069 0.333 -0.714 0.616 125 49 55 0
-4.6285 26.4653 -26.1990 0.761 -0.578 0.295 125 40 43 0
-4.3675 26.4853 -26.1752 0.710 -0.595 0.377 127 41 46 0
-4.3435 26.7764 -26.1937 0.627 -0.673 0.392 127 42 45 0
-4.1144 26.8327 -26.1756 0.761 -0.546 0.350 127 41 43 0
0.3042 30.3937 -26.0032 0.791 -0.459 0.406 113 38 33 0
0.3326 30.6991 -26.0223 0.732 -0.504 0.458 119 48 40 0
0.4910 30.8390 -26.0170 0.766 -0.516 0.382 122 53 43 0
0.6219 31.0145 -26.0169 0.770 -0.516 0.375 121 55 44 0
-0.0107 32.5266 -26.1863 0.734 -0.154 0.662 118 56 41 0
0.0476 32.8022 -26.2004 0.758 -0.196 0.622 120 60 43 0
6.8751 51.1731 -26.8549 0.841 0.054 0.539 113 78 76 0
6.9148 51.5687 -26.8794 0.888 -0.011 0.460 113 81 78 0
19.3776 56.7430 -26.0448 0.867 -0.467 -0.175 223 212 188 0
23.7801 50.9806 -25.2068 0.042 -0.798 -0.601 219 206 188 0
21.0785 77.5804 -27.3715 0.002 -0.983 0.186 208 196 180 0
21.7147 76.5506 -27.2363 0.570 -0.734 0.369 208 197 179 0
21.9543 76.6052 -27.2170 0.550 -0.747 0.373 206 195 177 0
22.1752 76.7110 -27.2033 0.624 -0.781 -0.022 205 193 177 0
36.4744 53.1296 -24.1333 0.966 -0.191 0.172 200 184 169 0
35.7402 78.7897 -26.0405 0.920 -0.335 -0.205 194 178 159 0
35.8751 79.1688 -26.0546 0.920 -0.335 -0.205 194 179 158 0
46.4121 60.8217 -23.7230 0.702 -0.708 0.073 167 143 117 0
45.5905 68.6877 -24.3653 0.062 -0.961 -0.271 246 246 246 0
-36.1286 0.4935 -27.5929 0.881 -0.450 -0.144 255 255 255 0
-33.0709 -0.5936 -27.2145 0.874 -0.459 -0.162 135 136 136 0
-42.3526 21.1556 -29.7104 0.329 -0.290 0.899 232 220 204 0
-42.4393 21.5038 -29.7443 0.587 -0.301 0.752 233 221 205 0
-46.3596 25.8095 -30.4421 0.089 -0.032 0.995 234 222 208 0
-18.5745 24.5136 -27.6307 0.042 -0.583 0.811 234 226 213 0
-18.2402 24.4999 -27.5970 0.284 -0.481 0.829 233 225 212 0
-25.6831 33.1710 -28.9580 -0.321 -0.586 0.744 231 224 210 0
0.4779 30.1822 -26.1818 0.453 -0.332 0.828 125 48 44 0
0.4777 30.5235 -26.2067 0.561 -0.283 0.778 125 51 44 0
1.6313 32.4937 -26.2378 0.255 -0.155 0.954 125 72 46 0
-4.5222 45.4061 -27.7825 0.861 -0.004 -0.509 136 101 48 0
-1.7102 42.2871 -27.2798 0.412 -0.698 -0.585 139 108 50 0
8.3871 44.6231 -26.4631 0.664 0.169 0.728 101 50 48 0
29.9585 42.4081 -24.1921 -0.235 -0.950 -0.205 214 206 186 0
21.1331 77.5034 -27.6181 0.017 -0.985 0.171 210 198 182 0
21.8537 76.2407 -27.4554 -0.246 -0.797 0.551 209 197 181 0
22.1982 76.0036 -27.4044 0.576 -0.291 0.764 206 194 178 0
36.8001 47.1512 -23.8695 0.956 -0.291 -0.030 203 191 169 0
33.3828 59.7573 -25.1243 0.814 -0.577 0.071 204 189 171 0
39.3392 50.2083 -23.8445 0.418 -0.630 -0.654 200 185 166 0
35.1229 79.4899 -26.3953 0.884 -0.016 0.467 197 179 164 0
46.5832 61.0385 -23.9272 0.076 -0.990 -0.118 163 141 115 0
-36.1295 0.4798 -27.7992 0.819 -0.548 -0.170 255 255 255 0
-33.1047 -0.5880 -27.4205 0.869 -0.469 -0.156 135 135 136 0
-32.6953 0.0327 -27.4263 0.584 -0.811 0.013 237 221 197 0
-46.0156 23.1730 -30.4674 -0.355 -0.696 0.624 232 219 203 0
-42.6153 21.9069 -30.0368 -0.213 -0.231 0.949 234 223 210 0
-43.3043 22.6928 -30.1635 -0.210 -0.172 0.962 235 225 212 0
-42.1330 22.1360 -30.0062 -0.213 -0.174 0.962 235 224 213 0
-45.3335 25.0503 -30.5398 0.072 -0.005 0.997 236 226 214 0
-46.6132 26.2868 -30.7585 -0.015 -0.115 0.993 236 226 215 0
-47.4234 27.1859 -30.9056 0.977 0.183 -0.111 235 224 214 0
-26.2587 33.3886 -29.2750 -0.263 -0.545 0.796 231 223 211 0
-25.8051 33.2871 -29.2226 -0.294 -0.569 0.768 231 224 212 0
-24.3528 32.2210 -28.9995 -0.332 -0.543 0.771 230 221 209 0
-5.4918 25.8684 -26.6613 0.528 -0.843 -0.104 126 42 48 0
-5.3233 25.9945 -26.6541 0.489 -0.871 -0.039 126 42 48 0
-3.7071 27.9841 -26.6425 0.454 -0.642 0.618 135 45 51 0
-2.0587 27.9875 -26.4798 0.042 -0.962 0.269 138 49 51 0
0.0536 30.3905 -26.4499 0.546 -0.421 0.724 128 49 45 0
1.1268 31.0722 -26.3946 0.328 -0.476 0.816 128 61 45 0
1.2556 31.2506 -26.3952 0.005 -0.903 0.430 124 59 41 0
1.5619 31.1976 -26.3609 -0.035 -0.900 0.434 120 58 38 0
1.2400 42.4761 -27.2330 0.025 -0.948 0.319 135 86 45 0
1.5975 42.3549 -27.1887 0.048 -0.950 0.308 135 85 45 0
2.0390 42.1081 -27.1266 0.076 -0.670 0.738 138 85 47 0
2.2835 42.1497 -27.1055 0.075 -0.678 0.731 140 84 48 0
4.7875 40.0149 -26.6989 -0.115 -0.422 0.899 136 71 47 0
8.2265 41.5408 -26.4726 0.687 -0.399 0.607 111 55 42 0
6.3771 57.8996 -27.8742 0.520 -0.843 -0.135 222 212 195 0
22.0429 75.7925 -27.6583 -0.223 -0.784 0.579 210 197 181 0
22.3343 75.7000 -27.6226 0.576 -0.291 0.764 209 196 179 0
36.8074 47.1954 -24.0679 0.956 -0.291 -0.030 203 190 172 0
33.3444 59.9543 -25.3608 0.849 -0.528 0.002 202 187 171 0
45.8574 62.8334 -24.3381 0.013 -0.994 0.107 168 146 118 0
46.6177 60.9994 -24.1263 0.308 -0.937 -0.167 163 142 115 0
46.7974 61.0453 -24.1119 0.301 -0.941 -0.158 104 92 76 0
-36.1724 0.4897 -28.0116 0.832 -0.532 -0.158 255 255 255 0
-45.4344 22.7495 -30.6288 -0.326 -0.674 0.663 234 221 208 0
-43.6839 21.7959 -30.3813 0.311 -0.428 0.848 236 224 210 0
-21.5393 28.8699 -28.7048 -0.113 -0.985 0.133 231 223 212 0
-11.8019 26.7173 -27.5678 -0.246 -0.957 0.155 117 51 57 0
-11.5162 26.7326 -27.5404 -0.184 -0.966 0.183 119 52 58 0
-5.7624 25.8602 -26.8989 0.544 -0.839 0.027 127 43 50 0
-4.4787 26.9476 -26.8531 0.399 -0.735 0.548 133 47 55 0
-2.5562 27.6092 -26.7112 0.424 -0.779 0.462 132 45 50 0
-2.4819 27.8466 -26.7218 0.535 -0.783 0.319 130 44 47 0
-2.1261 28.0753 -26.7036 0.485 -0.772 0.411 133 47 48 0
0.1774 30.2429 -26.6380 0.492 -0.551 0.674 116 37 33 0
1.3640 31.1202 -26.5860 -0.146 -0.788 0.599 129 63 45 0
2.0641 32.2942 -26.6052 0.641 -0.081 0.763 127 72 44 0
1.1379 34.6086 -26.8736 0.300 0.019 0.954 123 78 43 0
1.6231 34.6787 -26.8305 0.534 0.066 0.843 121 84 45 0
1.6023 35.4385 -26.8903 0.533 0.063 0.844 123 90 47 0
7.9925 40.3007 -26.6208 0.443 -0.875 -0.196 113 52 41 0
8.7121 42.0199 -26.6795 0.182 -0.568 0.802 100 45 40 0
8.4206 43.3360 -26.8086 -0.007 -0.696 0.718 98 45 41 0
8.6651 43.3570 -26.7857 -0.007 -0.696 0.718 97 46 41 0
6.7205 57.8099 -28.0782 0.868 -0.422 0.261 221 212 195 0
22.4920 75.3361 -27.8330 0.532 -0.422 0.734 209 196 179 0
23.1114 74.3261 -27.6943 0.228 -0.438 0.870 209 196 179 0
36.6182 47.8495 -24.3324 0.965 -0.008 0.264 203 190 173 0
33.4867 58.2343 -25.4345 0.408 -0.878 -0.252 201 188 171 0
36.0039 53.5648 -24.8280 0.041 -0.486 0.873 204 188 173 0
33.0539 72.0247 -26.5254 0.340 -0.923 -0.178 201 186 163 0
33.1695 72.4211 -26.5440 0.300 -0.947 -0.117 200 184 161 0
33.2851 72.8203 -26.5628 0.252 -0.966 -0.049 200 182 161 0
35.6113 78.7302 -26.7792 0.978 -0.210 0.012 196 181 162 0
35.3280 80.7430 -26.9605 0.914 -0.057 0.402 192 180 160 0
45.9955 62.2971 -24.4926 0.380 -0.921 -0.086 169 148 121 0
46.6366 61.0362 -24.3327 0.300 -0.920 -0.252 165 144 118 0
46.8169 61.0795 -24.3179 0.307 -0.922 -0.236 104 93 78 0
-36.4711 0.6435 -28.2613 0.778 -0.588 -0.220 255 255 255 0
-32.8376 -0.1270 -27.8344 0.853 -0.497 -0.161 237 219 204 0
-44.8168 22.3003 -30.7822 -0.326 -0.674 0.663 237 224 213 0
-41.0503 20.4762 -30.2602 0.002 -0.318 0.948 235 226 216 0
-15.0222 21.7496 -27.7280 0.244 -0.403 0.882 233 225 212 0
-21.5832 28.9107 -28.9457 -0.050 -0.863 0.502 230 222 209 0
-23.7969 31.6831 -29.3842 -0.393 -0.718 0.575 230 220 208 0
-8.6230 25.5475 -27.3753 0.411 -0.671 0.617 123 48 53 0
-6.1749 26.0085 -27.1636 0.346 -0.770 0.536 127 46 52 0
-2.2377 27.8887 -26.9112 0.460 -0.834 0.305 132 46 50 0
-2.0805 28.0278 -26.9061 0.698 -0.529 0.483 133 48 49 0
-1.8096 28.0301 -26.8789 0.408 -0.718 0.564 134 49 50 0
0.3420 30.0437 -26.8174 0.432 -0.589 0.683 117 40 35 0
0.9584 29.9386 -26.7469 0.676 -0.417 0.608 131 52 47 0
1.1213 30.0704 -26.7407 0.668 -0.449 0.593 135 56 50 0
1.2187 30.2865 -26.7476 0.661 -0.461 0.592 134 58 52 0
1.3534 30.4553 -26.7470 0.667 -0.459 0.587 129 55 48 0
1.7283 31.3486 -26.7783 0.440 -0.350 0.827 131 61 43 0
1.9286 31.4334 -26.7646 0.358 -0.306 0.882 130 62 44 0
2.2298 32.0851 -26.7847 0.553 -0.086 0.829 132 71 46 0
-1.6709 42.2780 -27.9683 0.591 -0.782 0.200 136 105 54 0
-1.4475 42.3616 -27.9522 0.519 -0.829 0.207 139 107 55 0
6.3149 38.1441 -26.8410 0.305 -0.395 0.867 131 63 46 0
8.2530 40.3138 -26.8131 0.612 -0.790 -0.027 105 45 38 0
9.0242 41.5340 -26.8297 0.081 -0.743 0.664 97 42 40 0
7.5258 46.5661 -27.3709 0.939 -0.128 0.320 93 46 46 0
7.5461 46.9725 -27.4003 0.906 -0.173 0.388 92 46 45 0
34.8729 38.4960 -23.9817 -0.028 -0.951 0.308 210 197 180 0
38.0331 34.3216 -23.3390 0.057 -0.366 0.929 205 193 176 0
35.9093 53.9429 -25.0733 0.257 -0.624 0.738 202 186 171 0
36.3771 53.0890 -24.9599 0.998 0.058 -0.004 202 186 170 0
33.4977 72.1740 -26.7290 -0.140 -0.977 -0.158 200 182 159 0
35.6090 80.6785 -27.1742 0.965 -0.141 0.223 192 180 158 0
46.4852 60.9790 -24.5492 0.543 -0.720 -0.433 169 148 123 0
46.6645 61.0289 -24.5350 0.475 -0.836 -0.274 169 148 123 0
-34.5264 -0.4654 -28.1835 0.884 -0.438 -0.164 255 255 255 0
-32.8940 -0.1082 -28.0449 0.857 -0.492 -0.152 235 218 205 0
-14.1848 21.5358 -27.8414 -0.059 -0.847 0.528 231 224 208 0
-25.0184 32.5279 -29.8159 0.012 -0.302 0.953 230 221 207 0
-23.7485 31.6354 -29.6157 0.061 -0.171 0.983 230 220 208 0
-13.3571 26.1370 -28.1199 0.024 -0.930 0.368 126 69 72 0
-11.6977 26.6124 -27.9879 -0.145 -0.886 -0.440 117 51 56 0
-8.3670 24.9667 -27.5177 0.249 -0.731 0.635 124 49 53 0
-8.4482 25.3631 -27.5573 0.393 -0.690 0.608 126 50 54 0
-4.3242 25.5127 -27.1477 0.730 -0.636 0.252 136 57 62 0
-4.2230 25.7128 -27.1531 0.773 -0.601 0.202 136 54 60 0
-4.0901 27.1533 -27.2533 0.598 -0.350 0.721 131 49 55 0
1.3417 29.7975 -26.9069 0.601 -0.359 0.715 132 55 49 0
2.5555 32.0142 -26.9579 0.248 -0.236 0.940 133 70 43 0
0.1567 38.5798 -27.7211 0.003 0.030 1.000 129 96 45 0
2.5048 39.4990 -27.5538 -0.358 -0.350 0.866 139 87 55 0
2.7549 39.5270 -27.5304 -0.143 -0.158 0.977 140 86 55 0
8.2208 39.9808 -27.0077 0.775 -0.405 0.485 103 42 36 0
8.2588 40.3257 -27.0311 0.612 -0.790 -0.027 101 41 37 0
8.5343 40.7008 -27.0325 0.596 -0.802 -0.026 96 38 36 0
7.6200 46.8738 -27.6131 0.901 -0.179 0.395 91 47 46 0
7.7937 47.0239 -27.6072 0.899 -0.177 0.401 89 48 46 0
6.8801 57.5848 -28.5341 0.902 -0.398 0.166 221 213 195 0
19.7554 73.1023 -28.4432 -0.080 -0.173 0.982 213 199 186 0
33.0049 59.2142 -25.9933 0.974 0.212 0.077 203 190 174 0
37.8358 49.7098 -24.7496 0.937 0.292 0.193 202 186 170 0
33.5304 72.1555 -26.9609 -0.258 -0.956 -0.139 199 182 163 0
36.6048 62.9044 -25.9167 0.825 -0.386 -0.414 199 181 162 0
34.9241 72.0624 -26.8112 0.877 -0.115 -0.466 198 183 164 0
34.6703 73.8126 -26.9753 0.971 -0.010 -0.237 197 181 165 0
33.3264 83.1540 -27.8498 -0.117 -0.891 0.438 198 181 165 0
33.6608 85.5895 -28.0079 0.442 -0.839 0.317 195 180 163 0
34.9213 82.5665 -27.6405 0.301 -0.930 -0.210 191 178 161 0
44.7995 51.1164 -24.1490 0.999 -0.037 -0.002 193 175 155 0
41.2464 67.7212 -25.8226 0.714 -0.503 0.487 191 173 153 0
46.5055 61.0088 -24.7554 0.530 -0.724 -0.441 173 153 129 0
45.6822 68.9347 -25.4651 0.067 -0.990 -0.124 246 245 246 0
-32.8666 -0.1375 -28.2431 0.835 -0.527 -0.155 236 219 208 0
-52.3171 23.3710 -32.1420 0.713 -0.490 0.501 229 220 203 0
-47.5429 23.6180 -31.6688 -0.243 -0.239 0.940 237 227 217 0
-25.2207 32.7212 -30.0952 0.196 -0.231 0.953 229 222 206 0
-13.2350 26.0137 -28.3181 0.034 -0.838 0.545 126 70 73 0
-12.7904 26.4934 -28.3107 0.106 -0.982 -0.156 119 58 63 0
-8.3085 24.9069 -27.7203 0.268 -0.721 0.639 125 49 54 0
-8.5568 25.4821 -27.7922 0.465 -0.722 0.512 125 49 53 0
-4.1650 26.6037 -27.4288 0.450 -0.584 0.675 128 43 52 0
0.5043 29.8567 -27.2080 0.326 -0.705 0.630 120 50 46 0
1.1941 29.3183 -27.0935 0.649 -0.332 0.685 122 52 46 0
1.3031 29.5173 -27.0983 0.613 -0.280 0.739 120 48 43 0
2.8240 33.4447 -27.2569 0.170 -0.250 0.953 129 78 42 0
1.6096 39.6329 -27.8799 -0.146 -0.126 0.981 136 88 53 0
2.0087 39.4505 -27.8240 -0.137 -0.119 0.983 140 88 56 0
3.4950 38.4693 -27.5916 -0.143 -0.157 0.977 136 78 49 0
6.7268 37.1714 -27.1535 0.311 -0.684 0.660 122 52 38 0
7.9635 39.6014 -27.2211 0.673 -0.428 0.603 101 38 32 0
8.3076 39.4613 -27.1743 0.255 -0.693 0.674 98 36 32 0
8.3199 39.8445 -27.2038 0.742 -0.342 0.576 97 37 32 0
8.3780 40.1571 -27.2230 0.615 -0.768 0.178 95 35 34 0
8.5471 40.2939 -27.2165 0.615 -0.768 0.178 92 34 33 0
7.5035 47.0945 -27.8710 0.786 -0.180 0.592 84 43 41 0
7.8378 46.9751 -27.8269 0.813 -0.161 0.559 86 46 44 0
8.7880 47.5863 -27.7779 0.264 -0.757 0.598 91 53 52 0
9.8411 46.2178 -27.5591 0.912 -0.044 0.409 93 58 54 0
8.9358 48.2329 -27.8146 0.783 -0.047 0.620 99 65 63 0
7.0344 57.3362 -28.7429 0.908 -0.384 0.166 222 214 194 0
6.8607 58.1573 -28.8269 0.715 -0.698 -0.028 223 215 195 0
13.6124 65.8223 -28.7458 0.879 -0.238 0.413 221 210 195 0
36.8115 63.0151 -26.1241 0.870 -0.348 -0.350 197 183 160 0
34.6819 73.8719 -27.2169 0.987 -0.061 -0.148 196 181 161 0
33.2835 83.4289 -28.1297 -0.073 -0.882 0.465 196 180 165 0
33.3772 85.8569 -28.3152 0.507 -0.833 0.220 191 178 161 0
34.9151 82.7090 -27.9033 0.309 -0.928 -0.210 191 178 162 0
35.1270 82.8130 -27.8898 0.305 -0.929 -0.211 191 178 161 0
40.1963 68.7163 -26.2329 0.377 -0.769 -0.516 191 177 156 0
46.5242 61.0466 -24.9627 0.324 -0.939 -0.111 175 156 133 0
46.7002 61.1136 -24.9499 0.315 -0.943 -0.108 175 155 132 0
45.7048 68.9635 -25.6838 0.067 -0.990 -0.124 246 245 245 0
-32.9012 -0.1312 -28.4508 0.835 -0.527 -0.155 237 220 208 0
-50.0671 24.1856 -32.2336 -0.279 -0.314 0.908 236 228 215 0
-48.0479 23.0774 -31.9321 -0.231 -0.246 0.941 235 227 216 0
-24.6793 31.8704 -30.2127 0.739 -0.611 -0.284 229 222 206 0
-22.1789 29.7980 -29.7820 0.757 -0.528 -0.385 229 222 206 0
-21.8820 29.8340 -29.7540 0.676 -0.737 0.015 229 221 205 0
-21.8114 30.0883 -29.7674 0.658 -0.752 0.037 230 220 203 0
-12.9467 26.6555 -28.5611 0.051 -0.976 -0.213 118 59 63 0
-8.4730 25.3952 -27.9909 0.465 -0.722 0.512 126 50 55 0
-5.8148 26.2514 -27.7835 0.127 -0.940 0.316 125 44 51 0
-3.9512 26.3638 -27.5982 0.410 -0.457 0.789 134 47 58 0
2.9085 38.1755 -27.8492 -0.134 -0.117 0.984 142 84 57 0
5.8440 37.3518 -27.4754 0.301 -0.187 0.935 130 58 41 0
5.8491 37.7305 -27.5058 0.363 -0.191 0.912 130 58 43 0
8.0810 37.8493 -27.2826 0.467 -0.387 0.795 108 41 34 0
8.0532 39.4808 -27.4191 0.645 -0.432 0.631 101 37 35 0
8.1574 39.7188 -27.4277 0.645 -0.425 0.635 95 33 30 0
10.7093 38.0500 -27.0247 0.220 -0.966 0.134 87 35 33 0
8.0799 47.0353 -28.0348 0.438 0.053 0.898 81 43 40 0
9.8792 46.6238 -27.8133 0.826 0.063 0.560 96 63 60 0
6.2045 54.4307 -28.8361 -0.429 -0.881 0.198 113 91 81 0
6.7294 57.9255 -29.0674 0.636 -0.738 0.224 222 214 193 0
36.8448 36.8113 -24.1951 0.173 -0.393 0.903 208 196 182 0
40.1308 47.9438 -24.7636 -0.387 -0.398 0.832 192 180 164 0
36.5466 63.2909 -26.3943 0.913 -0.364 -0.182 195 182 164 0
36.7827 63.2089 -26.3629 0.866 -0.349 -0.357 196 182 163 0
35.8787 68.0001 -26.8496 0.965 -0.067 0.255 195 180 157 0
34.1251 85.9224 -28.5000 0.562 -0.827 -0.000 191 178 161 0
41.3536 67.4985 -26.2370 0.696 -0.623 0.358 190 172 153 0
46.7259 61.1176 -25.1538 0.307 -0.947 -0.093 175 155 134 0
45.7300 68.9788 -25.9014 0.076 -0.988 -0.134 247 246 245 0
45.3731 71.8045 -26.1700 -0.125 -0.956 -0.266 255 255 253 0
-33.1754 -0.4167 -28.6597 0.752 -0.592 -0.290 70 64 59 0
-32.9359 -0.1249 -28.6588 0.835 -0.527 -0.155 233 221 206 0
-49.7179 23.3403 -32.3850 -0.280 -0.303 0.911 235 228 212 0
-13.4980 26.9090 -28.8617 -0.058 -0.989 -0.137 115 57 61 0
-13.3016 27.0219 -28.8504 0.049 -0.993 -0.109 117 55 60 0
-12.9437 26.9679 -28.8081 -0.086 -0.995 -0.051 115 53 59 0
0.1667 28.2849 -27.5349 0.361 -0.604 0.711 115 36 40 0
2.3391 28.2121 -27.2997 0.540 -0.604 0.586 129 51 53 0
6.7480 36.0251 -27.4858 0.667 -0.421 0.615 123 54 35 0
8.3528 37.8404 -27.4679 0.430 -0.444 0.786 103 38 31 0
8.1683 39.3201 -27.6106 0.550 -0.449 0.705 98 35 32 0
10.7188 38.0561 -27.2362 0.215 -0.963 0.164 85 32 31 0
6.7513 57.9186 -29.3104 0.669 -0.709 0.225 221 212 195 0
7.2054 58.0975 -29.2774 0.624 -0.759 0.185 223 215 196 0
36.7962 35.9790 -24.3123 -0.120 -0.620 0.776 206 197 182 0
40.2033 47.7704 -24.9357 -0.414 -0.436 0.799 196 182 169 0
36.5281 63.4473 -26.6301 0.931 -0.267 -0.250 195 182 163 0
36.7500 63.4169 -26.6042 0.872 -0.342 -0.351 196 183 164 0
36.9529 63.4522 -26.5857 0.561 -0.704 -0.435 194 181 163 0
37.1972 64.1064 -26.6145 0.373 -0.648 -0.664 193 180 158 0
40.3010 67.6416 -26.5817 0.469 -0.713 -0.521 191 175 159 0
40.7346 67.5844 -26.5312 0.396 -0.908 -0.135 191 172 156 0
41.1325 67.6687 -26.4963 0.366 -0.742 0.562 190 172 156 0
41.4165 67.3473 -26.4395 0.681 -0.611 0.404 191 174 158 0
41.5923 67.4831 -26.4323 0.655 -0.637 0.406 191 174 157 0
45.1590 68.9563 -26.1788 0.136 -0.979 -0.153 174 158 138 0
45.3651 68.9348 -26.1553 0.221 -0.952 -0.213 113 104 93 0
45.5581 68.9755 -26.1383 0.230 -0.946 -0.228 50 51 49 0
45.7456 69.0428 -26.1242 0.066 -0.980 -0.187 247 247 245 0
45.3900 71.8654 -26.3970 -0.125 -0.956 -0.266 255 255 255 0
-33.2354 -0.3962 -28.8717 0.696 -0.659 -0.285 71 65 60 0
-17.9627 24.5265 -29.3580 0.958 -0.217 -0.187 232 224 210 0
-25.2107 32.3764 -30.7965 0.689 -0.585 -0.428 230 223 205 0
-21.0356 29.0161 -30.0664 0.667 -0.624 0.407 226 221 204 0
-6.1548 26.0067 -28.2249 -0.042 -0.995 -0.086 126 45 54 0
-4.9164 25.2554 -28.0292 0.410 -0.889 0.205 125 44 53 0
-3.9653 26.0723 -27.9971 0.850 -0.521 -0.078 133 52 58 0
-3.5993 25.9707 -27.9494 0.380 -0.471 0.796 133 51 57 0
-3.0791 26.3260 -27.9241 0.195 -0.840 0.507 133 47 55 0
-0.9143 26.9883 -27.7496 0.308 -0.739 0.600 135 46 51 0
-0.6983 27.0525 -27.7320 0.255 -0.755 0.604 129 41 46 0
0.1853 28.2703 -27.7411 0.395 -0.572 0.719 114 35 40 0
2.4496 28.0804 -27.4837 0.500 -0.658 0.564 128 49 52 0
2.6283 28.1856 -27.4735 0.230 -0.724 0.650 129 51 50 0
3.6206 30.6360 -27.5756 0.353 -0.715 0.603 117 40 32 0
3.9123 30.5926 -27.5409 0.444 -0.565 0.695 111 35 24 0
4.1282 32.0583 -27.6422 -0.154 -0.623 0.767 129 62 43 0
4.2158 32.2942 -27.6528 -0.199 -0.547 0.813 128 61 41 0
4.4474 33.7764 -27.7539 0.767 -0.459 0.448 139 83 51 0
4.6947 33.7939 -27.7290 0.711 -0.375 0.595 142 86 54 0
6.8106 35.5697 -27.6541 0.418 -0.566 0.711 122 51 33 0
6.8751 35.8531 -27.6713 0.672 -0.419 0.611 121 49 33 0
8.3409 39.4702 -27.8219 0.529 -0.479 0.701 90 29 28 0
9.8971 45.7579 -28.1894 0.916 -0.093 0.389 83 50 50 0
10.5927 45.4396 -28.0883 0.918 -0.008 0.397 87 58 55 0
6.8409 57.7882 -29.5358 0.616 -0.739 0.272 221 212 195 0
6.6856 58.5785 -29.6194 0.685 -0.692 0.226 222 213 195 0
8.3526 56.0182 -29.2245 0.734 -0.596 0.325 222 214 195 0
22.5707 42.1108 -26.5291 0.846 0.203 0.494 219 212 193 0
34.9267 61.6718 -26.8715 0.909 0.139 0.392 197 184 168 0
39.2652 49.1108 -25.3434 -0.400 -0.405 0.822 198 182 168 0
37.1431 62.1059 -26.6720 0.498 -0.851 0.165 196 183 165 0
37.4110 61.9001 -26.6260 0.284 -0.954 0.093 193 180 163 0
33.6520 87.0559 -29.1607 0.654 0.122 0.746 190 174 159 0
42.0928 60.3859 -25.9985 0.938 0.188 0.292 191 175 159 0
41.2890 65.3873 -26.5085 0.888 0.090 0.452 189 172 156 0
45.1898 68.9439 -26.3944 0.240 -0.945 -0.223 176 161 140 0
45.3821 68.9905 -26.3779 0.230 -0.946 -0.228 113 105 94 0
45.5749 69.0332 -26.3609 0.230 -0.946 -0.228 50 51 49 0
45.7810 69.0075 -26.3368 0.175 -0.957 -0.232 247 247 245 0
46.5878 67.9421 -26.1604 0.273 -0.929 -0.249 255 255 254 0
-18.1646 -6.3808 -26.9361 -0.390 -0.871 0.299 227 214 198 0
-19.0951 24.9869 -29.7438 0.891 -0.308 0.332 234 226 215 0
-19.1619 25.3545 -29.7827 0.944 -0.168 0.285 234 226 214 0
-24.9436 32.1196 -30.9893 0.764 -0.531 -0.368 229 222 204 0
-21.0718 28.7313 -30.2799 0.665 -0.621 0.415 229 222 203 0
-20.9956 28.9766 -30.2928 0.708 -0.592 0.386 227 220 203 0
-6.0528 24.9581 -28.3366 0.379 -0.776 0.505 124 44 53 0
-3.9483 26.0581 -28.2049 0.225 -0.938 0.263 133 52 58 0
-3.2429 25.8838 -28.1139 0.319 -0.642 0.698 130 47 53 0
-2.0897 26.1365 -28.0115 0.037 -0.718 0.695 129 42 50 0
-2.0084 26.6829 -28.0499 0.301 -0.861 0.411 127 40 46 0
2.6487 27.8354 -27.6478 0.516 -0.601 0.610 124 47 48 0
1.3027 30.5827 -28.0299 0.161 -0.892 -0.422 135 57 53 0
1.7155 30.7368 -27.9988 0.202 -0.883 -0.424 123 45 41 0
3.9444 30.5613 -27.7436 0.484 -0.598 0.638 109 35 26 0
4.5870 33.5948 -27.9362 0.818 -0.376 0.436 139 78 51 0
4.7451 33.7373 -27.9315 0.709 -0.290 0.643 142 82 55 0
6.9305 35.4090 -27.8404 0.332 -0.633 0.700 119 47 32 0
6.5505 54.3935 -29.5199 -0.464 -0.885 -0.041 119 99 88 0
42.2183 59.9754 -26.1603 0.931 0.193 0.311 191 175 159 0
41.4540 64.8108 -26.6600 0.761 0.123 0.637 191 174 158 0
45.2051 69.0081 -26.6183 0.232 -0.943 -0.239 176 160 141 0
45.3982 69.0514 -26.6013 0.232 -0.943 -0.239 112 104 93 0
45.5939 69.0799 -26.5826 0.222 -0.945 -0.241 50 51 50 0
45.7996 69.0570 -26.5585 0.170 -0.952 -0.253 246 246 245 0
45.4241 71.9875 -26.8519 -0.125 -0.956 -0.266 254 255 255 0
46.6203 67.9201 -26.3720 0.253 -0.936 -0.247 255 255 254 0
-25.0205 32.1919 -31.2473 0.891 -0.426 -0.159 229 222 205 0
-21.0010 28.9808 -30.5280 0.674 -0.694 0.251 227 220 203 0
-15.1676 27.3513 -29.7502 -0.220 -0.972 -0.080 117 62 67 0
-14.0797 26.8780 -29.5903 -0.234 -0.970 -0.063 118 59 66 0
-12.8261 26.2242 -29.3965 -0.141 -0.973 0.183 117 55 62 0
-5.8938 24.7871 -28.5161 0.378 -0.769 0.516 125 45 54 0
-4.0196 25.8274 -28.4035 0.576 -0.519 0.632 135 51 59 0
-3.8833 25.9891 -28.4028 0.340 -0.841 0.421 131 48 56 0
-1.9660 26.6392 -28.2513 0.307 -0.864 0.399 128 41 45 0
-0.8157 26.5600 -28.1192 0.693 -0.389 0.607 134 39 47 0
-0.6504 26.6847 -28.1122 0.595 -0.474 0.649 133 37 47 0
0.3733 28.7197 -28.1794 0.815 -0.522 0.252 118 41 46 0
1.2826 30.2753 -28.2171 0.316 -0.927 0.204 130 54 51 0
1.3456 30.5376 -28.2332 0.207 -0.968 -0.142 134 57 55 0
1.7182 30.7440 -28.2108 0.164 -0.885 -0.436 121 43 41 0
3.5330 30.0831 -27.9553 0.281 -0.781 0.557 118 43 41 0
3.6663 30.2513 -27.9556 0.280 -0.743 0.608 114 40 38 0
4.0429 30.4409 -27.9313 0.484 -0.598 0.638 107 35 28 0
4.9444 31.6725 -27.9413 0.383 -0.362 0.850 117 46 32 0
4.6784 33.4807 -28.1290 0.803 -0.364 0.473 137 74 50 0
4.9501 33.4629 -28.0979 0.674 -0.302 0.674 139 77 56 0
7.0004 35.3223 -28.0380 0.477 -0.633 0.610 118 45 32 0
8.0602 36.7867 -28.0513 0.301 -0.720 0.626 104 28 28 0
8.7583 38.8521 -28.1567 0.835 0.130 0.535 87 28 30 0
8.9612 39.3339 -28.1769 0.151 -0.446 0.882 83 29 30 0
10.4540 45.2917 -28.5375 0.993 -0.039 0.112 82 51 49 0
10.4423 45.7545 -28.5795 0.993 -0.037 0.116 84 54 52 0
23.0043 40.8157 -26.7790 0.949 -0.033 0.315 218 211 192 0
23.0294 41.2229 -26.8120 0.949 -0.033 0.315 220 212 193 0
23.0761 41.5874 -26.8390 0.946 -0.025 0.324 220 212 194 0
30.1076 46.7125 -26.5238 0.919 -0.395 0.022 212 199 183 0
37.0642 35.8962 -24.8173 0.789 0.040 0.613 206 194 178 0
36.8270 37.0738 -24.9465 0.602 -0.171 0.780 206 194 178 0
