ply
format ascii 1.0
element vertex 828
property float x
property float y
property float z
property float nx
property float ny
property float nz
property uchar diffuse_red
property uchar diffuse_green
property uchar diffuse_blue
property uchar class
end_header
-34.8065 24.0606 -18.5134 0.355 -0.878 0.321 245 227 191 0
-31.9093 22.1081 -18.3406 0.246 -0.820 0.517 243 227 191 0
-17.5815 42.5025 -18.1165 0.609 -0.750 -0.260 236 222 191 0
-17.7893 43.5560 -18.1481 0.889 -0.419 0.186 237 221 192 0
-17.0543 43.0040 -18.1030 0.342 -0.681 -0.647 236 221 190 0
-17.2339 43.6322 -18.1244 0.346 -0.680 -0.647 236 221 190 0
-13.9294 41.6719 -17.9329 0.480 -0.671 -0.565 231 214 184 0
-13.7271 42.1912 -17.9345 0.654 -0.750 0.103 235 211 183 0
-13.5798 42.3905 -17.9320 0.700 -0.673 0.239 235 207 180 0
-13.5084 42.6925 -17.9351 0.769 -0.600 0.219 224 190 166 0
-12.2210 41.7488 -17.8567 0.998 -0.036 0.049 195 157 133 0
-12.3147 42.2733 -17.8720 1.000 0.017 -0.019 182 144 121 0
-11.8273 42.8074 -17.8610 0.867 -0.498 -0.010 166 125 103 0
-11.9269 43.3481 -17.8769 0.086 -0.897 -0.433 163 121 99 0
-11.9241 43.7499 -17.8852 0.029 -0.807 -0.590 161 119 97 0
-10.8521 43.4763 -17.8307 0.752 -0.655 -0.067 160 114 94 0
-10.8419 43.8703 -17.8385 0.909 -0.416 -0.004 161 114 94 0
-10.7062 44.0890 -17.8369 0.258 -0.237 0.936 164 113 94 0
-10.3977 44.4755 -17.8309 0.201 -0.164 0.966 169 115 95 0
-10.1763 44.5736 -17.8229 0.263 -0.211 0.941 166 114 92 0
-2.7403 52.5174 -17.6512 0.984 0.141 -0.109 227 216 196 0
-3.0112 53.4585 -17.6833 0.985 0.092 -0.145 228 216 197 0
30.8470 60.4997 -16.2900 0.457 -0.886 -0.084 201 179 128 0
32.5009 58.3841 -16.1703 0.377 -0.925 0.042 202 179 129 0
30.2299 70.2010 -16.5217 0.938 0.109 -0.330 199 176 133 0
32.6970 70.3611 -16.4128 0.221 -0.104 0.970 190 169 121 0
32.6488 73.3781 -16.4783 0.319 -0.108 0.941 191 170 125 0
33.1525 74.1561 -16.4717 0.231 -0.148 0.962 187 164 120 0
45.4723 49.6219 -15.3960 0.398 -0.889 0.227 165 143 102 0
45.5253 52.3753 -15.4514 0.768 -0.395 0.504 161 139 100 0
-46.1580 13.0613 -19.0221 -0.398 -0.775 -0.492 229 211 178 0
-35.1300 23.1503 -18.7359 0.525 -0.710 0.469 242 222 185 0
-34.8591 23.7994 -18.7379 0.473 -0.721 0.506 247 228 192 0
-33.3049 22.7382 -18.6418 0.006 -0.997 0.077 245 228 193 0
-32.3947 22.2333 -18.5881 0.220 -0.893 0.393 244 228 192 0
-20.8437 43.0889 -18.5195 0.013 -0.987 -0.163 235 224 194 0
-20.0165 42.8423 -18.4755 -0.018 -0.988 -0.152 237 224 194 0
-18.2732 42.6035 -18.3891 0.884 -0.452 -0.121 236 223 191 0
-18.1517 42.8408 -18.3888 0.884 -0.452 -0.121 236 223 191 0
-18.3747 43.9147 -18.4232 0.991 -0.104 0.082 235 222 190 0
-18.4655 44.4295 -18.4390 0.663 -0.723 0.193 235 220 189 0
-18.3290 44.6537 -18.4377 0.627 -0.757 0.186 235 219 189 0
-17.4502 43.9165 -18.3803 0.316 -0.681 -0.661 235 219 189 0
-19.9249 47.5349 -18.5767 -0.366 -0.390 0.845 235 219 188 0
-13.9007 42.0325 -18.1729 0.487 -0.862 -0.142 212 185 158 0
-13.7270 42.1964 -18.1685 0.547 -0.726 0.417 203 173 147 0
-13.5662 42.3777 -18.1651 0.528 -0.666 0.527 188 152 126 0
-12.2995 42.2587 -18.1035 0.998 -0.019 0.052 164 119 97 0
-12.2051 42.5294 -18.1052 0.934 0.065 0.351 164 118 97 0
-11.6429 43.3671 -18.0979 -0.059 -0.355 0.933 157 110 87 0
-11.7978 43.9891 -18.1191 0.753 -0.613 -0.241 157 110 86 0
-10.8957 43.1383 -18.0580 0.762 -0.641 -0.091 157 108 86 0
-10.6950 43.2636 -18.0515 0.781 -0.622 -0.048 157 109 87 0
-10.6023 43.5408 -18.0534 0.797 -0.604 -0.012 160 108 88 0
-9.9399 43.4221 -18.0200 0.080 -0.274 0.959 160 105 87 0
-9.7064 43.4996 -18.0108 0.379 -0.130 0.916 160 105 87 0
-9.4328 43.5194 -17.9986 0.046 -0.497 0.866 159 106 86 0
-9.3013 43.7423 -17.9975 -0.080 -0.501 0.862 164 109 89 0
-5.5762 42.4162 -17.7945 0.976 -0.191 -0.102 161 101 85 0
-5.7266 43.0553 -17.8158 0.991 -0.131 0.006 161 102 86 0
-9.4417 54.0432 -18.2354 -0.115 -0.976 -0.184 171 133 105 0
-7.3793 51.7200 -18.0873 -0.578 -0.789 0.208 179 144 117 0
-3.0001 53.4583 -17.9227 0.983 0.094 -0.159 225 215 196 0
31.0457 60.6455 -16.5010 0.509 -0.771 -0.383 202 178 130 0
31.7297 72.5363 -16.7363 0.798 -0.576 0.176 191 170 123 0
31.9611 72.5310 -16.7254 0.768 -0.593 0.240 192 171 124 0
32.9813 73.0498 -16.6896 0.356 0.001 0.934 188 167 122 0
33.1474 74.2863 -16.7097 -0.102 -0.892 0.440 187 166 121 0
34.6585 79.9364 -16.7664 0.968 -0.080 0.236 185 161 115 0
42.1248 63.0959 -16.0409 0.984 0.132 0.118 172 149 108 0
-45.5099 12.8539 -19.2094 -0.391 -0.778 -0.491 231 212 179 0
-29.0362 3.2698 -18.1977 -0.342 -0.785 -0.516 227 209 174 0
-35.0013 23.6166 -18.9681 0.482 -0.738 0.473 246 227 191 0
-34.8098 23.7457 -18.9621 0.482 -0.738 0.473 247 229 194 0
-32.6442 22.1505 -18.8210 0.041 -0.959 0.279 245 229 195 0
-20.2191 42.7068 -18.7231 0.238 -0.574 0.784 235 224 194 0
-19.6073 46.7160 -18.7900 -0.306 -0.329 0.893 235 215 186 0
-13.7497 41.4435 -18.3857 0.197 -0.973 0.118 181 150 123 0
-13.2917 41.2275 -18.3587 -0.135 -0.804 0.579 169 135 109 0
-11.9222 41.3556 -18.2968 0.951 -0.245 0.188 163 116 92 0
-11.7809 41.9564 -18.3044 0.894 0.167 0.416 161 111 90 0
-11.7659 42.3351 -18.3128 0.895 0.188 0.404 159 110 87 0
-11.8008 42.7843 -18.3252 0.893 0.198 0.403 154 107 83 0
-11.7533 43.1220 -18.3310 -0.050 -0.358 0.932 153 106 82 0
-10.9771 43.2594 -18.2975 0.217 -0.876 0.431 154 104 80 0
-10.6911 43.2656 -18.2840 0.217 -0.881 0.421 154 103 81 0
-9.2567 43.6868 -18.2260 0.320 -0.108 0.941 153 98 81 0
-9.6617 54.4030 -18.5018 -0.123 -0.974 -0.188 161 117 93 0
-8.0035 53.1870 -18.3939 0.041 -0.147 0.988 167 127 101 0
-4.3814 51.5261 -18.1822 0.499 -0.754 0.427 228 210 185 0
-3.2330 54.8486 -18.2072 0.982 0.096 -0.161 225 212 195 0
21.4831 58.8381 -17.1290 -0.364 -0.840 0.403 217 201 174 0
23.4408 55.9290 -16.9664 -0.461 -0.798 0.388 218 201 172 0
27.5699 70.7178 -17.1243 0.973 0.225 0.048 202 179 134 0
30.8817 60.5318 -16.7232 0.521 -0.724 -0.452 202 180 133 0
31.4350 61.6854 -16.7246 0.480 -0.653 -0.586 202 177 135 0
30.3962 72.4130 -17.0307 0.982 0.157 -0.107 196 173 129 0
31.9327 72.7475 -16.9657 0.798 -0.576 0.176 192 171 126 0
41.3406 50.6566 -15.9902 0.529 -0.556 -0.642 181 157 113 0
41.4987 50.7856 -15.9858 0.402 -0.613 -0.680 180 157 113 0
42.1699 64.0725 -16.2720 0.293 -0.752 0.590 169 146 105 0
-29.5196 1.3965 -18.3654 0.772 -0.093 0.628 229 211 178 0
-35.0624 23.0698 -19.1849 0.532 -0.548 0.646 240 224 188 0
-34.7664 23.4019 -19.1790 0.378 -0.577 0.724 247 229 193 0
-19.7448 40.2095 -18.8781 0.316 -0.704 0.636 240 224 198 0
-21.7578 43.8286 -19.0676 0.024 -0.810 0.586 236 224 195 0
-13.0892 40.9631 -18.5746 -0.160 -0.714 0.682 162 123 98 0
-12.5614 40.6504 -18.5411 -0.313 -0.681 0.662 164 122 98 0
-9.6399 40.2094 -18.3882 0.504 -0.391 0.770 152 102 80 0
-10.7111 42.4910 -18.4982 0.010 -0.341 0.940 151 97 76 0
-5.7171 53.2688 -18.5300 0.700 0.122 0.704 219 190 160 0
-3.6904 57.1492 -18.5304 0.518 -0.823 -0.236 225 212 194 0
12.1237 57.9068 -17.7831 0.441 -0.893 -0.088 221 211 186 0
12.7366 57.0836 -17.7325 0.139 -0.882 -0.450 221 211 185 0
20.5402 40.7184 -16.9383 0.981 -0.164 -0.101 221 209 186 0
24.3046 41.3555 -16.7720 -0.308 -0.632 -0.711 217 206 178 0
28.7021 78.1360 -17.4936 0.896 -0.302 -0.324 197 174 130 0
41.3374 50.7744 -16.1858 0.294 -0.640 -0.710 180 157 115 0
42.2975 63.5094 -16.4629 0.234 -0.669 0.706 171 148 105 0
46.5911 41.7844 -15.7026 0.037 -0.724 -0.689 167 144 102 0
46.9703 40.5763 -15.6535 0.483 -0.341 -0.806 166 143 102 0
46.6961 52.1822 -15.9618 -0.267 -0.896 -0.355 158 132 97 0
-34.9657 22.9755 -19.4049 0.290 -0.512 0.808 240 226 189 0
-34.8450 23.1648 -19.4040 0.281 -0.515 0.810 244 229 193 0
-20.2367 40.8095 -19.1560 0.442 -0.708 -0.550 241 224 198 0
-19.7599 40.6078 -19.1270 0.561 -0.637 -0.528 239 224 198 0
-22.3452 44.5534 -19.3610 0.647 -0.368 -0.667 235 224 195 0
-22.1681 44.7306 -19.3570 0.637 -0.375 -0.674 235 225 196 0
-19.5423 45.4218 -19.2457 -0.193 -0.217 0.957 237 217 188 0
-6.2483 45.9950 -18.6036 0.644 -0.332 0.690 148 89 77 0
-5.2438 52.9802 -18.7417 0.552 -0.828 0.097 210 179 143 0
-3.6234 56.5526 -18.7577 0.746 -0.666 0.006 225 212 195 0
-3.4488 56.7482 -18.7543 0.746 -0.666 0.006 226 213 195 0
2.7285 47.8119 -18.2084 0.567 -0.397 0.721 225 215 190 0
26.7942 20.5009 -16.2837 0.386 0.101 0.917 220 210 186 0
13.3417 55.7372 -17.8966 -0.107 -0.889 -0.444 220 210 185 0
20.5169 40.8061 -17.1402 0.939 -0.192 -0.285 222 209 187 0
20.7379 42.3175 -17.1699 0.837 -0.434 0.332 221 209 187 0
23.5537 42.2361 -17.0285 -0.317 -0.635 -0.705 218 206 179 0
27.9585 69.5067 -17.5440 0.977 0.187 -0.102 203 181 134 0
27.9643 80.1272 -17.8293 0.935 -0.226 -0.273 197 175 131 0
34.3424 77.4844 -17.4428 0.989 -0.132 -0.067 186 162 121 0
34.6611 79.2169 -17.4736 0.799 -0.280 -0.533 181 157 116 0
42.3444 64.4893 -16.6975 0.499 -0.851 0.162 168 147 104 0
-38.0466 4.6476 -19.2675 0.683 -0.600 0.415 227 208 182 0
-45.9230 24.0545 -20.2155 0.347 -0.005 0.938 238 216 185 0
-17.5447 36.0734 -19.1249 0.625 -0.499 -0.600 239 225 199 0
-22.5966 44.4692 -19.6179 0.450 -0.739 -0.502 238 225 198 0
-22.3206 44.5247 -19.6056 0.563 -0.537 -0.628 235 224 196 0
-21.1652 44.2804 -19.5403 -0.295 -0.362 0.884 234 222 192 0
-10.9380 38.8764 -18.8711 -0.024 -0.409 0.912 177 124 99 0
-5.6002 48.5132 -18.8752 0.850 -0.386 -0.358 139 85 73 0
-2.8477 55.7195 -18.9408 0.574 -0.670 -0.471 226 212 195 0
24.9978 27.3563 -16.7313 0.786 0.241 0.569 223 212 189 0
13.5708 55.8188 -18.1153 -0.107 -0.889 -0.444 219 209 184 0
20.9380 40.3608 -17.3051 0.943 0.081 0.323 222 209 187 0
21.0478 40.6058 -17.3065 0.956 0.067 0.287 222 209 187 0
41.1613 68.8795 -17.0940 0.772 -0.072 0.632 171 150 107 0
41.3980 68.7221 -17.0776 0.814 -0.397 -0.425 170 149 106 0
46.7263 42.1822 -16.0558 0.202 -0.630 -0.750 166 143 102 0
-45.2560 23.8086 -20.4137 0.524 0.090 0.847 237 216 185 0
-35.4925 23.1129 -19.8907 0.237 -0.697 0.676 241 225 191 0
-17.5856 36.4855 -19.3688 0.742 -0.552 -0.382 240 224 199 0
-17.4628 36.7015 -19.3689 0.726 -0.553 -0.408 239 224 197 0
-22.7110 45.0070 -19.8868 -0.105 -0.153 0.983 237 222 195 0
-20.5405 43.5050 -19.7303 -0.282 -0.345 0.895 235 219 191 0
-11.1200 39.5124 -19.1266 0.122 -0.873 0.473 183 127 100 0
-10.8607 39.5507 -19.1144 0.124 -0.875 0.468 174 117 90 0
-10.6402 39.6411 -19.1058 0.137 -0.877 0.460 167 110 85 0
-8.1429 39.7212 -18.9797 0.426 -0.382 0.820 141 77 62 0
-7.9828 40.2872 -18.9884 0.508 -0.468 0.723 146 78 69 0
-8.0949 40.8445 -19.0108 0.425 -0.561 0.710 143 76 67 0
-5.8110 43.2348 -18.9646 0.639 -0.510 0.576 129 67 54 0
-6.2447 48.6460 -19.1485 0.428 -0.032 0.903 129 74 66 0
-6.1980 49.0200 -19.1572 0.428 -0.032 0.903 129 73 66 0
20.7417 41.8670 -17.5580 0.963 -0.084 0.256 223 211 188 0
20.8378 42.1520 -17.5616 0.966 -0.141 0.216 221 209 186 0
20.8951 42.5311 -17.5699 0.966 -0.141 0.216 221 209 185 0
32.8980 75.9004 -17.9487 0.919 -0.298 -0.257 186 165 122 0
40.2187 61.1816 -17.1327 0.808 -0.210 -0.551 180 157 115 0
40.3686 61.4331 -17.1325 0.908 -0.111 -0.403 177 154 112 0
41.1561 67.9208 -17.2857 0.937 -0.283 -0.204 170 148 107 0
41.2820 68.3623 -17.2924 0.990 -0.139 -0.018 170 148 106 0
45.0399 50.8091 -16.5751 0.766 -0.592 0.250 167 145 104 0
-17.5614 37.1875 -19.6199 0.709 -0.449 -0.544 238 223 196 0
-19.5385 42.2600 -19.8825 -0.226 -0.312 0.923 237 219 190 0
-18.5476 41.7980 -19.8161 -0.227 -0.316 0.921 236 216 186 0
-16.2749 40.8566 -19.6675 -0.139 -0.221 0.965 170 134 108 0
-11.9579 37.9483 -19.3500 0.562 -0.150 0.813 172 124 94 0
-11.8962 38.2467 -19.3561 0.569 -0.186 0.801 176 125 95 0
-11.8058 38.5085 -19.3596 0.569 -0.186 0.801 180 127 97 0
-11.1079 37.9660 -19.3060 0.360 -0.928 -0.091 180 124 96 0
-7.8691 39.7383 -19.1917 0.393 -0.399 0.828 142 74 64 0
-7.8430 40.4951 -19.2141 0.557 -0.521 0.646 144 75 67 0
-2.6826 52.5487 -19.3212 0.023 -0.348 0.937 217 189 159 0
1.2794 49.0222 -19.0030 0.268 -0.936 0.229 225 211 186 0
13.9211 55.6584 -18.5481 -0.029 -0.850 -0.525 220 210 186 0
21.7672 40.4913 -17.6616 0.971 -0.035 -0.235 220 210 182 0
22.2445 46.2156 -17.8159 0.817 0.106 0.566 213 203 175 0
29.4771 65.9789 -18.0559 0.762 0.207 0.613 202 182 138 0
34.0461 81.3492 -18.2980 0.199 -0.584 -0.787 184 163 118 0
41.1673 67.9985 -17.5063 0.946 -0.307 -0.101 169 148 107 0
45.0783 50.7198 -16.7599 0.855 -0.516 0.043 167 145 104 0
45.0315 51.9933 -16.8023 0.894 -0.379 0.240 166 144 104 0
-31.8207 5.1533 -19.5621 -0.341 -0.809 -0.479 230 211 181 0
-26.2608 2.7604 -19.1865 0.309 -0.411 -0.857 229 213 178 0
-33.4209 21.8904 -20.1968 0.434 -0.723 -0.538 244 225 195 0
-11.6461 37.9220 -19.5597 0.102 -0.969 -0.226 184 131 100 0
-11.2048 37.7193 -19.5294 0.360 -0.924 -0.127 184 128 98 0
-10.9814 37.8029 -19.5202 0.368 -0.920 -0.131 181 123 93 0
-7.7522 39.1878 -19.3932 0.507 -0.344 0.790 145 78 65 0
-7.6211 39.3965 -19.3930 0.493 -0.345 0.799 141 73 63 0
-7.7475 40.3674 -19.4317 0.549 -0.520 0.654 141 69 62 0
-6.3248 42.3604 -19.4211 0.352 -0.687 0.635 128 68 58 0
-4.2289 51.3742 -19.6049 0.524 -0.210 0.826 141 93 77 0
-3.9977 51.9300 -19.6108 0.519 -0.211 0.828 148 104 83 0
-3.2382 51.1350 -19.5441 0.196 -0.242 0.950 154 112 85 0
1.4085 50.7160 -19.2821 0.099 -0.966 0.239 225 213 192 0
1.4580 55.0760 -19.4226 0.819 -0.180 0.544 225 214 194 0
14.5808 55.3093 -18.7292 -0.240 -0.792 -0.561 222 212 185 0
41.0289 66.6600 -17.6889 0.979 0.054 0.197 172 150 109 0
40.9656 68.1051 -17.7397 0.983 -0.107 -0.149 170 149 108 0
-35.9571 2.9853 -19.9112 0.747 -0.510 -0.427 226 208 177 0
-51.0973 17.3854 -21.2288 0.399 -0.558 0.728 230 212 179 0
-29.8126 4.3993 -19.6253 -0.476 -0.847 -0.236 232 211 180 0
-43.9059 21.5494 -20.9804 0.501 -0.143 0.854 233 216 182 0
-21.0314 42.9443 -20.4696 -0.274 -0.252 0.928 237 219 189 0
-20.1583 42.2564 -20.3985 -0.274 -0.252 0.928 239 218 189 0
-16.5066 40.3872 -20.1357 -0.290 -0.481 0.827 165 121 98 0
-10.9988 38.2116 -19.7614 0.961 -0.150 -0.231 171 112 81 0
-7.2105 40.4088 -19.6306 0.179 -0.748 0.639 135 62 54 0
-3.5387 45.3166 -19.5992 0.493 -0.852 0.176 126 66 65 0
-3.3527 45.4581 -19.5939 0.494 -0.841 0.218 126 66 63 0
-2.2581 46.3440 -19.5648 0.325 -0.934 0.149 131 74 66 0
-3.6769 51.4138 -19.8158 0.544 -0.133 0.828 142 94 78 0
-3.6746 51.8808 -19.8317 0.621 0.128 0.773 148 101 80 0
-4.1243 53.1079 -19.8983 0.796 0.157 0.584 150 107 83 0
14.3955 55.7814 -18.9823 -0.182 -0.789 -0.588 222 212 188 0
23.6938 35.9732 -17.7970 0.323 -0.786 -0.528 222 212 186 0
40.2618 62.3254 -17.7994 0.688 -0.308 -0.657 177 154 112 0
40.0670 69.6707 -18.0619 0.908 -0.400 -0.127 176 152 112 0
40.8505 68.8619 -17.9916 0.968 -0.243 0.056 171 149 108 0
45.8935 42.6499 -16.8182 0.978 -0.067 -0.200 171 150 108 0
45.3651 48.3773 -17.0434 0.973 -0.139 0.186 168 146 105 0
-36.0460 3.0277 -20.1171 0.747 -0.510 -0.427 225 208 175 0
-19.1326 35.0822 -20.3270 0.171 -0.968 -0.185 238 226 201 0
-18.8660 35.1269 -20.3139 0.171 -0.968 -0.185 238 226 201 0
-10.8971 38.0811 -19.9781 0.977 -0.169 -0.132 167 108 77 0
-10.8129 38.7350 -19.9968 0.116 -0.295 0.948 160 101 73 0
-3.6069 45.4376 -19.8374 0.474 -0.866 0.160 123 64 59 0
-3.3533 45.4728 -19.8247 0.445 -0.887 0.127 122 63 56 0
-3.2309 45.7158 -19.8266 0.458 -0.867 0.198 122 62 55 0
-2.8076 45.9183 -19.8104 0.160 -0.970 0.181 122 59 54 0
-2.5600 45.9614 -19.7982 0.160 -0.970 0.181 125 63 57 0
-2.3630 46.0856 -19.7917 0.171 -0.936 0.307 128 66 60 0
-1.9799 45.9077 -19.7641 0.357 -0.933 0.051 128 68 62 0
-2.3329 47.3752 -19.8362 0.485 -0.862 0.148 132 73 65 0
-3.5226 50.2425 -20.0047 0.312 -0.139 0.940 132 77 67 0
-3.6773 50.9632 -20.0391 0.137 -0.239 0.961 133 81 69 0
-0.8227 56.7572 -20.0882 0.518 0.150 0.843 222 213 192 0
23.6603 36.0868 -17.9922 0.317 -0.792 -0.522 220 211 187 0
33.8775 82.5082 -19.0872 0.601 -0.440 -0.667 183 161 119 0
34.3376 81.4782 -19.0249 0.988 -0.002 0.153 181 159 117 0
34.3314 82.6188 -19.0661 0.989 0.022 0.148 180 157 117 0
39.8373 62.5394 -18.0425 0.247 -0.713 -0.656 179 156 114 0
40.1708 62.9009 -18.0370 0.308 -0.839 -0.448 176 153 111 0
45.1246 51.8510 -17.3671 0.993 -0.032 0.116 164 145 104 0
-36.1447 3.0765 -20.3242 0.782 -0.495 -0.378 224 207 177 0
-16.5083 34.4754 -20.3870 0.914 -0.385 0.127 234 221 196 0
-10.6613 37.3927 -20.1660 0.929 -0.163 -0.331 163 105 76 0
-10.1808 37.1328 -20.1292 -0.232 -0.798 0.556 160 100 71 0
-2.9598 45.7364 -20.0427 -0.093 -0.964 -0.249 123 59 54 0
-1.9343 45.8486 -19.9890 0.383 -0.923 0.036 128 64 59 0
-2.5061 47.6743 -20.0893 0.334 -0.875 0.350 130 68 63 0
-2.4407 48.0196 -20.0985 0.469 -0.734 0.491 130 69 62 0
-2.5051 48.5807 -20.1230 0.489 -0.724 0.486 129 71 63 0
-3.1294 50.0726 -20.2138 0.036 -0.254 0.967 129 73 64 0
-3.1366 51.0171 -20.2494 0.300 -0.064 0.952 132 77 67 0
34.5309 78.5357 -19.1508 0.977 0.160 0.144 184 161 120 0
40.1579 63.0872 -18.2577 0.476 -0.863 -0.170 177 154 113 0
-19.5119 39.5587 -20.9837 -0.375 -0.414 0.829 230 213 187 0
-18.7996 39.0685 -20.9238 -0.370 -0.406 0.836 230 210 185 0
-15.6125 35.9126 -20.6186 0.624 -0.399 0.672 188 156 133 0
-10.1641 37.1154 -20.3526 -0.266 -0.754 0.601 153 92 66 0
-4.9358 41.9873 -20.2413 0.569 -0.453 0.686 122 58 51 0
-3.8085 43.2022 -20.2237 0.395 -0.657 0.642 133 67 61 0
-1.9799 45.9377 -20.2248 0.388 -0.921 0.048 127 59 58 0
-2.8546 47.8075 -20.3475 0.365 -0.809 0.460 127 63 60 0
-2.7884 48.1519 -20.3570 0.216 -0.893 0.394 130 66 62 0
-2.6546 48.3870 -20.3584 0.296 -0.851 0.433 131 67 63 0
-2.7844 49.0577 -20.3919 0.204 -0.958 0.202 131 69 64 0
-3.2379 51.2036 -20.5011 0.218 -0.089 0.972 130 71 66 0
-2.7510 50.8585 -20.4598 0.509 0.106 0.854 128 74 64 0
24.8451 36.7368 -18.3288 -0.490 -0.864 -0.118 219 209 184 0
40.8289 62.8935 -18.4252 0.505 -0.783 -0.362 176 153 113 0
46.0812 41.0693 -17.2780 0.941 0.038 -0.336 173 150 111 0
45.3780 47.6980 -17.5752 0.975 0.135 -0.176 169 147 107 0
45.0899 53.3430 -17.8105 0.892 -0.427 0.150 165 144 105 0
45.2262 53.6087 -17.8130 0.693 -0.717 -0.070 164 142 103 0
-35.5231 2.4163 -20.6617 0.647 -0.713 -0.269 226 208 180 0
-16.6821 33.6197 -20.8175 0.196 -0.805 0.560 234 222 195 0
-15.4824 35.7545 -20.8334 0.624 -0.399 0.672 164 127 107 0
-13.2674 35.9229 -20.7108 -0.286 -0.954 -0.095 167 111 87 0
-10.0443 33.6359 -20.4306 0.769 -0.247 0.589 205 143 117 0
-10.4788 37.1601 -20.5978 -0.192 -0.625 0.757 155 90 69 0
-9.5938 36.7377 -20.5292 -0.274 -0.765 0.583 151 84 65 0
-3.7044 43.0539 -20.4395 0.395 -0.657 0.642 133 66 61 0
-1.9667 45.9313 -20.4539 0.388 -0.921 0.048 127 59 58 0
34.4290 80.3370 -19.7136 0.946 0.157 0.283 184 161 119 0
40.4555 62.8575 -18.6583 0.948 -0.317 -0.023 176 153 112 0
40.7088 63.6360 -18.6749 0.350 -0.711 -0.610 178 155 114 0
45.6461 42.6216 -17.5409 0.943 -0.141 -0.302 175 151 113 0
45.6746 45.2275 -17.6441 0.994 -0.009 -0.112 170 146 110 0
45.7103 47.9154 -17.7502 0.448 -0.785 -0.427 166 144 107 0
45.6248 49.3936 -17.8147 0.506 -0.786 -0.355 165 144 107 0
46.9782 47.5898 -17.6631 0.582 -0.333 -0.742 161 139 102 0
-35.6246 2.4667 -20.8687 0.642 -0.716 -0.273 226 208 180 0
-45.4346 28.6880 -22.5455 -0.035 -0.755 0.655 243 223 196 0
-32.5759 24.6327 -21.6128 0.509 -0.841 -0.181 241 227 201 0
-31.1541 23.6518 -21.4874 0.947 -0.311 -0.076 241 227 201 0
-15.9940 32.4570 -20.9547 0.292 -0.609 0.738 233 224 195 0
-16.2412 33.8024 -21.0255 0.939 -0.338 0.065 235 221 194 0
-16.1416 34.0380 -21.0294 0.934 -0.352 0.063 235 218 193 0
-16.0159 34.2430 -21.0305 0.928 -0.364 0.078 236 215 190 0
-15.9177 34.4816 -21.0347 0.914 -0.390 0.112 234 210 186 0
-14.9595 36.5748 -21.0651 -0.092 -0.975 -0.200 163 109 92 0
-14.8734 36.8367 -21.0709 -0.015 -0.998 -0.066 167 112 94 0
-13.9941 36.1048 -20.9882 0.369 -0.847 -0.382 170 115 96 0
-7.3583 35.9875 -20.5893 0.608 -0.266 0.748 137 74 61 0
-2.0050 46.0085 -20.6896 0.330 -0.942 0.063 129 59 58 0
-0.4498 46.5806 -20.6211 0.897 -0.418 0.143 125 64 61 0
0.2541 46.3033 -20.5678 0.618 -0.329 0.714 125 68 62 0
1.2484 50.1650 -20.6699 0.922 -0.186 0.339 150 108 87 0
45.6104 48.6028 -17.9706 0.350 -0.753 -0.558 166 144 107 0
-35.6426 2.4626 -21.0688 0.519 -0.823 -0.231 225 209 180 0
-45.0817 28.6934 -22.7725 0.650 -0.760 0.013 245 224 199 0
-44.7319 28.7138 -22.7523 0.931 -0.365 -0.010 244 224 200 0
-32.4229 24.4853 -21.8263 0.830 -0.539 0.144 239 224 201 0
-26.4482 20.2528 -21.2827 -0.271 -0.635 0.723 241 227 204 0
-16.4810 33.7341 -21.2636 0.755 -0.632 -0.176 235 220 193 0
-16.3784 33.9660 -21.2675 0.760 -0.633 -0.149 236 219 193 0
-16.2300 34.1439 -21.2662 0.760 -0.633 -0.149 239 216 192 0
-15.3709 36.7191 -21.3256 -0.178 -0.946 -0.272 165 108 93 0
-2.7629 45.9186 -20.9621 0.582 -0.169 0.795 132 56 54 0
-2.6690 46.2101 -20.9690 0.582 -0.169 0.795 130 56 54 0
-2.5748 46.5023 -20.9760 0.582 -0.169 0.795 130 57 56 0
-2.6795 47.1188 -21.0089 0.352 -0.416 0.838 130 56 56 0
-2.7711 47.7179 -21.0404 0.842 -0.261 0.472 130 56 57 0
2.4133 55.5098 -21.0641 0.411 -0.462 0.786 222 211 192 0
40.7819 63.5131 -19.0936 -0.084 -0.706 0.703 177 155 114 0
45.5596 49.0144 -18.1784 0.449 -0.476 -0.756 165 143 106 0
-37.1037 2.0679 -21.3402 0.747 -0.571 -0.340 255 255 255 0
-37.0311 2.2415 -21.3435 0.745 -0.560 -0.364 255 255 255 0
-34.6312 2.2258 -21.1955 0.874 -0.430 0.227 228 213 181 0
-44.9857 28.6004 -23.0104 0.794 -0.597 -0.115 242 225 199 0
-32.2905 24.3564 -22.0415 0.859 -0.512 -0.014 236 224 200 0
-31.1725 23.6492 -21.9412 0.719 -0.529 -0.451 237 225 202 0
-16.3015 34.5867 -21.5177 0.793 -0.595 -0.129 194 160 140 0
-8.4862 35.6460 -21.0854 0.184 -0.171 0.968 143 72 60 0
-8.3246 35.8037 -21.0825 0.124 -0.269 0.955 141 72 59 0
-5.7393 37.1909 -20.9859 0.533 -0.471 0.703 130 68 57 0
-5.7161 37.5462 -21.0004 0.659 -0.521 0.543 127 65 54 0
-5.5551 37.7068 -20.9976 0.655 -0.523 0.546 122 60 49 0
-5.4627 37.9657 -21.0036 0.425 -0.610 0.669 123 59 50 0
-5.2668 38.0771 -20.9965 0.459 -0.612 0.644 127 63 54 0
-2.4296 45.8391 -21.1695 0.587 -0.167 0.792 131 57 56 0
-2.3788 46.2003 -21.1825 0.576 -0.174 0.799 135 61 62 0
-2.3749 46.6395 -21.2019 0.383 -0.434 0.815 133 59 58 0
-2.6658 47.5618 -21.2610 0.810 -0.433 0.395 133 59 58 0
-0.0569 46.4079 -21.0493 0.647 -0.730 0.221 126 62 58 0
0.0923 46.6099 -21.0492 0.631 -0.745 0.217 126 64 60 0
1.4917 50.2535 -21.1262 0.809 -0.469 0.355 135 93 76 0
2.1756 55.9839 -21.3405 0.458 -0.469 0.755 222 210 193 0
34.6306 66.7185 -19.8287 0.382 0.075 0.921 198 176 136 0
36.3457 76.0490 -20.1407 0.926 0.054 -0.374 180 157 117 0
37.2920 73.6500 -19.9753 0.907 0.025 -0.420 180 156 118 0
40.9375 63.8871 -19.3150 0.633 0.065 0.772 178 153 114 0
-37.2233 2.1280 -21.5508 0.818 -0.504 -0.279 255 255 255 0
-35.7097 2.6963 -21.4827 0.576 -0.740 -0.347 226 212 180 0
-38.3324 5.1003 -21.7573 -0.115 -0.610 0.784 228 211 181 0
-37.2843 24.5248 -22.5896 0.974 0.143 0.178 236 223 195 0
-32.2358 24.2974 -22.2642 0.852 -0.520 -0.059 236 224 200 0
-10.9162 33.3210 -21.3515 0.104 -0.449 0.888 164 94 80 0
-10.7524 33.4725 -21.3483 0.161 -0.451 0.878 167 93 79 0
-9.6314 32.4013 -21.2288 0.292 -0.823 0.487 166 90 78 0
-7.8468 36.2935 -21.2974 0.049 -0.287 0.957 134 69 55 0
-5.8185 36.9238 -21.2000 0.707 -0.410 0.576 119 58 46 0
-5.5475 36.9272 -21.1833 0.785 -0.368 0.498 124 64 53 0
-5.3614 37.8288 -21.2133 0.556 -0.650 0.518 120 57 47 0
-5.2044 37.9957 -21.2113 0.579 -0.611 0.540 120 56 46 0
-2.8621 44.7903 -21.3791 0.863 -0.480 0.156 128 55 48 0
-0.1858 46.6411 -21.2978 0.647 -0.758 0.082 126 61 55 0
-0.0827 46.9220 -21.3043 0.466 -0.881 -0.083 126 63 57 0
0.5197 47.7323 -21.3042 0.741 -0.661 -0.118 120 62 59 0
0.7206 47.8499 -21.2971 0.815 -0.579 0.023 121 63 61 0
1.7572 49.8018 -21.3226 0.731 -0.669 0.134 132 88 74 0
1.2577 58.8025 -21.7697 0.923 -0.011 0.384 222 210 194 0
20.5286 45.9442 -19.9736 0.444 -0.896 0.030 220 209 188 0
20.3124 47.0186 -20.0367 -0.198 -0.935 0.293 220 209 187 0
19.1566 65.4721 -20.9616 -0.018 -0.980 -0.196 214 202 180 0
35.5110 62.2057 -19.7906 0.335 0.063 0.940 204 182 140 0
46.9141 48.5103 -18.4465 -0.022 -0.899 -0.437 161 139 102 0
47.0635 48.6551 -18.4439 -0.071 -0.957 -0.282 162 138 102 0
-37.2960 2.1581 -21.7576 0.745 -0.560 -0.364 255 255 255 0
-33.6137 2.4047 -21.5360 0.799 -0.598 -0.057 228 211 181 0
-13.5737 34.1353 -21.7798 0.345 0.028 0.938 152 94 80 0
-13.5023 34.4070 -21.7883 0.256 -0.001 0.967 152 92 78 0
-9.2400 32.6173 -21.4328 0.442 -0.679 0.586 149 77 63 0
-9.0577 32.7409 -21.4271 0.442 -0.679 0.586 145 73 60 0
-8.8375 32.8154 -21.4167 0.449 -0.675 0.586 142 69 57 0
-7.6402 33.0551 -21.3523 0.237 -0.440 0.866 135 63 51 0
-7.1760 32.8033 -21.3109 0.320 -0.502 0.804 139 67 55 0
-6.9526 32.8693 -21.2999 0.591 -0.433 0.680 139 67 55 0
-4.9849 37.6887 -21.4051 0.305 -0.810 0.501 117 53 42 0
-4.9276 41.6251 -21.5892 0.597 -0.798 -0.075 130 60 48 0
-3.7196 41.4609 -21.5049 0.346 -0.891 0.292 128 54 45 0
0.4762 47.8250 -21.5426 0.771 -0.633 -0.066 120 61 58 0
0.7384 47.8377 -21.5266 0.797 -0.604 -0.008 121 61 60 0
2.4543 49.5349 -21.4988 0.608 -0.246 0.754 131 88 77 0
20.0796 45.9878 -20.2127 0.276 -0.961 0.008 220 212 193 0
20.2796 46.0454 -20.2028 0.276 -0.961 0.008 222 211 193 0
20.5213 46.0009 -20.1853 0.302 -0.949 -0.087 220 209 190 0
18.9882 65.9985 -21.2365 0.012 -0.918 -0.395 213 201 181 0
19.3971 65.5519 -21.1892 -0.128 -0.888 -0.443 214 202 180 0
35.6497 63.5158 -20.0622 0.793 0.153 0.590 193 173 132 0
34.8538 69.7573 -20.4104 0.913 0.114 0.391 185 169 127 0
35.3556 76.6598 -20.7079 0.929 -0.085 -0.359 181 163 120 0
41.5799 61.8434 -19.6066 0.625 -0.073 0.777 176 150 112 0
44.0765 49.6906 -18.8687 -0.104 -0.461 0.881 174 149 112 0
46.7935 49.3737 -18.6814 0.245 -0.713 -0.657 162 140 103 0
-37.4789 2.2587 -21.9754 0.730 -0.596 -0.335 255 255 255 0
-36.8950 3.8911 -22.0181 0.407 -0.522 0.750 231 211 184 0
-35.3558 10.4079 -22.2397 0.771 -0.487 -0.411 232 214 184 0
-38.7737 26.3889 -23.2460 0.976 0.194 0.099 234 223 195 0
-32.9307 24.2984 -22.7670 -0.391 -0.664 0.637 236 223 201 0
-15.1680 33.9374 -22.0979 0.550 0.098 0.829 148 97 83 0
-3.7195 41.4720 -21.7317 0.551 -0.833 0.051 132 58 47 0
-3.2727 42.0407 -21.7309 0.838 -0.417 0.352 138 62 52 0
-0.7109 45.3028 -21.7265 0.128 -0.852 0.507 128 52 55 0
-0.9066 49.7419 -21.9575 0.061 -0.555 0.830 122 57 56 0
0.7575 47.8233 -21.7560 0.820 -0.571 0.036 120 59 58 0
2.1335 48.2268 -21.6873 0.794 -0.157 0.587 118 68 63 0
2.9855 48.1285 -21.6276 0.489 -0.739 0.464 118 73 66 0
2.7960 48.9428 -21.6799 0.535 -0.611 0.583 118 74 66 0
20.3068 46.0182 -20.4088 0.375 -0.926 -0.043 220 212 193 0
20.3284 46.5101 -20.4316 0.431 -0.872 -0.231 221 211 193 0
19.4341 65.5058 -21.4238 0.126 -0.751 -0.648 215 202 183 0
35.5194 63.2639 -20.2781 0.843 -0.082 -0.532 197 176 140 0
35.8607 62.7172 -20.2292 0.877 -0.007 -0.481 195 175 139 0
35.7965 63.9025 -20.2917 0.863 -0.025 -0.505 190 172 134 0
35.1225 68.6957 -20.5709 0.927 0.108 0.360 185 168 130 0
35.7432 78.2189 -20.9995 0.992 0.113 -0.063 181 162 120 0
34.3538 86.0049 -21.4720 0.761 -0.638 0.121 180 160 118 0
45.4291 50.2593 -19.0004 0.011 -0.907 -0.421 170 147 107 0
-35.2566 23.3432 -23.1006 0.971 0.231 0.060 234 223 196 0
-44.0023 33.1730 -24.1706 0.992 -0.124 0.027 234 222 197 0
-30.9749 22.5424 -22.7801 -0.094 -0.715 0.693 234 222 199 0
-28.9580 21.3218 -22.5864 -0.491 -0.769 0.408 235 223 201 0
-13.9311 32.4429 -22.1679 0.302 -0.152 0.941 146 91 81 0
-6.6002 32.7722 -21.7054 0.626 -0.472 0.621 140 67 59 0
-5.1023 37.8740 -21.8661 0.616 -0.532 0.581 119 57 44 0
-5.0949 38.2570 -21.8851 0.666 -0.570 0.481 115 52 43 0
-4.5454 41.0749 -21.9920 0.086 -0.741 0.666 130 57 47 0
-3.4488 41.4869 -21.9412 0.893 -0.447 0.047 127 53 40 0
-0.6545 45.2256 -21.9481 0.118 -0.779 0.616 133 57 61 0
1.9631 48.0770 -21.9216 -0.079 -0.702 0.708 118 62 59 0
2.2266 48.0825 -21.9046 0.781 -0.173 0.600 117 63 60 0
2.7128 49.1131 -21.9251 0.339 -0.670 0.661 112 66 61 0
2.4869 49.9998 -21.9848 0.470 -0.764 0.442 116 72 66 0
2.3456 51.2281 -22.0563 0.723 -0.099 0.684 125 81 72 0
3.7443 55.1753 -22.1650 0.559 -0.297 0.774 223 211 195 0
20.3170 46.0321 -20.6181 0.375 -0.926 -0.043 220 212 193 0
20.4942 46.1449 -20.6122 0.387 -0.863 -0.325 219 211 190 0
27.7721 74.1258 -21.5551 0.139 -0.965 -0.224 204 190 163 0
36.2561 62.9396 -20.4334 0.872 0.054 -0.486 187 169 133 0
35.6794 67.3271 -20.6935 0.853 0.018 -0.521 186 168 129 0
39.8246 53.3792 -19.7154 0.967 0.153 -0.202 180 164 121 0
34.5845 86.2047 -21.7221 0.837 -0.548 -0.006 180 158 119 0
-37.5809 4.0834 -22.4806 0.565 -0.574 -0.592 232 210 186 0
-36.1520 3.5948 -22.3603 0.410 -0.447 0.795 233 213 186 0
-36.0119 3.7277 -22.3579 0.410 -0.447 0.795 232 212 185 0
-43.9394 27.3534 -24.1173 0.075 -0.044 0.996 237 223 196 0
-28.4830 20.8854 -22.7538 -0.476 -0.780 0.407 236 224 202 0
-10.0079 31.1213 -22.0619 0.402 -0.915 0.034 144 79 71 0
-5.9024 37.8497 -22.1406 0.516 -0.367 0.774 120 61 47 0
-4.5236 41.0528 -22.2163 0.085 -0.853 0.515 129 59 47 0
-4.3834 41.2546 -22.2175 0.684 -0.656 0.318 132 61 49 0
-3.1939 41.5254 -22.1527 0.428 -0.876 0.223 128 54 40 0
-3.4208 43.9924 -22.2965 0.603 -0.693 0.396 142 70 59 0
-1.1087 45.5423 -22.2240 -0.105 -0.965 0.239 136 60 63 0
-0.4482 44.9018 -22.1467 -0.108 -0.712 0.693 136 61 63 0
2.5043 49.5084 -22.1912 0.845 -0.175 0.505 111 64 61 0
2.2881 50.3797 -22.2510 0.481 -0.720 0.501 113 67 63 0
2.2725 51.3832 -22.3045 0.685 -0.145 0.714 121 77 68 0
3.8987 54.9048 -22.3803 0.559 -0.297 0.774 222 211 194 0
20.8220 71.0522 -22.1000 -0.133 -0.806 0.577 214 197 176 0
32.8165 48.5189 -20.1277 0.882 -0.230 -0.412 208 194 167 0
35.0467 45.5297 -19.8237 0.504 -0.852 -0.144 205 193 165 0
27.7993 74.1163 -21.7968 0.118 -0.973 -0.200 205 191 164 0
35.8499 64.8017 -20.7763 0.958 0.218 0.185 188 170 132 0
34.7317 85.6303 -21.9377 0.644 -0.710 0.286 180 158 119 0
35.2759 84.1533 -21.8245 0.835 -0.208 0.510 181 158 120 0
35.8733 85.9582 -21.8791 0.923 -0.381 0.062 178 154 117 0
42.3309 61.4144 -20.1694 0.930 0.042 -0.365 170 151 110 0
45.6096 55.8423 -19.6609 0.932 0.077 0.355 162 141 104 0
-38.5372 4.6948 -22.7826 0.930 -0.366 -0.048 231 212 185 0
-43.5721 26.4220 -24.2885 0.113 -0.180 0.977 236 222 196 0
-11.9272 31.4054 -22.4241 0.051 -0.401 0.914 137 77 72 0
-10.0525 31.1794 -22.2857 0.396 -0.918 -0.010 147 81 75 0
-8.8254 31.3862 -22.2141 0.778 -0.509 -0.369 137 63 59 0
-8.3295 31.8137 -22.2036 -0.032 -0.420 0.907 128 52 49 0
-6.8052 31.2538 -22.0709 -0.043 -0.677 0.735 129 52 49 0
-4.9579 34.6101 -22.1266 0.292 -0.670 0.682 116 57 41 0
-4.3090 41.1537 -22.4343 0.617 -0.786 -0.021 131 61 47 0
2.5598 49.4298 -22.4159 0.781 -0.217 0.586 113 63 61 0
2.5350 52.4090 -22.5776 0.754 -0.295 0.587 124 86 74 0
3.3054 56.0726 -22.7224 0.848 0.151 0.508 221 210 192 0
32.6720 49.0821 -20.3685 0.924 -0.191 -0.330 208 194 168 0
36.2352 63.2356 -20.8885 0.949 0.216 0.230 190 170 135 0
35.8725 86.1085 -22.1411 0.911 -0.395 0.121 178 154 118 0
36.1166 86.0918 -22.1237 0.747 -0.599 -0.288 178 154 118 0
42.1830 62.3460 -20.4400 0.930 0.042 -0.365 170 149 110 0
46.3297 44.5480 -19.2049 -0.030 -0.628 -0.778 169 146 112 0
46.8407 44.5310 -19.1696 -0.033 -0.631 -0.775 168 146 109 0
45.7394 59.7899 -20.0631 0.872 -0.488 -0.036 162 138 102 0
-38.5507 4.6873 -22.9899 0.930 -0.366 -0.048 231 212 184 0
-41.9099 25.3390 -24.3595 0.582 -0.247 0.775 236 220 196 0
-41.9134 25.9483 -24.3934 0.167 -0.009 0.986 235 220 197 0
-24.7571 19.7812 -22.8799 0.925 -0.052 0.376 237 226 207 0
-23.9200 19.2934 -22.7957 0.800 0.148 0.582 238 227 208 0
-22.1635 36.4138 -23.6206 0.390 -0.474 0.789 226 217 202 0
-10.4124 31.2815 -22.5339 0.163 -0.393 0.905 133 69 61 0
-9.7599 31.1650 -22.4828 0.093 -0.345 0.934 138 70 67 0
-6.7559 31.1932 -22.2790 0.476 -0.570 0.670 132 57 52 0
-6.5043 31.2187 -22.2632 -0.038 -0.711 0.702 133 60 53 0
-5.7224 38.0011 -22.5841 0.191 -0.968 -0.166 118 59 43 0
-5.0865 38.2704 -22.5555 0.770 -0.528 0.358 117 57 45 0
-4.0993 41.2619 -22.6531 0.640 -0.746 0.186 133 65 49 0
2.7263 47.7285 -22.5433 0.816 -0.263 0.515 117 56 53 0
2.8280 48.0189 -22.5524 0.864 -0.464 -0.195 115 57 53 0
2.8853 48.3902 -22.5690 0.880 -0.467 -0.090 113 58 55 0
2.9516 48.7473 -22.5841 0.425 -0.722 0.546 114 62 58 0
3.3226 48.5568 -22.5483 0.761 -0.620 0.192 115 63 59 0
3.3300 49.0221 -22.5734 0.793 -0.565 0.228 116 65 60 0
3.5621 56.1299 -22.9499 0.554 -0.176 0.814 220 211 191 0
4.0068 55.7948 -22.9010 0.354 -0.845 0.400 221 212 194 0
22.4891 66.8938 -22.2499 -0.307 -0.742 0.595 210 199 175 0
34.5816 40.6582 -19.9749 0.681 -0.472 0.560 209 196 170 0
42.0634 50.2706 -19.9939 0.882 -0.194 -0.430 182 160 121 0
42.0677 51.1555 -20.0425 0.978 -0.043 -0.206 183 161 122 0
42.2567 51.1404 -20.0287 0.814 -0.090 -0.573 181 159 120 0
-16.2309 33.0847 -23.2584 -0.506 -0.612 0.608 143 99 88 0
-9.0427 29.5717 -22.5605 0.395 -0.520 0.758 133 67 60 0
-8.7554 29.5568 -22.5397 0.671 -0.417 0.613 133 68 61 0
-8.4933 29.5726 -22.5225 0.690 -0.455 0.563 136 67 65 0
-8.4235 29.8307 -22.5322 0.398 -0.605 0.690 139 70 66 0
-8.2462 29.9534 -22.5269 0.398 -0.605 0.690 140 72 66 0
-8.1650 30.1985 -22.5352 0.374 -0.612 0.697 143 73 67 0
-6.5946 30.9855 -22.4708 0.511 -0.602 0.613 139 65 59 0
-4.2456 41.0797 -22.8802 0.640 -0.746 0.186 130 64 46 0
-4.0711 41.2303 -22.8766 0.640 -0.746 0.186 133 66 49 0
-3.8965 41.3810 -22.8731 0.640 -0.746 0.186 137 68 52 0
0.6856 44.4030 -22.7265 0.058 -0.954 0.295 148 73 70 0
-0.0094 47.3769 -22.9433 -0.368 -0.882 0.296 137 63 60 0
1.4080 46.3364 -22.7860 0.476 -0.846 0.239 139 66 68 0
1.5673 46.5209 -22.7854 0.487 -0.797 0.357 133 63 63 0
1.6001 48.7943 -22.9120 0.742 -0.591 0.315 120 55 51 0
1.8694 48.7931 -22.8933 0.552 -0.655 0.516 119 55 49 0
2.7653 48.1510 -22.7947 0.906 -0.414 -0.090 115 55 50 0
2.8742 48.9073 -22.8300 0.417 -0.748 0.516 112 57 53 0
3.2399 49.2069 -22.8217 0.336 -0.920 -0.202 116 62 56 0
3.2938 49.5917 -22.8397 0.929 -0.345 0.136 116 64 58 0
2.8030 51.9614 -23.0082 0.686 -0.109 0.719 116 75 67 0
3.5146 55.7232 -23.1721 0.848 0.151 0.508 218 207 185 0
3.7270 55.8381 -23.1639 0.632 -0.114 0.766 218 209 188 0
4.2361 55.3766 -23.1024 0.455 -0.674 0.582 219 210 191 0
35.7094 76.8317 -22.1353 0.861 0.022 -0.509 185 163 126 0
41.9708 51.7389 -20.2781 0.956 -0.074 -0.283 183 161 124 0
46.6019 51.3632 -19.9355 0.861 -0.096 -0.499 165 141 107 0
46.3506 66.2094 -20.7947 0.314 -0.931 -0.188 254 255 253 0
-37.8018 2.3660 -23.2161 0.710 -0.597 -0.374 255 255 255 0
-37.9495 2.6827 -23.2450 0.542 -0.751 -0.377 254 254 254 0
-6.8109 30.5640 -22.6761 0.430 -0.566 0.703 153 78 73 0
-6.6363 30.6895 -22.6711 0.506 -0.600 0.619 148 72 67 0
-6.4972 30.8618 -22.6713 0.502 -0.604 0.619 142 67 61 0
-6.3356 31.3616 -22.6890 0.513 -0.538 0.669 129 54 46 0
1.6725 48.6868 -23.1338 0.789 -0.396 0.470 121 56 50 0
1.8915 48.7742 -23.1234 0.621 -0.625 0.473 118 53 47 0
2.9275 47.4118 -22.9712 0.752 -0.263 0.605 117 53 46 0
2.6541 48.3696 -23.0462 0.882 -0.471 0.022 116 54 48 0
2.6917 48.7780 -23.0673 0.432 -0.706 0.561 117 58 53 0
2.8881 48.9034 -23.0608 0.432 -0.706 0.561 121 63 59 0
3.2261 49.2536 -23.0574 0.336 -0.920 -0.202 114 58 54 0
3.4586 49.3136 -23.0445 0.583 -0.812 0.022 115 61 56 0
3.4919 51.2080 -23.1525 0.862 -0.490 0.129 118 77 71 0
3.5463 51.6034 -23.1716 0.863 -0.345 0.369 118 80 71 0
3.8921 55.0229 -23.3463 0.802 0.107 0.587 220 206 185 0
3.8332 55.6595 -23.3875 0.606 -0.064 0.793 219 207 187 0
3.3371 57.1499 -23.5092 0.633 0.119 0.765 221 210 191 0
31.8314 52.1766 -21.2142 0.449 -0.534 0.717 207 195 170 0
42.3791 52.6128 -20.4972 0.693 -0.233 -0.682 179 157 120 0
46.5320 51.9290 -20.1651 0.861 -0.096 -0.499 163 143 108 0
47.0634 53.0773 -20.1945 0.003 -0.913 -0.407 162 138 102 0
46.3690 66.2632 -21.0108 0.299 -0.936 -0.184 254 255 253 0
-37.6149 3.7978 -23.4913 0.746 -0.635 -0.203 229 212 182 0
-24.5883 18.7441 -23.4538 0.778 -0.626 0.052 237 224 207 0
-18.7564 34.6324 -23.9861 -0.380 -0.811 0.445 146 108 99 0
-17.4403 33.8032 -23.8426 -0.471 -0.817 0.332 142 98 91 0
-16.5858 33.1512 -23.7427 -0.557 -0.761 0.332 143 95 90 0
-16.1257 32.9601 -23.6984 -0.607 -0.772 0.189 139 88 81 0
-6.7213 30.4509 -22.8772 0.440 -0.565 0.698 145 67 61 0
-3.8766 40.5472 -23.2770 0.578 -0.686 0.442 126 65 40 0
-3.5510 41.2947 -23.2984 0.540 -0.842 -0.014 139 73 50 0
0.8245 43.7618 -23.1333 -0.268 -0.848 0.456 157 83 77 0
1.0631 45.1437 -23.1988 0.233 -0.904 0.359 147 71 62 0
1.2734 46.6035 -23.2709 0.638 -0.766 0.076 142 69 60 0
1.3265 47.4355 -23.3168 0.692 -0.526 0.496 129 57 52 0
3.1737 48.8892 -23.2717 0.839 -0.474 0.268 128 70 67 0
3.2123 49.3003 -23.2935 0.336 -0.920 -0.202 119 61 59 0
3.4891 49.2800 -23.2725 0.557 -0.827 0.081 115 60 57 0
3.6507 49.4691 -23.2723 0.852 -0.123 0.508 113 62 59 0
3.1811 50.8175 -23.3863 0.257 -0.256 0.932 111 64 61 0
3.3350 51.5219 -23.4174 0.821 -0.570 -0.004 113 72 67 0
3.3464 51.9987 -23.4451 0.927 -0.133 0.350 115 75 68 0
3.8686 55.6179 -23.6239 0.614 0.131 0.778 222 206 188 0
39.7569 60.8465 -21.3740 0.201 -0.967 -0.155 184 161 127 0
42.6308 52.4007 -20.6646 0.853 -0.256 -0.455 179 157 121 0
45.4558 52.0446 -20.4416 0.498 -0.166 0.851 170 147 113 0
45.4508 53.1280 -20.5067 0.462 -0.087 0.882 167 145 110 0
45.5387 53.6823 -20.5335 0.462 -0.074 0.884 166 143 109 0
46.7379 48.6882 -20.1497 0.534 -0.731 0.424 163 143 108 0
46.7951 53.7820 -20.4498 0.937 -0.290 0.196 162 140 103 0
46.3882 66.3118 -21.2269 0.299 -0.936 -0.184 254 255 254 0
-6.3180 10.5507 -21.8441 0.301 -0.953 -0.043 237 230 212 0
-6.1606 10.6495 -21.8388 0.431 -0.834 -0.343 236 229 211 0
-14.5214 21.0874 -23.0830 -0.583 -0.808 0.086 234 227 212 0
-22.9263 36.5525 -24.6381 -0.454 -0.741 0.494 226 218 201 0
-18.6128 34.4643 -24.1980 -0.356 -0.790 0.500 142 100 92 0
-16.6371 32.8598 -23.9568 -0.366 -0.678 0.638 136 90 83 0
-16.0657 32.5380 -23.8957 -0.522 -0.697 0.491 135 87 81 0
-10.7855 29.3249 -23.3168 -0.199 -0.780 0.593 128 66 66 0
-6.5774 30.2673 -23.0698 0.473 -0.567 0.674 127 48 45 0
-6.4290 30.4264 -23.0688 0.462 -0.573 0.677 125 46 43 0
-6.3089 30.6227 -23.0721 0.488 -0.495 0.718 127 48 46 0
-4.3895 32.3704 -23.0401 0.877 -0.381 0.293 117 53 43 0
-4.0737 33.0396 -23.0582 0.718 -0.621 0.315 118 59 45 0
-3.8526 33.1028 -23.0461 0.635 -0.658 0.405 115 56 42 0
-3.2911 44.2991 -23.6908 0.427 -0.796 0.430 145 77 64 0
-3.0401 44.3380 -23.6750 0.451 -0.786 0.423 145 77 65 0
0.4900 44.7777 -23.4464 0.419 -0.905 0.077 161 85 74 0
0.6484 44.9600 -23.4460 0.460 -0.875 0.150 159 82 72 0
3.2081 49.3295 -23.5282 0.357 -0.923 0.145 113 54 53 0
3.5069 49.2695 -23.5029 0.557 -0.827 0.081 112 55 54 0
3.8040 49.2110 -23.4778 0.855 -0.144 0.499 111 58 56 0
3.4323 50.3790 -23.5762 0.257 -0.256 0.932 110 62 58 0
3.4576 51.3181 -23.6319 0.900 -0.317 0.299 112 69 65 0
3.4914 51.7528 -23.6560 0.922 -0.300 0.246 112 71 65 0
4.2090 54.9862 -23.8020 0.690 0.051 0.722 223 205 188 0
4.1609 55.6040 -23.8433 0.736 0.121 0.666 222 207 191 0
4.1563 57.7466 -23.9748 0.279 -0.283 0.918 223 212 194 0
39.9885 60.8218 -21.5690 0.370 -0.721 0.586 182 161 128 0
40.0732 61.3994 -21.5982 0.530 -0.837 0.138 181 158 124 0
42.6034 53.6126 -20.9383 0.606 -0.479 -0.635 180 156 123 0
45.3781 51.5831 -20.6133 0.530 -0.231 0.816 169 148 113 0
45.4927 51.9641 -20.6283 0.608 -0.174 0.775 168 147 112 0
45.5882 52.4615 -20.6518 0.479 -0.193 0.856 165 145 110 0
45.6781 52.9994 -20.6782 0.338 -0.232 0.912 165 144 109 0
45.7983 53.3646 -20.6919 0.734 -0.158 0.661 166 143 109 0
46.6091 49.5945 -20.4024 0.733 -0.634 -0.245 165 144 109 0
46.4250 66.2406 -21.4347 0.151 -0.977 -0.149 254 255 254 0
-40.6248 5.9646 -24.2587 0.796 -0.388 -0.465 230 213 184 0
-6.3274 10.5561 -22.0291 0.301 -0.953 -0.043 236 228 213 0
-6.1645 10.6494 -22.0230 0.454 -0.822 -0.345 236 228 213 0
-22.6553 36.2438 -24.8388 -0.433 -0.727 0.532 229 219 201 0
-22.0567 35.9242 -24.7748 -0.450 -0.742 0.497 230 217 201 0
-18.4652 34.2915 -24.4088 -0.348 -0.808 0.476 136 92 83 0
-17.9666 34.0646 -24.3579 -0.288 -0.799 0.528 135 87 79 0
-16.2131 32.3615 -24.1224 -0.321 -0.611 0.723 135 85 79 0
-4.4639 32.4785 -23.2673 0.836 -0.327 0.440 119 55 46 0
-4.1901 32.8374 -23.2697 0.730 -0.603 0.322 119 57 44 0
-4.0248 32.9782 -23.2664 0.724 -0.609 0.325 120 58 45 0
-3.7957 33.0302 -23.2529 0.635 -0.658 0.405 117 55 43 0
-4.2666 36.7390 -23.5201 0.842 -0.535 -0.075 122 65 46 0
-3.4217 39.8855 -23.6554 0.532 -0.821 0.209 127 70 43 0
-3.4460 44.1222 -23.9229 0.356 -0.792 0.497 148 84 64 0
0.3571 45.0158 -23.6998 0.418 -0.811 0.409 166 90 74 0
0.7043 44.8830 -23.6660 0.340 -0.866 0.366 165 89 74 0
1.0558 44.7410 -23.6313 0.300 -0.948 0.102 164 87 74 0
1.2807 44.8105 -23.6191 0.300 -0.948 0.107 162 86 72 0
1.3614 46.9493 -23.7473 0.878 -0.425 0.222 133 56 45 0
1.3181 47.4875 -23.7843 0.121 -0.443 0.888 134 56 48 0
3.2877 48.2483 -23.6874 0.654 -0.408 0.637 115 52 51 0
3.2581 49.2606 -23.7531 0.398 -0.901 0.171 113 52 51 0
3.5606 49.1936 -23.7267 0.549 -0.827 0.122 112 55 53 0
4.0699 48.7469 -23.6613 0.752 -0.443 0.488 110 57 55 0
4.1114 56.2563 -24.1292 0.768 0.221 0.601 221 207 190 0
22.9448 75.2114 -23.9356 -0.135 -0.874 0.466 207 194 174 0
45.4387 52.4091 -20.8544 -0.184 -0.873 0.452 168 148 113 0
45.6098 52.4704 -20.8457 -0.191 -0.875 0.446 168 147 112 0
45.7837 52.5137 -20.8356 -0.156 -0.838 0.524 168 145 111 0
46.7002 52.4228 -20.7626 0.829 -0.430 -0.358 163 144 109 0
46.4401 66.3176 -21.6532 0.122 -0.979 -0.166 254 255 254 0
-14.1872 20.7259 -23.4513 -0.560 -0.817 0.139 233 227 213 0
-22.3861 35.9370 -25.0384 -0.437 -0.732 0.523 227 215 197 0
-21.8054 35.6367 -24.9759 -0.450 -0.742 0.497 223 206 191 0
-18.3277 34.1305 -24.6204 -0.180 -0.536 0.825 131 85 77 0
-15.1238 31.7747 -24.2307 -0.560 -0.674 0.482 129 72 69 0
-8.7281 27.8261 -23.5012 0.828 -0.540 0.149 132 66 64 0
-4.1026 32.7227 -23.4715 0.396 -0.770 0.501 115 53 42 0
-3.3830 32.4614 -23.4012 0.815 -0.579 -0.013 116 54 43 0
-3.4044 32.8614 -23.4284 0.359 -0.705 0.611 116 54 43 0
-3.0771 33.5200 -23.4464 -0.115 -0.949 0.293 116 58 43 0
-3.3907 39.8494 -23.8762 0.532 -0.821 0.209 126 70 43 0
-3.2014 39.9736 -23.8701 0.532 -0.821 0.209 128 72 44 0
-2.8630 42.3722 -23.9990 0.144 -0.981 0.127 148 86 57 0
-2.6541 42.4718 -23.9899 0.192 -0.973 0.128 149 87 60 0
-3.3497 43.9846 -24.1388 0.058 -0.874 0.482 150 88 62 0
-3.3382 44.3992 -24.1646 0.324 -0.702 0.634 149 84 63 0
-3.1403 44.5226 -24.1578 0.317 -0.713 0.625 149 81 64 0
0.7067 44.8957 -23.8955 0.388 -0.842 0.374 168 96 74 0
0.9602 44.9185 -23.8781 0.021 -0.905 0.426 170 95 75 0
1.2702 44.8452 -23.8503 0.366 -0.860 0.355 165 90 70 0
1.5716 44.7848 -23.8240 0.375 -0.875 0.306 160 85 65 0
1.6874 45.0388 -23.8317 0.300 -0.660 0.688 154 79 60 0
4.1266 47.7072 -23.8216 0.634 -0.483 0.604 117 56 54 0
4.5278 47.4540 -23.7754 0.536 -0.548 0.642 116 57 54 0
21.9774 75.1231 -24.2541 0.225 -0.756 0.615 208 196 172 0
23.1888 72.8612 -24.0187 0.371 -0.471 0.800 208 196 174 0
23.4340 72.8773 -24.0015 0.341 -0.433 0.834 208 196 174 0
23.0107 75.0741 -24.1741 -0.135 -0.874 0.466 207 195 173 0
25.1933 70.3399 -23.7076 0.949 0.259 0.180 207 195 173 0
45.8731 52.1228 -20.9988 0.696 -0.197 0.690 168 144 110 0
46.2715 51.8951 -20.9545 -0.159 -0.840 0.519 166 144 110 0
46.3862 52.2882 -20.9712 0.509 -0.457 -0.729 163 144 108 0
46.5115 52.6211 -20.9833 0.533 -0.564 -0.631 162 145 109 0
46.4608 66.3568 -21.8693 0.122 -0.979 -0.166 254 255 255 0
-38.4966 2.9498 -24.3238 0.566 -0.763 -0.313 255 255 255 0
-34.7518 2.3063 -23.9991 0.070 -0.912 -0.403 231 214 186 0
-8.8630 27.9937 -23.7352 0.797 -0.584 -0.154 134 67 65 0
-7.4679 28.2955 -23.6498 0.336 -0.669 0.663 137 62 64 0
-7.3194 28.4502 -23.6488 0.384 -0.576 0.722 138 64 64 0
-5.9641 29.4797 -23.6142 0.330 -0.454 0.828 130 53 53 0
-4.0608 32.6712 -23.6805 0.530 -0.723 0.443 114 51 41 0
-3.4015 32.4938 -23.6191 0.809 -0.587 0.006 116 54 43 0
-2.9998 33.7938 -23.6743 0.568 -0.643 0.514 113 57 40 0
-3.0360 34.2235 -23.7052 0.429 -0.717 0.550 114 60 42 0
-2.7625 42.2287 -24.2109 0.105 -0.980 0.168 149 89 57 0
-3.1370 44.0968 -24.3619 0.884 -0.388 0.261 151 86 62 0
-3.0399 44.3779 -24.3731 0.271 -0.801 0.533 148 81 61 0
4.9607 48.1192 -24.0156 0.590 -0.103 0.800 107 60 54 0
4.2509 57.1066 -24.6599 0.764 0.217 0.608 219 208 190 0
23.6197 71.5459 -24.1484 0.478 -0.439 0.761 209 197 175 0
23.5921 72.4400 -24.2092 0.285 -0.442 0.851 208 196 174 0
42.6002 61.1506 -22.0335 0.698 -0.164 -0.697 172 152 119 0
41.9635 66.8747 -22.4578 0.751 0.002 -0.660 171 150 115 0
45.9664 50.6537 -21.0896 0.481 -0.113 0.870 170 147 113 0
46.6408 65.3064 -22.0020 0.178 -0.965 -0.193 254 255 255 0
-38.5719 2.9814 -24.5371 0.566 -0.763 -0.313 255 255 255 0
-36.8200 25.7837 -25.9367 -0.617 -0.687 0.384 235 222 205 0
-23.3656 36.3193 -25.6169 -0.547 -0.738 0.396 232 218 201 0
-20.2426 34.5645 -25.2602 -0.428 -0.779 0.458 144 108 99 0
-7.3395 28.1360 -23.8417 0.643 -0.625 0.443 140 64 63 0
-7.1954 28.2959 -23.8414 0.630 -0.644 0.434 136 60 58 0
-6.9134 28.6243 -23.8420 0.584 -0.673 0.454 134 60 55 0
-3.9561 33.2739 -23.9286 0.179 -0.944 -0.278 112 50 39 0
-2.7241 32.2915 -23.7684 0.640 -0.432 0.635 115 53 41 0
-2.9936 33.7926 -23.8899 0.568 -0.655 0.498 114 56 42 0
-3.0188 34.2067 -23.9197 0.280 -0.629 0.725 113 58 41 0
-6.3589 46.4904 -25.0010 0.281 -0.380 0.882 137 84 50 0
-6.1703 46.6399 -24.9967 0.281 -0.380 0.882 140 86 51 0
-4.0493 44.2360 -24.6729 0.225 -0.971 0.084 150 93 59 0
-2.9525 44.2537 -24.5903 0.278 -0.796 0.537 152 86 66 0
-0.5292 43.4279 -24.3495 0.411 -0.875 -0.257 160 87 77 0
-0.4171 43.6827 -24.3581 0.357 -0.902 -0.241 159 88 75 0
2.6633 45.2146 -24.2257 0.226 -0.411 0.883 136 56 46 0
4.3861 45.8684 -24.1380 0.233 -0.692 0.684 123 56 51 0
5.3604 47.4038 -24.1668 0.411 -0.174 0.895 114 63 59 0
5.4817 47.6595 -24.1747 0.445 -0.161 0.881 107 60 54 0
5.6446 48.3233 -24.2069 0.638 -0.074 0.766 106 63 56 0
6.2900 47.5988 -24.1088 0.955 -0.024 0.297 108 67 60 0
4.8333 52.3432 -24.5392 0.988 -0.031 0.152 114 83 78 0
28.1836 54.0804 -22.8714 0.267 0.022 0.964 210 197 180 0
29.8327 53.6361 -22.7155 0.999 0.022 0.032 208 195 176 0
33.9369 61.2431 -22.9134 0.947 0.163 -0.278 203 189 168 0
46.7580 50.3091 -21.1982 -0.220 -0.626 0.748 163 143 107 0
46.6602 65.3531 -22.2173 0.178 -0.965 -0.193 254 255 255 0
-38.5638 2.7354 -24.7254 0.667 -0.651 -0.363 255 255 255 0
-38.6048 2.9857 -24.7457 0.670 -0.697 -0.256 255 255 255 0
-36.8035 3.1708 -24.6190 0.399 -0.874 0.277 231 214 191 0
-20.5827 34.5964 -25.5237 -0.428 -0.779 0.458 146 115 105 0
-20.1771 34.4880 -25.4848 -0.414 -0.774 0.479 138 101 93 0
-19.3702 33.9171 -25.3831 -0.449 -0.721 0.529 132 91 85 0
-18.4239 33.5320 -25.2833 0.208 -0.545 0.812 126 81 77 0
-15.7731 31.4962 -24.9381 -0.502 -0.560 0.659 124 73 70 0
-9.2730 28.1620 -24.2054 0.779 -0.565 0.272 135 64 61 0
-8.9343 28.0844 -24.1739 0.802 -0.578 -0.151 138 67 62 0
-4.1670 33.5747 -24.1822 0.649 -0.704 -0.289 112 50 39 0
-4.0327 33.7615 -24.1847 0.674 -0.689 -0.265 113 51 39 0
-2.9224 33.6989 -24.0944 0.568 -0.655 0.498 114 55 41 0
-2.9019 34.0475 -24.1168 0.794 -0.474 0.382 114 57 42 0
-5.4479 45.1069 -25.0744 0.669 -0.426 0.609 134 83 48 0
-4.4203 44.3911 -24.9456 0.223 -0.957 0.185 140 89 52 0
4.3680 45.4564 -24.3383 0.373 -0.623 0.688 132 65 59 0
4.5843 45.9999 -24.3589 0.756 -0.647 -0.101 122 57 51 0
4.2908 47.4735 -24.4829 0.842 -0.359 0.404 115 52 47 0
6.0673 48.5281 -24.4179 0.961 -0.010 0.275 110 69 65 0
4.9337 52.1768 -24.7566 0.990 -0.141 -0.027 112 80 75 0
4.1782 58.9399 -25.2801 0.812 0.249 0.528 221 212 195 0
46.0790 49.2240 -21.3672 0.334 -0.182 0.925 166 145 114 0
46.3530 49.6915 -21.3782 0.289 -0.144 0.946 165 146 112 0
46.6587 49.9776 -21.3742 0.317 -0.121 0.941 164 145 109 0
46.7974 50.2079 -21.3793 -0.135 -0.558 0.819 163 143 107 0
47.3526 51.1512 -21.4011 -0.021 -0.587 0.810 163 143 102 0
47.3434 54.6599 -21.6431 -0.289 -0.893 -0.345 162 139 106 0
46.6342 65.7111 -22.4579 0.252 -0.932 -0.260 254 255 254 0
-38.6616 3.0052 -24.9575 0.687 -0.693 -0.217 255 255 255 0
-46.4730 16.6964 -26.5325 0.930 -0.198 -0.310 229 214 191 0
-45.8260 16.5026 -26.4681 0.059 -0.706 -0.706 229 214 191 0
-45.5698 16.5885 -26.4541 0.049 -0.711 -0.701 228 216 192 0
-34.3301 23.5875 -26.0641 -0.565 -0.736 0.373 237 224 207 0
-14.6544 20.0097 -24.2691 -0.530 -0.621 0.578 235 227 214 0
-23.1380 34.9885 -25.9873 0.465 -0.542 0.700 231 222 205 0
-18.8420 33.3090 -25.5322 -0.409 -0.654 0.636 131 87 81 0
-19.2546 34.1367 -25.6228 -0.497 -0.720 0.485 129 81 78 0
-17.8655 32.8848 -25.4258 -0.071 -0.604 0.794 125 77 73 0
-9.4318 27.0128 -24.3515 0.259 -0.913 0.314 135 69 69 0
-9.6842 27.9898 -24.4400 0.649 -0.740 0.178 146 73 73 0
-9.5122 28.1177 -24.4355 0.660 -0.732 0.169 141 67 66 0
