ply
format ascii 1.0
element vertex 831
property float x
property float y
property float z
property float nx
property float ny
property float nz
property uchar diffuse_red
property uchar diffuse_green
property uchar diffuse_blue
property uchar class
end_header
18.2436 46.7968 -54.1388 0.937 -0.326 0.124 72 174 109 0
18.1039 46.9948 -54.0879 0.921 -0.350 0.171 68 172 108 0
17.9878 47.1925 -54.0210 0.970 -0.239 0.042 66 171 107 0
18.0931 47.3839 -53.8077 0.818 -0.356 0.452 62 168 105 0
12.0993 69.2755 -41.7230 -0.010 0.712 0.703 29 107 67 0
13.8765 43.3545 -60.0085 0.454 0.807 0.378 184 183 137 0
13.3872 43.5573 -60.1943 0.550 0.792 0.265 181 181 135 0
13.1461 44.1762 -59.9019 0.910 0.124 -0.397 185 184 140 0
19.2022 45.3485 -54.8782 0.760 -0.640 0.112 197 205 165 0
19.3104 45.5412 -54.6614 0.950 -0.250 -0.189 199 207 168 0
19.3603 45.7342 -54.4843 0.952 -0.290 -0.098 196 210 173 0
19.3422 45.9280 -54.3534 0.975 -0.218 0.049 167 198 156 0
19.3399 46.1214 -54.2119 0.975 -0.224 0.004 108 170 120 0
18.4127 46.7221 -54.4038 0.930 0.351 0.112 74 170 112 0
18.0613 46.9253 -54.4947 0.965 -0.003 -0.262 71 171 111 0
17.8649 47.1255 -54.4814 0.954 -0.095 -0.285 69 172 111 0
17.9995 47.3166 -54.2476 0.965 -0.261 0.007 65 171 110 0
18.0898 47.5084 -54.0437 0.897 -0.341 0.282 62 169 109 0
19.0637 51.6737 -50.2937 0.924 -0.376 -0.073 24 126 71 0
10.7681 69.7184 -42.6371 -0.023 0.696 0.718 28 109 66 0
9.6680 71.8643 -41.8046 0.148 0.428 0.892 37 113 72 0
-7.0086 90.6265 -39.3692 0.116 0.842 0.527 193 187 186 0
13.2099 44.0979 -60.2603 0.964 0.265 -0.006 209 209 171 0
19.3604 45.4687 -55.0048 0.765 -0.631 0.131 204 212 174 0
19.2938 45.6635 -54.9064 0.950 -0.250 -0.189 204 212 175 0
19.3506 45.8565 -54.7243 0.955 -0.282 -0.093 198 213 176 0
18.0531 46.6594 -55.0243 0.268 0.834 0.481 78 170 113 0
18.4049 46.8460 -54.6435 0.930 0.347 0.118 73 169 110 0
18.1784 47.0465 -54.6512 0.956 0.292 0.036 72 168 111 0
18.0174 47.2458 -54.6146 0.950 0.294 0.108 69 169 110 0
18.1433 47.4368 -54.3864 0.932 -0.319 0.170 65 168 109 0
18.1889 47.6298 -54.2120 0.897 -0.341 0.282 64 168 109 0
20.1923 41.6939 -57.5518 -0.222 -0.068 0.973 233 233 197 0
19.6259 45.5873 -55.0578 0.692 -0.683 0.233 207 217 182 0
19.3877 45.7844 -55.0767 0.947 -0.251 -0.199 205 215 180 0
19.3875 45.9782 -54.9332 0.955 -0.279 -0.104 200 216 181 0
18.3601 46.5813 -55.1976 0.139 0.840 0.524 88 171 116 0
18.5568 46.9661 -54.7761 0.887 0.461 0.039 75 169 112 0
18.2098 47.5594 -54.5766 0.883 0.467 0.046 67 166 111 0
18.2869 47.7513 -54.3809 0.996 -0.035 0.079 65 166 110 0
18.8420 47.9260 -53.8670 0.842 -0.404 0.357 63 167 110 0
19.4260 48.2891 -53.1934 0.466 -0.781 0.416 59 168 110 0
18.9710 48.6912 -53.2104 0.586 -0.251 0.770 56 168 109 0
17.7568 50.0986 -53.0079 0.202 -0.511 0.835 41 153 94 0
13.1679 65.9197 -44.4575 0.521 0.851 -0.068 22 110 62 0
23.3903 81.2211 -26.0350 0.076 0.831 0.551 192 187 181 0
6.8643 87.4837 -32.8373 0.074 0.817 0.572 191 186 180 0
6.9315 104.4046 -20.2470 0.821 0.485 0.301 161 148 139 0
16.1600 43.7470 -59.1592 -0.142 0.014 0.990 227 230 199 0
17.4448 44.9472 -57.3748 0.215 -0.858 0.466 217 222 195 0
19.3815 48.0307 -53.7393 0.842 -0.461 0.279 64 165 110 0
18.3507 49.2291 -53.5672 0.830 0.478 0.288 50 168 108 0
18.2833 49.4253 -53.4684 0.825 0.346 0.447 51 169 109 0
18.2441 50.1980 -52.9224 0.231 -0.536 0.812 51 167 106 0
18.0620 50.4008 -52.8985 0.244 -0.515 0.822 49 165 105 0
17.0269 51.6242 -52.7107 -0.110 -0.336 0.935 29 140 83 0
16.2808 53.0345 -52.1832 -0.134 -0.338 0.931 23 130 74 0
18.2792 53.4404 -50.4919 -0.134 -0.419 0.898 23 126 73 0
12.6212 66.1681 -44.9831 0.563 0.773 0.293 21 109 61 0
8.4063 75.2810 -41.1530 0.870 0.414 0.266 170 173 174 0
16.0297 42.4507 -60.5509 0.343 0.935 0.089 232 231 203 0
17.3985 44.0761 -58.3869 -0.153 -0.184 0.971 224 229 197 0
16.5379 44.2758 -58.8400 -0.160 -0.217 0.963 223 228 196 0
17.1272 44.6752 -58.1315 0.145 -0.659 0.738 223 227 198 0
17.8473 44.8705 -57.4833 0.343 -0.879 0.330 220 226 199 0
19.2302 47.9676 -54.2164 0.584 -0.429 0.690 69 163 113 0
20.6355 48.1077 -53.1302 0.835 -0.372 -0.404 66 163 112 0
20.8559 48.2889 -52.8416 0.835 -0.372 -0.404 61 164 110 0
19.8936 48.5177 -53.3441 0.908 0.256 -0.330 59 163 108 0
18.4000 49.3524 -53.7678 0.825 0.560 0.076 49 165 105 0
18.2617 49.5523 -53.7160 0.812 0.578 0.077 49 166 106 0
19.2540 70.6077 -37.3823 0.212 0.926 0.313 45 119 78 0
8.4727 75.4142 -41.3459 0.853 0.397 0.339 171 175 175 0
19.7001 42.0410 -58.6189 0.344 0.939 0.030 234 231 205 0
17.0024 42.3884 -60.2542 0.318 0.948 0.032 233 231 205 0
16.3543 42.5803 -60.5664 0.297 0.954 0.037 232 231 204 0
15.5642 42.7726 -60.9781 0.314 0.949 0.033 232 231 204 0
18.4566 49.4755 -53.9637 0.838 0.545 -0.037 50 164 106 0
18.4290 49.6699 -53.8385 0.832 0.554 -0.040 50 165 106 0
18.3488 49.8670 -53.7483 0.841 0.541 -0.005 51 166 106 0
16.9119 55.1599 -50.8214 -0.089 -0.068 0.994 19 125 69 0
16.4836 55.3951 -50.9470 -0.048 -0.083 0.995 20 125 70 0
8.5452 75.5458 -41.5359 0.845 0.393 0.364 173 180 178 0
18.6808 42.3401 -59.4443 0.339 0.941 -0.003 233 231 206 0
18.3596 42.5340 -59.5265 0.392 0.913 -0.115 232 231 206 0
19.6011 44.9090 -56.8833 -0.058 -0.053 0.997 222 227 204 0
20.1839 45.8736 -55.7544 0.524 -0.634 0.568 212 222 198 0
20.5567 46.0602 -55.3527 0.695 -0.231 0.681 209 219 194 0
17.7576 49.6370 -54.6640 0.714 -0.683 0.152 54 163 109 0
18.4106 49.7970 -54.0845 0.890 -0.364 -0.276 53 163 107 0
18.3375 49.9940 -53.9894 0.929 -0.012 -0.369 52 164 106 0
16.0306 55.9589 -51.1762 -0.091 -0.484 0.870 19 125 71 0
20.0521 45.0278 -56.8037 -0.077 -0.106 0.991 221 227 204 0
20.5164 45.9901 -55.7579 0.638 -0.272 0.720 212 222 200 0
20.7108 46.1791 -55.4794 0.701 -0.250 0.668 211 221 197 0
18.4463 47.2012 -56.3216 0.103 0.833 0.544 104 170 127 0
16.7943 48.2382 -56.7190 0.682 0.721 0.124 71 165 114 0
16.1441 48.4612 -57.0133 0.672 0.738 0.065 70 165 113 0
22.6508 48.3935 -52.4556 0.995 -0.077 0.059 69 166 113 0
22.2368 48.5977 -52.5966 0.855 -0.275 0.440 66 164 111 0
17.7571 49.5695 -55.0452 0.556 -0.759 0.338 58 164 110 0
17.8773 49.7579 -54.8197 0.556 -0.759 0.338 56 163 109 0
18.4934 49.9190 -54.2633 0.554 0.615 0.562 55 162 108 0
20.5652 56.1453 -48.1570 0.911 0.120 0.395 20 126 72 0
20.1108 56.5661 -48.1652 0.939 -0.337 0.073 17 123 70 0
13.5618 71.9246 -41.3603 0.074 0.658 0.750 36 115 73 0
13.3819 85.6536 -31.2587 0.619 0.529 0.581 188 185 176 0
6.4916 105.4628 -21.3793 0.930 -0.283 -0.236 155 141 135 0
19.3932 45.3511 -57.3588 -0.077 -0.001 0.997 219 227 205 0
19.6819 45.5431 -57.0103 -0.064 0.148 0.987 218 226 205 0
20.6454 45.7241 -56.1898 -0.058 0.220 0.974 217 225 204 0
20.6677 46.1092 -55.8867 0.644 -0.250 0.723 211 223 202 0
20.7931 46.2992 -55.6558 0.698 -0.272 0.663 210 222 200 0
18.5016 47.3246 -56.5212 0.103 0.833 0.544 108 173 131 0
22.4129 48.7113 -52.7044 0.635 -0.655 0.410 67 164 113 0
18.0083 49.6838 -55.1125 0.704 -0.606 0.371 62 166 111 0
18.3580 49.8595 -54.7327 0.756 -0.594 0.275 60 163 109 0
18.7902 50.0292 -54.2987 0.467 0.649 0.600 57 162 108 0
19.5108 50.1807 -53.6731 0.447 0.697 0.560 55 163 108 0
16.2284 51.1543 -55.2821 0.669 -0.580 -0.464 49 163 106 0
18.4291 51.9729 -53.1059 0.970 -0.241 -0.044 45 163 108 0
18.6007 52.1515 -52.8507 0.989 -0.148 -0.020 45 164 108 0
19.0782 52.6855 -52.1127 0.191 0.034 0.981 42 166 106 0
18.7004 53.2862 -51.9334 0.362 -0.628 0.689 42 170 108 0
18.6824 53.4776 -51.8035 0.315 -0.630 0.710 42 170 108 0
18.6476 53.6703 -51.6845 0.236 -0.743 0.626 43 171 109 0
18.5087 54.6301 -51.0675 0.227 0.096 0.969 31 157 96 0
9.0119 79.0559 -39.6060 0.474 0.690 0.546 187 187 187 0
3.6845 105.1854 -23.9078 0.336 0.391 0.857 158 147 143 0
6.7162 105.6812 -21.3813 0.996 -0.071 -0.061 153 139 133 0
21.0407 45.8397 -56.1469 -0.110 0.338 0.935 216 225 204 0
20.9789 46.0330 -56.0467 0.618 -0.402 0.675 212 222 203 0
20.8407 46.2278 -56.0000 0.644 -0.250 0.723 210 222 202 0
20.8757 46.4193 -55.8320 0.698 -0.240 0.674 209 221 201 0
22.2908 49.2125 -52.7356 0.543 -0.733 0.409 63 163 109 0
20.1210 49.7000 -53.9221 0.162 0.451 0.878 61 165 109 0
21.4832 49.8164 -52.8618 0.190 0.456 0.869 60 165 109 0
19.2174 52.8017 -52.2521 0.199 0.231 0.952 43 164 105 0
18.9817 53.7687 -51.6986 0.315 -0.593 0.741 41 168 107 0
19.1942 53.9380 -51.4202 0.208 -0.688 0.695 41 168 107 0
19.3269 54.1140 -51.1940 0.204 -0.691 0.693 40 167 106 0
18.9398 54.5280 -51.1616 0.303 -0.094 0.948 41 168 108 0
18.7674 54.7336 -51.1313 0.225 0.098 0.970 40 167 106 0
21.4256 63.6420 -42.5810 0.616 0.229 0.754 13 113 62 0
21.5809 63.7882 -42.3609 0.964 0.258 0.060 15 113 62 0
14.4025 71.9999 -41.3595 0.846 -0.006 0.534 34 115 72 0
8.1190 79.2932 -40.4044 0.261 0.658 0.706 186 186 186 0
4.9539 104.5378 -23.8188 0.273 0.369 0.889 156 145 139 0
6.7158 105.8486 -21.5812 0.996 -0.071 -0.061 154 139 131 0
20.7515 46.5441 -56.1533 0.653 -0.243 0.718 209 220 203 0
12.8673 50.0104 -59.2215 0.271 0.252 0.929 64 165 113 0
12.6463 50.2264 -59.2187 0.296 0.299 0.907 62 166 113 0
18.0500 53.7918 -52.6758 0.678 0.672 -0.298 39 164 103 0
19.0350 53.8922 -51.8937 0.688 -0.006 0.726 40 164 104 0
19.2162 54.6295 -51.2127 0.312 -0.102 0.944 41 167 106 0
19.0496 54.8344 -51.1792 0.342 0.204 0.917 42 167 106 0
18.8328 55.2333 -51.0366 0.179 0.210 0.961 42 168 105 0
18.6412 55.4419 -51.0182 0.252 0.029 0.967 39 167 103 0
29.6951 61.5486 -38.5207 0.538 0.802 -0.259 14 114 64 0
21.5552 63.7482 -42.7191 0.616 0.229 0.754 14 113 64 0
21.6275 63.9100 -42.5463 0.959 0.279 0.054 16 114 65 0
14.1279 72.0307 -41.8601 0.603 -0.656 0.453 39 116 74 0
13.9882 86.0480 -31.4845 0.841 -0.285 -0.459 188 181 175 0
13.8134 86.4573 -31.3041 0.810 0.556 0.186 186 178 175 0
13.5673 86.7232 -31.2820 0.955 0.270 0.126 186 177 176 0
14.1715 86.6610 -30.8948 0.909 -0.112 -0.401 186 177 175 0
5.3296 94.0944 -31.6857 0.527 0.701 -0.480 176 167 163 0
2.3304 99.5813 -29.7377 0.873 -0.382 -0.303 165 155 149 0
6.0400 100.8720 -26.1106 0.920 -0.359 -0.156 161 149 143 0
6.1777 100.9796 -25.9313 0.936 -0.337 -0.103 160 149 143 0
6.5949 105.9107 -21.9467 0.996 -0.057 -0.075 154 138 128 0
6.7202 106.0137 -21.7798 0.995 -0.070 -0.064 153 139 127 0
16.3003 49.1683 -57.7255 0.901 0.419 0.114 73 165 117 0
13.6869 72.1033 -42.4518 0.291 -0.931 0.221 39 116 73 0
13.7590 86.6293 -31.5328 0.793 0.569 0.218 186 178 174 0
4.6788 101.8706 -26.6767 0.813 -0.535 -0.232 159 147 141 0
6.7191 106.1819 -21.9805 0.995 -0.070 -0.064 153 137 126 0
21.7636 46.7641 -55.9093 -0.175 -0.069 0.982 210 222 205 0
12.2081 51.1349 -59.5553 0.594 -0.625 0.507 62 166 115 0
12.3855 51.3285 -59.2819 0.531 -0.822 0.205 61 166 115 0
18.8753 57.9243 -49.6432 0.142 0.038 0.989 25 144 87 0
18.6822 58.1360 -49.6245 0.141 0.032 0.989 24 143 86 0
18.2181 58.3845 -49.7744 -0.116 -0.086 0.990 20 138 82 0
7.0032 81.0461 -40.9247 0.168 0.742 0.649 185 185 186 0
8.8537 80.6493 -39.8819 0.168 0.736 0.656 187 186 187 0
7.2985 82.0809 -39.9359 0.326 0.754 0.571 188 189 185 0
14.4785 86.5027 -31.4254 0.928 -0.257 -0.270 186 179 173 0
6.0538 100.8499 -26.7816 0.317 -0.813 0.488 158 148 139 0
4.5755 101.9132 -27.0559 0.989 0.040 0.140 158 147 141 0
6.7363 106.3407 -22.1756 0.998 -0.045 -0.047 150 136 125 0
19.1251 47.7357 -57.4245 0.965 0.137 0.222 192 218 198 0
18.9789 47.9359 -57.3807 0.971 0.141 0.194 145 190 161 0
18.8658 48.1352 -57.3136 0.944 0.052 0.325 107 172 136 0
18.7054 48.3366 -57.2793 0.957 0.124 0.261 96 175 135 0
12.2523 51.2675 -59.7755 0.521 -0.802 0.292 62 165 115 0
17.7858 54.7813 -53.1169 0.853 0.518 -0.067 41 159 104 0
19.2666 58.0042 -49.6240 0.155 0.047 0.987 33 155 98 0
19.0034 58.2249 -49.6499 0.109 0.031 0.994 31 154 95 0
17.5565 59.7339 -49.5710 -0.034 -0.459 0.888 18 134 76 0
8.7178 80.2883 -40.5912 0.033 0.708 0.705 185 185 188 0
-3.0462 96.9797 -36.6347 0.517 0.713 -0.474 176 168 160 0
4.5989 102.0709 -27.2579 0.917 -0.353 0.184 157 147 141 0
5.7960 108.0278 -21.9217 0.957 -0.108 -0.268 254 255 255 0
19.1651 47.8597 -57.6352 0.958 0.120 0.261 198 223 203 0
19.0687 48.0583 -57.5566 0.944 0.093 0.317 157 197 171 0
18.9444 48.2582 -57.4975 0.946 0.000 0.323 111 172 139 0
18.8494 48.4571 -57.4175 0.947 -0.017 0.322 99 175 137 0
18.8683 48.6514 -57.2579 0.910 -0.180 0.373 91 174 133 0
12.4880 51.3880 -59.8653 0.521 -0.802 0.292 66 167 117 0
12.6190 51.5839 -59.6226 0.375 -0.898 0.230 64 167 116 0
13.3702 51.7371 -58.9588 0.348 -0.937 0.038 63 167 116 0
14.2180 51.8807 -58.2318 0.364 -0.925 0.111 63 167 115 0
20.0834 57.4729 -49.7506 -0.086 -0.351 0.933 40 166 103 0
19.3136 58.3147 -49.6813 0.113 0.030 0.993 38 165 104 0
17.9812 59.9923 -49.3958 -0.049 -0.278 0.959 19 139 81 0
18.6755 61.3672 -47.8568 0.003 -0.513 0.858 17 124 70 0
8.5048 80.3231 -41.0621 0.109 0.595 0.796 184 184 188 0
7.4208 80.8509 -41.4579 0.111 0.690 0.715 186 185 190 0
7.3105 81.0744 -41.3708 0.027 0.536 0.844 186 184 187 0
19.2295 47.9830 -57.8289 0.936 -0.030 0.350 201 224 207 0
19.1348 48.1817 -57.7491 0.939 -0.045 0.342 178 213 190 0
19.0490 48.3801 -57.6630 0.951 -0.067 0.303 129 179 152 0
19.0221 48.5763 -57.5354 0.951 -0.067 0.303 111 175 144 0
19.0244 48.7711 -57.3874 0.901 -0.242 0.360 100 175 139 0
13.7717 51.8441 -58.9331 0.348 -0.937 0.036 65 168 118 0
14.5825 51.9887 -58.2296 0.360 -0.925 0.123 65 167 117 0
19.8569 51.8058 -54.4970 0.365 -0.019 0.931 65 167 116 0
20.4192 57.3752 -49.9008 0.100 0.202 0.974 37 160 101 0
18.5190 60.0455 -49.2892 -0.065 -0.306 0.950 23 147 87 0
18.5483 60.2267 -49.1315 -0.059 -0.317 0.947 22 145 86 0
18.4576 60.4262 -49.0483 -0.058 -0.304 0.951 19 140 82 0
18.3083 60.6348 -49.0011 -0.051 -0.326 0.944 18 137 79 0
18.2365 60.8317 -48.9059 -0.047 -0.325 0.945 20 137 79 0
18.2319 61.0180 -48.7693 0.031 -0.359 0.933 20 134 78 0
17.4294 61.8917 -48.7019 0.016 -0.488 0.873 15 126 71 0
14.6649 72.0660 -43.0876 -0.004 -0.374 0.927 34 112 70 0
6.7800 81.0201 -42.1469 0.923 -0.296 -0.247 181 183 183 0
8.0510 84.1639 -38.8528 0.932 -0.362 -0.031 186 182 181 0
16.7547 85.7323 -31.2885 0.506 0.745 -0.434 181 176 170 0
30.0010 39.6657 -56.4791 0.971 -0.172 0.167 234 230 218 0
17.0157 39.8609 -65.9017 0.824 -0.067 -0.563 231 229 216 0
19.4060 48.2971 -57.7966 0.628 -0.313 0.712 197 224 204 0
19.3329 48.4947 -57.7020 0.632 -0.319 0.706 179 214 194 0
19.2355 48.6935 -57.6242 0.659 -0.221 0.719 157 204 181 0
19.1796 48.8906 -57.5172 0.641 -0.231 0.732 136 193 166 0
23.7497 53.8359 -50.4308 0.642 0.762 0.086 53 161 110 0
19.1149 56.1710 -52.0905 0.677 0.020 -0.735 46 162 109 0
19.9476 58.6753 -49.5938 -0.126 -0.160 0.979 36 164 103 0
18.8570 60.6829 -48.8879 -0.091 -0.293 0.952 23 148 87 0
18.6938 60.8935 -48.8498 -0.090 -0.297 0.951 20 144 84 0
18.5385 61.1032 -48.8065 -0.087 -0.290 0.953 20 140 82 0
18.4712 61.4840 -48.5698 0.043 -0.385 0.922 23 138 81 0
18.0977 61.7304 -48.6597 -0.109 -0.543 0.833 21 134 78 0
17.9543 61.9396 -48.6081 -0.124 -0.560 0.819 19 133 77 0
18.1246 66.3083 -45.1977 -0.079 -0.164 0.983 17 114 63 0
10.6581 75.4985 -43.7896 0.789 0.344 0.508 123 149 142 0
10.5137 75.7261 -43.7248 0.797 0.322 0.512 154 177 171 0
10.3780 75.9516 -43.6553 0.797 0.322 0.512 168 186 183 0
10.2536 76.1742 -43.5795 0.867 0.246 0.434 171 185 184 0
10.0894 76.4083 -43.5245 0.735 0.103 0.670 173 184 184 0
10.3395 76.5250 -43.2525 0.466 -0.237 0.852 174 184 183 0
9.0132 81.9606 -40.1426 0.234 0.853 0.467 185 184 182 0
7.7787 82.5531 -40.6069 0.171 0.437 0.883 184 184 182 0
5.9667 92.2732 -34.6332 0.525 0.808 -0.269 180 171 165 0
4.7393 93.1415 -34.8848 0.454 0.891 -0.033 177 168 164 0
9.1265 105.4025 -22.4322 0.715 0.699 0.016 148 135 125 0
6.7345 107.0158 -22.9818 0.998 -0.044 -0.035 147 134 126 0
19.5859 48.6102 -57.7618 0.627 -0.510 0.588 199 227 210 0
23.4753 53.9864 -50.8363 0.605 0.781 0.157 56 164 113 0
23.4394 54.1720 -50.7232 0.548 0.813 0.199 55 162 113 0
20.0310 57.8703 -50.4621 -0.096 -0.663 0.742 37 160 101 0
20.1636 67.2592 -43.2969 0.475 0.683 0.554 19 111 64 0
19.4333 67.9547 -43.3139 0.891 -0.440 0.110 13 110 57 0
18.2174 72.1468 -41.0585 0.144 0.785 0.603 49 118 82 0
10.2787 76.3187 -43.7942 0.896 0.211 0.391 172 184 183 0
10.5293 76.4353 -43.5210 0.684 0.078 0.725 176 186 183 0
6.8970 85.9999 -39.0100 0.709 0.646 0.282 181 182 178 0
18.9467 89.2325 -27.6581 0.143 0.115 0.983 171 163 151 0
12.8521 96.8845 -26.4093 0.592 0.231 0.772 155 144 138 0
7.4553 106.7977 -22.9420 0.716 0.535 0.449 148 135 127 0
22.8750 53.4351 -52.0152 0.743 0.238 -0.625 61 165 116 0
23.4697 53.5638 -51.4760 0.752 0.251 -0.610 60 165 116 0
23.5624 53.7378 -51.2761 0.833 0.162 -0.530 59 165 116 0
23.3440 54.3062 -51.0102 0.490 0.471 0.734 58 164 115 0
22.3466 54.5900 -51.5378 0.359 0.260 0.896 60 164 115 0
20.9211 58.8001 -49.4253 0.001 -0.646 0.763 40 161 103 0
10.2606 76.4757 -44.0320 0.906 0.149 0.396 172 184 182 0
10.9555 76.4653 -43.5232 0.632 -0.326 0.703 174 185 181 0
11.0321 76.6299 -43.3423 0.659 -0.233 0.715 175 186 182 0
11.1880 76.7711 -43.1199 0.946 -0.292 -0.140 173 184 180 0
11.2653 76.9346 -42.9393 0.946 -0.292 -0.140 172 183 179 0
19.6712 83.2348 -31.9432 0.688 -0.287 -0.666 184 180 175 0
13.8254 96.4149 -26.3580 0.451 0.876 0.168 155 144 138 0
17.4359 96.7631 -23.4115 0.392 -0.839 0.377 153 143 133 0
11.2093 104.1282 -22.4908 0.299 0.466 0.833 149 136 128 0
6.7549 107.3435 -23.3796 0.999 -0.048 -0.026 146 133 125 0
29.8515 39.8005 -57.4106 0.554 -0.779 0.293 231 229 217 0
19.2482 48.2908 -58.9236 0.689 -0.709 0.150 211 228 214 0
20.2838 48.8315 -57.7426 0.690 -0.720 0.079 206 227 214 0
22.4914 53.5955 -52.5010 0.721 0.167 -0.672 64 167 119 0
22.7234 53.7584 -52.2049 0.722 0.170 -0.671 61 167 119 0
22.8173 53.9335 -52.0027 0.778 0.182 -0.601 62 168 120 0
22.8799 54.1112 -51.8219 0.768 0.158 -0.620 60 166 118 0
23.2053 54.2624 -51.4649 0.757 0.166 -0.632 60 164 117 0
21.3442 59.0523 -49.2417 -0.081 -0.240 0.967 42 159 106 0
11.8684 71.8640 -46.6533 0.623 -0.696 0.357 26 107 63 0
19.5294 83.4320 -32.2080 0.668 -0.383 -0.638 183 178 174 0
19.6081 83.5670 -32.0474 0.635 -0.184 -0.750 183 177 174 0
13.6685 94.1563 -28.4950 0.547 0.665 0.508 162 152 143 0
6.7578 107.5116 -23.5814 0.999 -0.048 -0.026 146 131 124 0
30.9142 39.7769 -56.9405 0.735 -0.340 -0.587 229 229 217 0
31.3749 39.9796 -56.4420 0.741 -0.344 -0.576 229 229 217 0
22.1936 42.5105 -61.4161 0.689 -0.327 -0.647 223 225 212 0
17.9750 48.4680 -60.0815 0.671 -0.689 -0.274 211 228 215 0
19.9516 48.7780 -58.3652 0.567 -0.820 -0.082 210 227 216 0
21.2785 49.1033 -57.1245 0.151 0.683 0.715 206 227 215 0
19.7421 51.3022 -56.6164 -0.029 -0.472 0.881 166 218 195 0
19.7341 51.4950 -56.4768 -0.048 -0.409 0.911 155 209 186 0
19.6341 51.6942 -56.4014 -0.058 -0.359 0.931 142 201 176 0
22.0328 53.9497 -52.8996 0.722 0.170 -0.671 66 170 123 0
22.2612 54.1130 -52.6050 0.722 0.153 -0.675 65 169 122 0
23.0723 54.2177 -51.9178 0.706 0.162 -0.690 64 167 120 0
22.9401 54.4143 -51.8684 0.714 0.207 -0.669 63 166 119 0
24.1012 55.9229 -49.8587 0.846 -0.169 0.506 53 163 110 0
25.1633 56.5093 -48.6195 0.860 -0.509 -0.040 52 162 109 0
21.7343 68.1820 -42.3775 0.438 -0.765 -0.472 19 111 63 0
11.3033 76.6679 -43.7924 0.677 -0.352 0.646 173 184 182 0
19.5121 83.7476 -32.2912 0.631 -0.215 -0.745 184 176 173 0
15.9224 87.3093 -32.2938 0.101 0.306 0.947 179 170 163 0
10.1451 103.0327 -24.7545 0.456 0.235 0.859 148 135 127 0
16.8408 41.0978 -66.8479 0.691 -0.266 -0.672 225 225 213 0
17.2061 41.5216 -66.2525 0.724 -0.257 -0.640 224 226 213 0
20.8484 49.2489 -57.6688 0.118 0.644 0.756 206 228 216 0
20.4159 50.8091 -56.8153 -0.095 -0.510 0.855 192 224 212 0
20.1835 51.5911 -56.3993 -0.049 -0.403 0.914 184 222 206 0
20.0946 51.7889 -56.3168 -0.049 -0.403 0.914 181 222 206 0
19.9901 51.9880 -56.2449 -0.054 -0.358 0.932 177 223 204 0
19.8100 52.1932 -56.2256 -0.069 -0.216 0.974 162 216 194 0
19.6552 52.3968 -56.1882 -0.060 -0.211 0.976 142 204 178 0
21.2895 54.3349 -53.4924 0.742 0.246 -0.623 69 172 125 0
21.4319 54.5075 -53.2548 0.742 0.246 -0.623 68 171 124 0
14.3461 56.4100 -57.1535 0.426 -0.505 0.751 62 165 120 0
17.5663 61.3751 -50.9755 0.897 -0.111 -0.428 36 158 101 0
24.0520 82.9541 -29.7809 0.702 -0.558 -0.442 178 173 166 0
9.4138 43.6614 -70.8782 0.601 0.127 0.789 222 224 213 0
20.0185 49.2215 -58.6497 0.228 0.752 0.618 209 227 217 0
20.6099 49.5789 -57.9320 0.138 0.657 0.741 205 227 217 0
20.2489 49.7908 -58.0447 0.810 0.579 0.092 202 226 214 0
20.1960 49.9869 -57.9365 0.892 0.443 0.094 201 225 212 0
20.6659 50.7284 -57.0200 0.084 -0.019 0.996 192 223 215 0
20.0607 52.4933 -56.1424 -0.060 -0.211 0.976 176 221 201 0
19.9022 52.6972 -56.1081 -0.060 -0.211 0.976 169 217 197 0
19.6595 52.9085 -56.1317 -0.098 -0.304 0.948 152 210 186 0
19.5241 53.1114 -56.0806 -0.098 -0.304 0.948 130 195 168 0
14.6836 56.9046 -56.8722 0.462 -0.599 0.654 62 166 121 0
14.7364 57.0957 -56.6876 0.428 -0.729 0.535 60 166 117 0
14.7043 57.2966 -56.5599 0.456 -0.702 0.546 61 166 115 0
14.7761 57.4849 -56.3631 0.451 -0.700 0.554 61 165 115 0
17.3782 61.7299 -51.1831 0.911 -0.047 -0.410 38 159 103 0
27.2400 77.5458 -31.7571 0.634 0.367 -0.681 180 181 176 0
9.8789 90.9274 -34.7648 0.310 0.921 0.236 177 167 160 0
-7.7648 104.4234 -37.8998 0.045 0.417 0.908 160 150 142 0
10.1580 103.5214 -25.0251 0.580 0.139 0.802 148 136 128 0
9.8223 43.7989 -70.8388 0.806 -0.082 0.586 222 224 213 0
9.7591 44.0175 -70.7212 0.806 -0.082 0.586 221 224 213 0
23.1494 44.8157 -59.9442 0.841 -0.531 0.098 219 224 214 0
20.1043 49.3439 -58.8279 0.227 0.748 0.624 208 228 217 0
20.9883 49.4928 -58.0436 0.169 0.776 0.608 207 227 216 0
19.9891 50.3189 -58.1770 0.824 0.542 0.164 201 225 214 0
19.9168 50.5166 -58.0822 0.877 0.461 0.138 199 224 213 0
20.7056 50.6609 -57.3737 0.898 0.429 0.094 198 224 214 0
19.9154 51.4814 -57.3525 0.355 -0.068 0.933 193 223 215 0
20.1699 52.9946 -56.0131 -0.071 -0.291 0.954 181 224 205 0
19.9767 53.2018 -56.0029 0.011 -0.396 0.918 178 224 205 0
19.7895 53.4091 -55.9881 0.010 -0.407 0.913 167 219 198 0
19.6990 53.6081 -55.9062 0.009 -0.406 0.914 155 213 189 0
19.4707 54.0112 -55.7743 0.014 -0.410 0.912 119 189 157 0
14.2952 57.4836 -57.0762 0.210 -0.256 0.944 60 167 118 0
14.3873 57.6701 -56.8649 0.159 -0.284 0.945 59 168 118 0
11.3557 76.3604 -45.0122 0.295 0.753 0.588 165 183 180 0
25.2916 78.3527 -32.9163 0.669 -0.741 0.058 180 180 176 0
25.0914 78.5810 -32.8955 0.600 -0.800 -0.007 180 179 177 0
25.3711 78.6423 -32.6365 0.594 -0.805 0.017 180 176 175 0
10.5253 103.4941 -25.0924 0.463 0.295 0.836 147 137 127 0
11.3198 44.5860 -69.4740 0.893 0.409 -0.185 220 223 214 0
22.0152 51.2721 -56.2445 0.869 -0.058 0.491 198 225 216 0
19.9648 54.0945 -55.6690 -0.031 -0.364 0.931 172 225 201 0
19.8559 54.2952 -55.5999 -0.028 -0.370 0.929 156 215 187 0
19.7577 54.4951 -55.5233 -0.028 -0.370 0.929 141 204 175 0
19.6595 54.6952 -55.4465 -0.028 -0.370 0.929 127 198 166 0
19.5899 54.8926 -55.3500 -0.004 -0.424 0.905 108 185 151 0
19.5457 55.0874 -55.2360 -0.001 -0.426 0.905 96 178 142 0
11.5131 90.3987 -34.5926 0.170 0.848 0.503 176 167 160 0
83.9147 63.7710 0.4596 0.484 0.875 0.002 153 143 134 0
9.8463 104.6824 -25.0349 0.913 0.282 0.296 145 135 126 0
22.3933 51.1828 -56.3520 0.745 -0.660 0.096 203 226 217 0
22.6289 51.3547 -56.0409 0.789 -0.568 0.234 202 227 217 0
20.0534 54.9753 -55.2666 -0.007 -0.449 0.893 161 221 195 0
20.0136 55.1690 -55.1501 -0.006 -0.443 0.896 149 213 185 0
19.4709 55.7967 -55.0895 -0.218 -0.204 0.954 104 179 145 0
8.8977 106.3590 -24.8167 0.563 0.013 0.826 145 132 124 0
16.2995 52.5302 -60.3468 0.976 0.006 -0.217 198 225 212 0
17.2381 52.6554 -59.5294 0.917 -0.383 -0.113 197 225 212 0
12.7009 76.6118 -44.8203 0.673 0.470 0.571 165 180 178 0
13.4296 76.5833 -44.2811 0.364 0.436 0.823 166 180 180 0
7.4589 90.7509 -38.1121 0.207 0.799 0.565 174 168 161 0
6.2839 108.1140 -25.8248 0.691 0.093 -0.717 145 132 124 0
16.9318 54.1938 -58.9418 0.566 -0.775 0.282 196 225 218 0
19.4608 57.0097 -54.8456 -0.095 -0.276 0.957 111 181 155 0
21.3965 60.6391 -50.5893 0.890 0.404 0.210 55 163 112 0
21.0721 60.8739 -50.6615 0.844 0.382 0.377 54 162 112 0
21.6586 62.4083 -49.0412 0.309 -0.432 0.847 49 158 108 0
27.3205 78.6506 -32.3124 0.652 0.481 -0.586 178 177 175 0
17.7374 54.2517 -58.6187 0.490 -0.743 0.455 196 224 218 0
17.8448 55.0208 -57.9498 0.707 0.501 0.499 193 223 217 0
20.0634 57.0678 -54.6694 -0.156 -0.219 0.963 171 219 202 0
19.8965 57.2769 -54.6397 -0.068 -0.554 0.830 154 207 187 0
19.7899 58.0436 -54.1387 -0.051 -0.543 0.838 90 176 138 0
20.0308 58.1992 -53.8333 0.535 -0.508 0.675 83 173 135 0
20.1513 60.7872 -51.7694 0.917 0.290 0.274 56 163 115 0
21.1289 60.8144 -50.9900 0.916 0.328 0.230 56 163 114 0
20.9938 61.0193 -50.9388 0.860 0.374 0.348 55 162 114 0
21.7786 62.5196 -49.1874 0.933 0.221 0.283 50 160 108 0
21.6143 62.7294 -49.1553 0.812 0.373 0.448 48 159 109 0
21.5941 62.9133 -49.0309 0.821 0.366 0.438 48 158 108 0
21.5003 63.1107 -48.9534 0.957 -0.002 0.289 46 156 106 0
20.3247 58.1049 -54.0098 -0.047 -0.546 0.836 138 204 176 0
20.3045 58.2947 -53.8809 0.535 -0.361 0.764 119 192 162 0
20.1213 58.5067 -53.8620 0.264 -0.028 0.964 107 185 153 0
20.0377 58.7055 -53.7757 0.259 0.007 0.966 95 176 143 0
20.0073 60.9442 -52.0932 0.993 -0.031 0.118 60 166 118 0
21.2579 61.4739 -50.7147 0.738 0.356 0.573 57 163 115 0
22.4666 62.5284 -48.9688 0.270 -0.143 0.952 51 162 109 0
13.0757 76.3995 -45.7175 0.471 0.712 0.521 164 178 178 0
7.9650 90.1241 -39.2414 0.403 0.241 0.883 177 170 160 0
13.9902 90.3285 -34.3890 0.857 -0.313 -0.410 174 165 155 0
20.4013 58.6007 -53.9050 0.215 -0.012 0.977 157 217 193 0
20.2602 58.8072 -53.8579 0.216 0.050 0.975 137 202 175 0
20.1345 59.0119 -53.8002 0.237 0.117 0.965 116 187 158 0
19.9071 59.2315 -53.8107 0.251 0.123 0.960 101 178 146 0
19.5932 59.4644 -53.8787 -0.005 -0.247 0.969 93 176 140 0
21.9053 61.8597 -50.2413 0.565 -0.819 -0.096 58 162 113 0
22.2380 61.9825 -49.8872 0.578 -0.813 -0.067 56 162 113 0
21.7686 62.9676 -49.5030 0.555 0.379 0.740 50 161 108 0
22.1713 63.6107 -48.6972 0.453 -0.509 0.732 47 158 107 0
22.1554 64.1498 -48.2983 0.796 -0.076 0.601 45 156 103 0
24.0389 79.4297 -35.1665 0.640 0.484 -0.597 175 177 174 0
26.7523 79.4146 -33.0539 0.873 -0.485 -0.046 178 178 176 0
31.7258 43.6985 -56.7169 0.762 -0.160 -0.628 219 221 214 0
31.5546 43.8764 -56.7157 0.790 0.194 -0.582 218 221 214 0
29.7791 50.4995 -53.0532 0.902 -0.069 -0.426 206 225 219 0
34.6056 50.6797 -49.1213 0.497 -0.861 -0.109 204 224 217 0
22.2314 53.0839 -57.0133 0.251 0.169 0.953 203 226 220 0
18.6902 56.2967 -57.3435 0.528 -0.721 0.449 193 223 218 0
19.2163 56.4278 -56.8298 0.588 -0.741 0.326 192 223 217 0
19.9722 59.5427 -53.8566 -0.005 -0.247 0.969 134 203 174 0
19.8573 59.7467 -53.7911 -0.005 -0.251 0.968 119 191 161 0
19.6919 60.1457 -53.6165 -0.099 -0.472 0.876 93 174 141 0
21.1664 62.4853 -50.6704 0.620 -0.782 -0.072 59 166 117 0
21.4746 63.3361 -49.7784 0.553 -0.111 0.826 53 161 110 0
21.9976 63.9565 -48.8934 0.880 -0.137 -0.456 49 160 109 0
22.0940 64.1167 -48.6952 0.813 -0.172 -0.556 49 159 108 0
22.2017 64.2743 -48.4902 0.874 -0.095 -0.477 46 157 106 0
22.3227 64.4286 -48.2773 0.841 -0.091 -0.533 45 156 104 0
22.9148 64.4880 -47.7665 0.900 0.121 -0.419 44 155 104 0
13.2086 76.6621 -46.0994 0.424 0.714 0.557 164 178 179 0
23.6547 80.5145 -34.9450 0.672 0.432 -0.601 176 176 173 0
26.8932 79.6552 -33.0554 0.876 -0.482 0.010 175 175 171 0
27.8343 42.8566 -60.7415 0.712 -0.233 -0.662 220 221 215 0
28.6990 43.0545 -59.9075 0.720 -0.266 -0.641 219 221 215 0
29.5395 43.2487 -59.0954 0.719 -0.277 -0.637 218 221 215 0
30.8617 43.6243 -57.7644 0.738 -0.285 -0.612 219 221 215 0
31.2975 43.8069 -57.2807 0.770 -0.157 -0.618 218 221 214 0
31.2214 43.9862 -57.2037 0.793 0.170 -0.585 218 221 214 0
33.4379 51.0454 -50.0569 0.564 -0.821 0.089 205 223 216 0
33.7849 51.1874 -49.6744 0.489 -0.870 0.061 205 223 217 0
22.4578 53.1914 -57.0850 0.263 0.187 0.947 203 226 222 0
19.5112 57.0978 -56.4250 0.772 -0.350 0.531 194 224 214 0
20.6300 57.1482 -55.5031 0.393 -0.008 0.919 193 224 214 0
20.2398 60.1959 -53.4811 -0.087 -0.492 0.866 140 203 178 0
20.1843 60.3905 -53.3761 -0.087 -0.492 0.866 125 191 165 0
20.1488 60.5821 -53.2577 -0.086 -0.492 0.866 110 181 154 0
20.1408 60.7692 -53.1210 -0.076 -0.490 0.868 98 174 144 0
20.1575 60.9522 -52.9679 -0.078 -0.480 0.874 88 171 138 0
20.2647 61.3054 -52.6132 0.443 -0.030 0.896 78 174 134 0
22.4056 63.6535 -49.1278 0.808 -0.408 0.426 54 162 112 0
22.0095 64.2671 -48.9714 0.870 -0.116 -0.479 53 160 112 0
20.2550 69.2941 -46.5134 0.930 -0.205 -0.303 33 143 89 0
20.0273 69.7057 -46.3785 0.829 0.257 -0.496 33 145 90 0
20.0805 69.8706 -46.2104 0.832 0.247 -0.496 33 146 91 0
19.8468 82.3733 -36.8364 0.867 -0.171 -0.468 175 174 169 0
7.1798 91.1135 -40.1548 0.889 -0.438 -0.132 176 167 161 0
7.9564 90.9849 -39.6401 0.569 0.812 0.126 174 165 158 0
30.2801 43.7327 -58.4548 0.735 -0.228 -0.639 219 221 216 0
29.6592 43.9123 -58.8097 0.884 0.194 -0.426 219 221 216 0
30.4945 44.0964 -58.0064 0.815 0.288 -0.504 218 220 215 0
29.9006 44.2776 -58.3386 0.834 0.226 -0.503 218 220 215 0
31.3229 44.4565 -57.0740 0.703 0.412 -0.580 216 218 213 0
31.0931 44.6365 -57.1185 0.758 0.230 -0.611 216 218 213 0
19.1428 50.8767 -61.8175 0.375 -0.383 0.844 208 221 216 0
20.3062 50.9977 -60.8025 0.587 -0.401 0.703 207 222 217 0
20.0644 51.2083 -60.8331 0.553 -0.369 0.747 206 222 216 0
33.5736 51.1480 -50.1684 0.767 -0.641 0.023 206 223 217 0
29.6209 51.9773 -52.6676 0.245 -0.961 0.128 207 223 222 0
30.2415 52.1008 -52.0811 0.347 -0.906 0.241 205 222 221 0
30.4610 52.2561 -51.7882 0.351 -0.904 0.242 203 222 221 0
22.7039 53.2969 -57.1419 0.257 0.197 0.946 202 223 221 0
20.6409 57.4668 -55.5863 0.169 0.122 0.978 192 222 215 0
20.2270 57.7084 -55.7295 0.546 -0.830 -0.111 192 222 214 0
20.7695 57.8255 -55.2098 0.439 -0.890 -0.122 192 222 215 0
20.9469 57.9891 -54.9439 0.447 -0.885 -0.127 192 223 217 0
20.6343 61.0094 -52.8802 -0.082 -0.474 0.876 131 194 170 0
20.4871 61.4032 -52.6956 0.429 0.002 0.903 98 178 146 0
20.1510 61.6442 -52.7776 0.105 0.067 0.992 84 169 134 0
20.0306 61.8497 -52.7158 0.078 0.082 0.994 78 172 132 0
19.8079 62.0730 -52.7215 0.077 0.017 0.997 77 171 132 0
19.8818 62.2456 -52.5307 0.591 -0.081 0.802 74 170 129 0
22.5718 64.1118 -48.9698 0.916 -0.094 -0.389 54 161 112 0
20.3267 69.5934 -46.5546 0.188 0.356 0.915 35 142 90 0
19.7343 69.9172 -46.7765 0.914 0.407 0.001 37 144 92 0
19.7847 70.0834 -46.6094 0.832 0.242 -0.499 35 143 89 0
19.8538 70.2445 -46.4313 0.842 0.230 -0.489 32 143 88 0
21.7429 81.6567 -36.1994 0.679 0.421 -0.601 174 173 168 0
6.6154 91.5063 -40.6552 0.816 0.367 -0.447 174 165 160 0
7.4296 91.3624 -40.1199 0.665 0.737 -0.116 173 164 158 0
29.3682 44.0249 -59.2718 0.883 0.186 -0.430 219 221 217 0
30.1296 44.2087 -58.5247 0.814 0.311 -0.490 218 220 217 0
30.7209 44.5702 -57.7770 0.754 0.341 -0.562 217 219 214 0
30.5905 44.7513 -57.7421 0.765 0.163 -0.623 216 218 213 0
30.5522 52.3656 -51.9390 0.373 -0.900 0.225 204 222 219 0
23.7103 57.0195 -53.8212 0.172 -0.001 0.985 198 222 217 0
20.2554 58.2145 -55.6565 0.678 -0.733 0.055 195 222 215 0
19.4344 58.8937 -55.7898 0.952 -0.042 0.304 193 224 216 0
19.7374 59.0399 -55.4367 0.789 0.027 0.613 193 223 217 0
20.1249 59.1726 -55.0264 0.765 -0.050 0.642 193 222 217 0
20.4551 61.7279 -52.8058 0.121 0.060 0.991 132 201 174 0
20.3130 61.9369 -52.7588 0.091 0.074 0.993 109 185 155 0
20.1816 62.1443 -52.7046 0.068 -0.014 0.998 96 176 144 0
21.7354 64.4104 -49.7313 0.887 0.218 -0.407 55 161 115 0
19.5144 70.1117 -47.1318 0.259 0.794 0.550 34 143 88 0
18.2183 70.6143 -47.7787 0.838 0.301 -0.456 33 141 88 0
18.9206 70.7988 -47.0782 0.802 -0.103 -0.588 34 142 90 0
19.3387 70.8720 -46.6893 0.812 -0.045 -0.581 34 141 89 0
19.6384 70.9739 -46.3725 0.859 0.178 -0.480 33 140 88 0
19.9520 71.0711 -46.0484 0.905 0.335 -0.261 33 141 89 0
26.5475 76.0646 -36.9712 0.362 0.735 0.573 175 179 180 0
25.8407 76.4572 -37.2332 0.343 0.723 0.599 175 179 180 0
7.2208 109.6589 -26.6220 0.701 0.563 0.437 141 126 118 0
27.2130 42.8169 -62.2400 0.871 -0.320 -0.374 221 222 216 0
27.7075 43.0123 -61.6947 0.714 -0.597 -0.366 221 222 216 0
27.9517 43.2028 -61.3534 0.637 -0.686 -0.351 220 221 215 0
28.4663 43.3946 -60.7947 0.637 -0.686 -0.351 220 221 215 0
30.0663 44.1397 -58.9440 0.744 -0.637 0.200 219 221 217 0
30.2302 44.8666 -58.2555 0.754 0.341 -0.562 216 219 213 0
19.5008 59.0190 -55.9806 0.952 -0.042 0.304 193 224 215 0
19.9372 59.3338 -55.3902 0.766 -0.080 0.638 192 221 216 0
20.9398 59.9322 -54.1296 0.243 0.043 0.969 189 221 214 0
21.6838 61.1049 -52.6353 -0.074 -0.522 0.850 180 217 203 0
20.1372 62.6574 -52.6813 -0.002 -0.510 0.860 112 182 153 0
19.8857 64.9128 -51.1527 0.286 0.375 0.882 59 163 117 0
21.1800 65.0173 -50.0377 0.828 0.085 -0.555 58 160 113 0
18.1942 70.7627 -48.0187 0.857 -0.182 -0.483 33 141 88 0
18.2592 70.9276 -47.8403 0.819 -0.294 -0.493 34 141 89 0
18.5627 71.0314 -47.5180 0.814 -0.313 -0.489 35 141 89 0
18.7862 71.1545 -47.2449 0.816 -0.306 -0.491 36 140 89 0
18.9332 71.2965 -47.0184 0.861 -0.109 -0.497 36 139 89 0
71.2889 72.6562 -4.1129 0.588 0.553 -0.591 140 127 119 0
7.2082 109.8392 -26.8339 0.701 0.563 0.437 143 126 118 0
27.6401 43.1269 -61.9864 0.713 -0.603 -0.358 221 222 216 0
27.8526 43.3171 -61.6698 0.683 -0.657 -0.321 220 222 216 0
28.8849 43.6980 -60.5485 0.658 -0.666 -0.351 219 221 216 0
29.3998 43.8852 -59.9913 0.635 -0.691 -0.345 220 221 216 0
20.3464 59.4083 -55.3431 0.816 -0.204 0.541 194 222 215 0
21.4108 59.4379 -54.4657 0.457 -0.160 0.875 193 221 216 0
20.6135 63.2596 -52.1718 -0.066 -0.465 0.883 119 187 159 0
20.4865 63.4667 -52.1148 -0.066 -0.471 0.880 102 175 145 0
20.3958 63.6672 -52.0337 -0.065 -0.466 0.883 90 170 137 0
20.3569 63.8581 -51.9184 -0.063 -0.467 0.882 83 168 132 0
20.4399 64.2087 -51.5826 0.458 0.090 0.884 76 169 128 0
25.4353 66.1836 -46.0552 0.897 0.369 -0.242 50 152 104 0
25.6952 66.2968 -45.7597 0.893 0.324 -0.313 49 152 105 0
25.4113 66.5319 -45.8071 0.908 0.321 -0.271 47 152 104 0
26.0318 66.7317 -45.1555 0.973 0.125 -0.192 45 148 101 0
26.3270 66.8332 -44.8406 0.992 -0.094 -0.090 42 147 100 0
18.8225 71.6468 -47.1707 0.837 0.346 -0.424 39 139 89 0
19.0282 71.7724 -46.9092 0.713 0.599 -0.365 40 140 92 0
19.0972 71.9332 -46.7303 0.691 0.640 -0.335 39 139 92 0
19.6568 71.9631 -46.2580 0.841 0.383 -0.382 39 141 93 0
20.0187 72.0439 -45.9054 0.950 0.261 -0.169 41 141 93 0
20.0182 72.2209 -45.7699 0.832 0.412 -0.370 40 140 91 0
7.1903 110.0228 -27.0481 0.713 0.550 0.435 142 124 115 0
21.8919 60.9706 -53.2342 0.261 -0.534 0.804 192 219 214 0
21.8326 61.1636 -53.1336 0.258 -0.551 0.793 190 218 213 0
20.6958 64.1129 -51.7837 -0.088 -0.400 0.912 104 175 146 0
20.6201 64.3104 -51.6929 0.452 0.092 0.887 93 171 138 0
13.9276 69.8515 -52.8307 0.610 -0.663 0.435 47 150 103 0
14.0174 70.0212 -52.6279 0.608 -0.670 0.426 44 149 101 0
19.9271 72.3869 -46.0446 0.948 0.315 -0.038 42 140 93 0
61.6616 76.0065 -9.6105 0.623 0.681 -0.386 145 132 123 0
7.1841 110.2001 -27.2584 0.715 0.556 0.423 141 124 114 0
26.9172 56.2211 -53.1514 0.563 -0.750 0.347 200 220 218 0
20.6885 64.6163 -51.7361 0.204 0.066 0.977 131 196 170 0
19.6898 66.2833 -51.2622 -0.002 -0.311 0.951 66 164 121 0
19.9257 66.4160 -50.9692 0.568 -0.476 0.671 64 164 120 0
19.9947 66.5835 -50.7844 0.593 -0.449 0.669 62 162 120 0
19.3421 72.6877 -46.6165 0.983 0.105 0.153 43 137 92 0
72.3191 66.7720 -8.2705 0.571 0.553 -0.607 161 152 145 0
7.1686 110.3830 -27.4725 0.715 0.556 0.423 139 125 114 0
20.3760 66.0942 -51.1862 0.008 -0.323 0.947 79 166 129 0
20.2690 66.2990 -51.1155 0.008 -0.323 0.947 74 165 125 0
13.3276 70.6725 -53.3914 0.815 -0.524 0.249 49 150 104 0
17.5878 74.7547 -46.7833 0.248 0.437 0.864 81 129 107 0
17.1434 75.0628 -46.9073 0.427 0.275 0.861 88 129 111 0
16.1053 82.5297 -42.0007 0.965 0.120 -0.233 173 174 169 0
28.1252 56.4944 -52.5950 0.642 -0.548 0.536 199 219 217 0
27.6833 56.7274 -52.7761 0.427 -0.386 0.818 201 219 217 0
28.2087 56.8347 -52.2643 0.325 -0.161 0.932 203 219 216 0
22.0302 62.6275 -52.8432 0.258 -0.572 0.779 188 218 212 0
22.0056 62.9961 -52.5791 0.270 -0.559 0.784 187 217 211 0
22.2976 68.6655 -47.9696 0.818 0.571 -0.066 50 150 105 0
16.2982 74.9080 -48.0555 0.605 -0.640 0.474 68 131 104 0
17.4168 74.7697 -47.2487 0.300 -0.530 0.793 74 129 105 0
17.8389 74.8284 -46.8588 0.240 0.470 0.849 81 127 107 0
17.5135 75.1023 -46.9133 0.256 0.526 0.811 92 128 114 0
17.1582 75.3859 -46.9848 0.256 0.526 0.811 113 143 134 0
19.4016 78.0602 -43.0912 0.101 0.157 0.982 170 173 178 0
16.2217 82.6398 -42.1568 0.867 0.436 -0.241 172 173 168 0
15.6499 83.0206 -42.3301 0.867 0.497 -0.047 171 172 167 0
7.3398 110.6345 -27.8256 0.637 0.588 0.498 139 125 115 0
21.0467 63.6757 -53.1735 0.266 -0.748 0.608 187 219 212 0
21.3578 66.1610 -51.0002 -0.145 -0.258 0.955 159 212 190 0
20.9930 66.6012 -50.9597 -0.046 -0.269 0.962 127 192 164 0
20.8311 66.8175 -50.9255 -0.045 -0.271 0.962 110 179 150 0
20.7222 67.0224 -50.8565 -0.048 -0.238 0.970 93 167 136 0
17.7148 74.8303 -47.2963 0.325 -0.486 0.811 77 128 107 0
17.9710 74.9361 -47.0046 0.219 0.405 0.888 85 128 111 0
17.7021 75.1938 -47.0262 0.217 0.491 0.843 98 130 120 0
17.3394 75.4799 -47.1028 0.218 0.489 0.845 131 156 150 0
16.9677 75.7696 -47.1839 0.213 0.487 0.847 152 173 168 0
19.3140 77.7116 -43.7613 0.355 0.609 0.709 169 174 177 0
15.3898 83.2668 -42.6914 0.820 0.571 -0.041 169 168 166 0
20.9974 67.2805 -50.7651 -0.081 -0.213 0.974 133 195 169 0
20.8466 67.4950 -50.7236 -0.149 -0.133 0.980 110 177 152 0
20.4416 67.9487 -50.7065 -0.147 -0.139 0.979 81 158 130 0
16.2814 75.0261 -48.6638 0.264 -0.270 0.926 65 133 103 0
17.9487 74.9089 -47.3814 0.387 -0.431 0.815 79 128 110 0
18.2076 75.0133 -47.0877 0.249 0.468 0.848 88 129 116 0
17.9062 75.2806 -47.1293 0.217 0.491 0.843 107 137 129 0
17.5448 75.5665 -47.2060 0.218 0.489 0.845 147 171 165 0
17.1881 75.8520 -47.2791 0.218 0.489 0.845 153 173 167 0
24.5631 75.8382 -41.2172 0.680 0.051 0.731 166 175 176 0
26.6509 61.4813 -50.9103 0.407 -0.908 -0.098 196 221 217 0
20.6203 68.4084 -50.5388 -0.116 -0.264 0.957 90 162 136 0
20.4091 68.6386 -50.5354 -0.118 -0.282 0.952 79 156 127 0
20.2777 68.8504 -50.4802 -0.117 -0.280 0.953 73 155 123 0
20.2017 69.0493 -50.3892 -0.115 -0.282 0.953 68 154 120 0
20.2107 69.2278 -50.2438 0.020 -0.525 0.851 66 155 120 0
20.2322 69.4030 -50.0904 0.056 -0.546 0.836 65 153 118 0
20.3690 69.5498 -49.8637 0.247 -0.725 0.643 61 152 116 0
20.4249 69.7159 -49.6891 0.249 -0.741 0.624 57 151 114 0
20.4929 69.8787 -49.5069 0.247 -0.742 0.623 56 152 113 0
18.1800 74.9879 -47.4675 0.385 -0.430 0.817 80 127 112 0
18.2549 75.1454 -47.2838 0.383 0.289 0.877 87 126 116 0
18.0635 75.3808 -47.2600 0.272 0.500 0.822 114 142 136 0
17.7328 75.6579 -47.3191 0.272 0.500 0.822 148 170 165 0
17.4004 75.9365 -47.3785 0.272 0.500 0.822 154 173 168 0
17.0671 76.2163 -47.4376 0.226 0.469 0.854 156 174 167 0
16.7715 76.6666 -47.3338 0.299 0.305 0.904 157 171 168 0
18.3507 76.3666 -46.2601 0.424 -0.131 0.896 160 170 169 0
13.6773 60.5297 -62.7389 0.795 -0.596 0.107 198 216 216 0
16.2426 60.3473 -60.7503 0.639 -0.695 -0.329 200 217 218 0
20.5998 69.4541 -50.0816 0.056 -0.546 0.836 73 153 122 0
20.7027 69.6085 -49.8766 0.232 -0.739 0.633 68 151 119 0
20.7427 69.7780 -49.7121 0.229 -0.737 0.636 64 153 118 0
20.7591 69.9531 -49.5630 0.255 -0.720 0.645 62 154 117 0
20.6315 70.1641 -49.5055 0.183 -0.398 0.899 59 153 114 0
18.4342 75.0598 -47.5392 0.382 -0.413 0.826 84 129 115 0
18.5312 75.2103 -47.3421 0.345 0.457 0.820 93 128 120 0
18.2810 75.4630 -47.3542 0.325 0.498 0.804 130 155 151 0
17.9820 75.7309 -47.3951 0.317 0.498 0.807 152 170 169 0
17.6591 76.0068 -47.4496 0.323 0.496 0.806 155 171 168 0
68.4731 66.6515 -12.5044 0.628 0.383 -0.678 157 152 145 0
13.6344 60.6804 -63.0246 0.780 -0.611 0.138 198 215 215 0
19.8001 60.7106 -57.8607 0.659 -0.336 -0.673 197 216 215 0
20.4664 66.7247 -52.6437 0.851 0.263 -0.455 183 212 208 0
20.7138 70.4632 -49.5398 -0.028 -0.050 0.998 66 152 118 0
20.4966 70.6975 -49.5392 -0.077 0.011 0.997 62 149 112 0
18.6996 75.1280 -47.6034 0.356 -0.420 0.835 87 127 116 0
18.7380 75.2953 -47.4417 0.314 0.442 0.840 104 136 129 0
18.4713 75.5530 -47.4643 0.321 0.492 0.809 142 163 160 0
18.1685 75.8222 -47.5081 0.321 0.492 0.809 155 170 168 0
17.7195 76.1361 -47.6391 0.348 0.629 0.695 155 170 166 0
17.7715 98.8684 -29.9760 0.713 0.673 -0.198 145 132 123 0
17.4873 99.1754 -29.9750 0.712 0.675 -0.194 144 131 122 0
21.0202 67.6502 -51.8010 0.653 0.752 0.088 181 210 204 0
23.2547 67.4956 -50.0503 -0.124 -0.098 0.987 178 210 201 0
20.6601 70.9758 -49.5220 -0.070 -0.009 0.998 69 148 115 0
20.4458 71.2104 -49.5194 -0.068 -0.155 0.985 64 147 113 0
20.0780 71.4858 -49.6136 -0.056 -0.424 0.904 61 147 111 0
20.0062 71.6842 -49.5198 -0.051 -0.439 0.897 59 146 109 0
20.0328 71.8565 -49.3639 0.074 -0.638 0.767 57 145 108 0
20.0701 73.8078 -47.8185 0.804 -0.467 -0.369 55 136 100 0
18.9514 75.1996 -47.6751 0.319 -0.412 0.854 88 127 116 0
18.9339 75.3832 -47.5474 0.321 0.436 0.841 120 150 144 0
18.6482 75.6466 -47.5821 0.317 0.493 0.811 147 166 164 0
16.9630 99.6051 -30.4029 0.712 0.675 -0.194 144 131 122 0
13.3196 62.4295 -62.6666 0.947 0.172 -0.273 195 215 212 0
28.7974 62.2899 -49.7640 0.909 -0.214 -0.358 194 217 211 0
30.8370 62.4034 -47.9612 0.987 0.061 -0.146 191 216 211 0
26.4886 65.8508 -48.9388 0.311 -0.275 0.910 181 214 204 0
24.0617 67.4447 -49.7410 -0.114 -0.180 0.977 180 212 201 0
20.5955 71.4919 -49.5110 -0.057 -0.417 0.907 73 150 120 0
20.4993 71.6960 -49.4333 -0.045 -0.459 0.887 64 145 113 0
19.1078 75.1208 -47.9428 0.385 -0.471 0.794 79 128 112 0
19.1680 75.2813 -47.7676 0.366 -0.406 0.837 92 131 120 0
19.0723 75.4879 -47.6876 0.364 0.449 0.816 126 156 149 0
18.5724 77.0638 -46.8837 0.655 -0.271 0.706 159 169 170 0
18.8778 77.3227 -46.4259 0.760 0.638 -0.123 158 168 169 0
21.3964 83.4843 -39.5226 0.617 0.505 -0.603 155 151 148 0
28.0567 62.2139 -50.7636 0.843 -0.349 -0.409 193 216 210 0
28.1603 62.3667 -50.5574 0.844 -0.347 -0.410 194 216 210 0
28.0585 62.5582 -50.4944 0.821 -0.514 -0.248 194 215 210 0
25.6720 64.9457 -50.6523 0.758 0.527 -0.383 188 214 211 0
26.2515 65.8630 -49.4500 0.663 -0.057 0.747 184 216 207 0
24.4582 67.4877 -49.7003 -0.113 -0.184 0.976 180 211 201 0
23.7823 67.8217 -50.0111 -0.090 -0.132 0.987 179 211 200 0
19.3248 75.2024 -48.0346 0.397 -0.432 0.810 82 128 113 0
19.3480 75.3735 -47.8819 0.366 -0.393 0.843 102 139 129 0
19.1719 75.6041 -47.8513 0.381 0.457 0.804 133 163 155 0
17.9811 77.2174 -47.6020 0.575 0.270 0.772 158 168 167 0
18.4902 77.2369 -47.1571 0.489 0.088 0.868 158 168 169 0
19.3528 77.1433 -46.5017 0.744 -0.668 -0.011 158 169 168 0
21.7055 85.9899 -37.6368 0.566 0.436 -0.700 151 146 140 0
15.3475 100.7653 -31.5145 0.261 0.825 0.501 140 130 118 0
3.6400 112.4270 -32.3289 0.632 0.748 -0.201 138 126 114 0
27.8123 62.2151 -51.2886 0.676 -0.731 -0.093 192 213 210 0
27.7892 62.3925 -51.1700 0.647 -0.702 0.297 192 214 211 0
27.7288 62.5771 -51.0776 0.669 -0.702 0.244 193 213 211 0
27.8997 62.7171 -50.8238 0.443 -0.786 0.430 192 212 210 0
28.0391 62.8625 -50.5924 0.470 -0.798 0.378 193 213 211 0
24.9952 65.2219 -51.3358 0.757 0.528 -0.385 188 212 209 0
24.6691 65.8201 -51.1465 0.851 0.202 -0.484 187 214 210 0
24.7056 65.9882 -50.9848 0.854 0.208 -0.477 184 212 207 0
24.8245 67.3626 -49.8140 0.252 0.198 0.947 181 210 201 0
24.7028 67.5656 -49.7592 0.246 0.202 0.948 179 209 200 0
23.9850 67.9101 -50.0995 0.248 0.105 0.963 178 208 200 0
23.8452 68.1190 -50.0554 0.250 0.131 0.959 178 208 200 0
23.5588 68.3634 -50.1078 0.337 -0.267 0.903 176 207 197 0
20.7354 74.0476 -48.0762 0.958 -0.183 0.223 58 137 105 0
19.7313 75.2272 -48.0091 0.363 0.391 0.846 88 132 118 0
19.5554 75.4573 -47.9791 0.363 0.457 0.812 119 154 145 0
19.3434 75.6986 -47.9709 0.366 0.434 0.823 140 166 161 0
18.2929 76.7320 -48.0569 0.341 0.490 0.802 153 164 162 0
18.1261 77.4992 -47.6010 0.345 0.246 0.906 157 167 165 0
1.2473 114.3307 -33.2370 0.693 0.676 -0.251 135 122 113 0
27.9146 62.3244 -51.4367 0.682 -0.722 -0.118 190 210 208 0
27.6547 62.7202 -51.3495 0.648 -0.751 -0.128 193 213 211 0
28.2415 62.7796 -50.8038 0.652 -0.702 0.287 192 211 210 0
23.4732 65.5016 -52.7409 0.337 0.138 0.931 191 212 210 0
23.9080 65.5877 -52.3037 0.598 0.068 0.798 189 210 207 0
24.4524 65.6485 -51.7931 0.843 0.302 -0.444 189 210 207 0
19.9974 75.2931 -48.0690 0.302 0.810 0.502 102 143 131 0
19.6605 75.5714 -48.1389 0.425 0.610 0.669 135 167 160 0
19.4142 75.8234 -48.1521 0.463 0.643 0.609 142 165 162 0
19.1203 76.0904 -48.1941 0.455 0.641 0.618 148 163 163 0
14.8807 86.2711 -43.8690 0.624 0.485 -0.613 154 149 146 0
27.8483 62.4657 -51.7039 0.723 -0.680 -0.119 189 209 208 0
28.3816 62.8809 -50.9243 0.684 -0.650 0.331 189 209 208 0
23.5187 65.6278 -52.9371 0.338 -0.101 0.936 191 210 205 0
23.4064 65.8308 -52.8747 0.338 -0.101 0.936 190 209 203 0
23.6581 65.9553 -52.5625 0.448 -0.543 0.711 189 209 203 0
21.7212 68.5457 -52.1970 0.544 0.803 -0.245 180 207 200 0
19.7434 75.6923 -48.3122 0.493 0.682 0.541 142 166 161 0
19.4685 75.9532 -48.3436 0.480 0.681 0.553 144 164 161 0
19.0397 76.4402 -48.3302 0.409 0.442 0.798 154 164 162 0
6.5852 96.2332 -43.5331 0.668 -0.428 -0.608 151 140 137 0
23.7443 65.7155 -53.0092 0.338 -0.101 0.936 190 209 204 0
24.1440 65.8077 -52.5942 0.467 -0.280 0.839 188 208 202 0
23.8222 66.0556 -52.6768 0.434 -0.532 0.727 188 208 203 0
23.1981 66.3709 -52.9661 0.424 0.086 0.901 188 209 203 0
24.9452 67.3906 -50.6706 0.209 -0.311 0.927 183 207 201 0
24.8127 67.5965 -50.6235 0.172 -0.069 0.983 180 205 202 0
24.6745 67.8042 -50.5799 0.172 -0.070 0.983 180 205 201 0
24.6339 67.9888 -50.4706 0.170 -0.042 0.985 179 205 201 0
22.0760 69.3171 -51.6282 0.697 0.321 -0.642 176 202 196 0
22.4434 69.7602 -50.9669 0.726 0.180 -0.664 172 202 192 0
19.8380 75.8096 -48.4784 0.468 0.640 0.610 144 167 160 0
19.2229 76.3528 -48.5820 0.469 0.676 0.569 149 163 159 0
19.1348 76.5581 -48.4973 0.398 0.464 0.791 152 164 160 0
24.5028 64.2633 -53.8251 0.149 -0.158 0.976 189 207 204 0
24.0298 65.7900 -53.0391 0.344 -0.100 0.934 186 206 202 0
24.2048 65.9301 -52.7788 0.471 -0.389 0.792 185 206 201 0
24.0431 66.1433 -52.7514 0.435 -0.575 0.693 185 206 202 0
23.5590 66.4282 -52.9458 0.637 0.674 0.373 186 207 202 0
23.3270 66.6585 -52.9657 0.637 0.674 0.373 185 206 201 0
25.2350 67.8063 -50.4244 0.151 -0.101 0.983 181 203 200 0
25.0963 68.0137 -50.3818 0.151 -0.101 0.983 179 203 200 0
20.0112 75.7256 -48.7341 0.275 0.790 0.548 140 167 155 0
19.5209 76.4081 -48.6230 0.384 0.495 0.779 149 165 158 0
19.1906 76.6882 -48.6887 0.415 0.485 0.770 149 163 159 0
7.3525 96.7885 -43.1746 0.561 -0.686 0.463 146 136 126 0
8.8727 106.9073 -33.9540 0.548 -0.835 -0.048 141 129 116 0
24.3940 64.0615 -54.4106 0.043 -0.006 0.999 189 205 202 0
24.1351 65.9030 -53.1934 0.447 -0.100 0.889 183 203 201 0
24.4151 66.0198 -52.8598 0.471 -0.389 0.792 183 203 201 0
23.3984 66.6007 -53.2847 0.475 0.490 0.731 183 203 201 0
21.7371 67.1522 -54.2903 0.554 -0.713 -0.430 182 202 200 0
24.3203 67.2805 -51.9551 0.382 -0.508 0.772 181 203 198 0
25.2440 67.9396 -50.6402 0.126 -0.141 0.982 180 203 197 0
25.2701 68.1073 -50.4863 0.160 -0.049 0.986 179 202 196 0
24.8491 69.6018 -49.6809 0.616 0.780 -0.110 174 196 189 0
21.3068 71.2262 -51.4743 0.613 -0.674 0.413 168 193 189 0
20.0459 75.8611 -48.9377 0.278 0.792 0.544 146 170 158 0
19.7265 76.4915 -48.7207 0.433 0.548 0.716 149 166 159 0
19.4811 76.7453 -48.7344 0.356 0.437 0.826 150 165 160 0
4.9101 85.0978 -54.8034 0.656 -0.542 -0.526 156 159 161 0
7.7394 96.9688 -43.0652 0.458 -0.655 0.601 149 138 130 0
24.4181 65.9771 -53.2237 0.563 -0.221 0.796 181 200 199 0
24.8220 66.0659 -52.8033 0.520 -0.522 0.676 181 201 199 0
24.5305 67.3681 -52.0363 0.398 -0.515 0.759 179 199 197 0
25.8243 67.2409 -51.0120 0.379 -0.778 0.501 180 201 197 0
25.6999 67.6179 -50.8247 0.570 -0.477 0.669 179 202 196 0
25.7614 67.9503 -50.5109 0.151 -0.110 0.982 179 200 195 0
25.7231 68.1329 -50.4011 0.155 -0.093 0.984 177 199 194 0
25.0243 68.4773 -50.7383 0.329 0.310 0.892 178 200 194 0
24.4112 69.8516 -50.1942 0.600 0.798 -0.062 172 193 188 0
24.0403 70.1220 -50.3045 0.520 0.832 0.192 171 193 188 0
20.0643 76.0017 -49.1518 0.278 0.792 0.544 149 170 161 0
20.2298 76.4819 -48.6318 0.411 0.445 0.796 151 166 163 0
19.8552 76.7757 -48.7271 0.359 0.357 0.862 151 166 162 0
19.7402 76.9889 -48.6599 0.528 0.144 0.837 151 166 161 0
