ply
format ascii 1.0
element vertex 816
property float x
property float y
property float z
property float nx
property float ny
property float nz
property uchar diffuse_red
property uchar diffuse_green
property uchar diffuse_blue
property uchar class
end_header
-13.5392 34.7644 -59.0379 0.281 -0.668 0.689 209 207 212 0
-13.2275 35.1542 -59.0944 0.803 -0.427 0.415 207 205 210 0
-13.0529 36.5405 -59.4893 0.741 -0.671 0.022 204 202 207 0
-13.5392 38.0178 -60.0499 0.225 -0.904 -0.363 207 202 209 0
-14.4305 40.0656 -60.8721 0.803 -0.246 0.542 204 199 205 0
-14.2971 40.3099 -60.9204 0.801 -0.247 0.545 203 197 204 0
-10.9816 37.8540 -59.4674 0.680 -0.598 0.425 201 195 205 0
-10.8280 38.0602 -59.4995 0.708 -0.548 0.446 201 195 205 0
-10.6379 38.2158 -59.5084 0.680 -0.598 0.425 201 195 205 0
-11.6269 40.0348 -60.2798 0.732 -0.680 0.031 201 195 206 0
-11.4875 40.2693 -60.3238 0.727 -0.684 0.049 201 194 207 0
-7.3570 36.9127 -58.4212 0.495 -0.810 -0.313 197 194 203 0
-7.3009 37.2549 -58.5160 0.504 -0.853 -0.138 196 193 203 0
-8.8061 40.3223 -59.7829 0.828 -0.520 -0.208 196 193 204 0
-6.6525 41.0924 -59.5748 0.317 -0.496 -0.808 197 195 206 0
-6.4421 41.2203 -59.5708 0.317 -0.496 -0.808 196 194 205 0
-3.8278 38.9674 -58.3267 0.268 -0.962 -0.046 193 193 202 0
1.1130 39.0922 -57.3386 0.734 -0.630 -0.251 198 198 207 0
1.3444 39.1620 -57.3122 0.835 -0.548 -0.055 198 198 207 0
3.7827 35.9246 -55.7984 0.143 -0.984 -0.102 199 199 206 0
5.8657 34.5663 -54.9429 0.379 -0.705 0.599 197 198 202 0
5.9990 34.7814 -54.9821 0.069 -0.847 0.527 197 198 199 0
6.5037 34.7922 -54.8806 0.498 -0.866 0.038 193 195 194 0
8.6277 37.4086 -55.2529 0.380 -0.852 0.360 218 215 102 0
9.1555 37.3649 -55.1296 0.609 -0.715 0.344 224 220 95 0
10.4364 37.3075 -54.8455 0.615 -0.775 -0.146 230 229 88 0
10.4481 37.7717 -54.9875 0.838 -0.329 0.436 230 230 86 0
10.6956 40.2693 -55.7129 0.068 -0.945 0.320 233 236 86 0
13.8238 40.4777 -55.1275 -0.434 -0.798 0.419 231 232 79 0
19.3483 35.5136 -52.4351 0.876 -0.388 -0.287 219 219 68 0
18.2824 48.3723 -56.6563 0.971 -0.203 -0.125 183 174 57 0
22.0553 44.1262 -54.5514 -0.138 -0.960 -0.244 157 146 84 0
23.5566 43.7891 -54.1345 0.792 -0.481 0.377 159 161 145 0
29.3296 64.8476 -59.4846 -0.328 -0.943 0.046 183 175 166 0
31.6145 61.4846 -57.9636 -0.507 -0.835 -0.215 182 172 162 0
33.1459 57.1178 -56.2871 -0.132 -0.455 0.881 181 171 161 0
33.3110 57.3670 -56.3303 -0.196 -0.390 0.900 182 170 161 0
33.6720 56.8014 -56.0793 -0.168 -0.518 0.839 181 168 160 0
35.1420 72.3342 -60.6051 0.513 -0.259 -0.819 166 157 152 0
35.2122 73.1918 -60.8573 0.509 -0.261 -0.820 165 156 148 0
40.6173 55.6641 -54.2819 0.031 -0.854 -0.519 165 152 144 0
38.6912 71.1858 -59.5102 0.636 -0.228 -0.737 163 154 143 0
46.8188 62.5027 -55.1200 -0.228 -0.969 -0.097 153 141 135 0
46.9948 62.7438 -55.1584 0.293 -0.864 -0.410 151 140 134 0
48.9091 67.7982 -56.3327 0.335 -0.876 -0.347 153 138 130 0
-40.3295 16.7893 -59.2709 -0.303 -0.730 0.612 233 233 231 0
-19.0372 34.2277 -60.2762 -0.157 -0.963 0.219 222 220 221 0
-13.1901 34.7013 -59.2026 0.475 -0.566 0.674 208 206 209 0
-12.8939 34.7108 -59.1437 0.507 -0.603 0.615 208 204 208 0
-12.9607 35.1992 -59.3104 0.393 -0.593 0.703 207 203 206 0
-14.3504 39.5302 -60.9554 0.796 -0.278 0.538 207 200 207 0
-14.1714 39.7105 -60.9744 0.895 -0.197 0.399 205 199 205 0
-14.1996 40.1740 -61.1253 0.801 -0.247 0.545 205 198 205 0
-10.6372 38.2134 -59.7677 0.681 -0.606 0.411 199 196 207 0
-11.5908 39.9826 -60.5203 0.700 -0.714 0.009 202 196 207 0
-11.4804 40.2583 -60.5835 0.727 -0.684 0.049 203 195 206 0
3.2414 23.3483 -52.2182 0.807 -0.588 -0.055 198 192 204 0
-3.7364 38.8283 -58.5180 0.299 -0.944 -0.142 194 194 203 0
-3.8570 39.4622 -58.7415 0.440 -0.897 0.046 194 194 203 0
-3.6297 39.5533 -58.7226 0.361 -0.932 -0.025 194 194 203 0
-3.3983 39.6375 -58.7005 0.992 -0.123 -0.018 195 195 204 0
5.4326 34.4355 -55.2282 0.221 -0.969 -0.107 198 199 205 0
5.8812 34.5479 -55.1696 0.252 -0.736 0.628 199 199 201 0
6.1653 34.4984 -55.0948 0.142 -0.785 0.603 198 199 198 0
6.4320 34.4778 -55.0326 -0.119 -0.900 0.419 197 197 195 0
8.6707 37.3401 -55.4601 0.380 -0.852 0.360 218 215 103 0
9.0464 37.1066 -55.3086 0.391 -0.859 0.330 221 217 97 0
9.1191 37.4477 -55.4001 0.578 -0.737 0.350 223 220 95 0
8.4311 39.2476 -56.1068 0.203 -0.968 -0.147 224 220 95 0
9.7189 41.7415 -56.6177 0.040 -0.723 0.690 231 234 85 0
10.0963 41.4957 -56.4620 0.294 -0.695 0.656 231 234 87 0
11.5810 39.5061 -55.5294 0.414 -0.444 0.795 233 235 88 0
12.3709 39.4117 -55.3349 -0.523 -0.752 -0.402 232 234 83 0
22.5641 42.1917 -54.0745 0.051 -0.931 0.361 161 147 75 0
23.6033 43.6971 -54.3282 0.753 -0.461 0.471 159 163 146 0
23.8185 43.7311 -54.2939 0.766 -0.359 0.534 162 164 150 0
33.4125 69.1723 -60.2467 0.973 -0.232 -0.000 175 161 152 0
46.6228 62.6085 -55.4334 -0.096 -0.988 0.125 153 140 134 0
46.8908 62.1208 -55.2248 -0.115 -0.988 -0.099 150 140 131 0
48.9267 67.8742 -56.5989 0.337 -0.878 -0.339 151 136 129 0
49.5542 67.8728 -56.4674 -0.218 -0.931 -0.292 95 87 83 0
-40.3960 17.9942 -59.9196 0.766 -0.057 0.641 234 231 230 0
-19.1261 36.6849 -61.3304 -0.471 -0.881 0.048 219 214 218 0
-14.0968 36.2905 -60.1499 0.950 -0.217 0.223 208 206 209 0
-15.7946 39.7794 -61.6038 0.893 -0.406 -0.192 205 203 208 0
-12.6172 36.3582 -59.8604 0.688 -0.721 -0.085 205 202 208 0
-13.0030 37.2883 -60.2340 0.742 -0.663 -0.103 207 202 209 0
-11.6603 40.0794 -60.8298 0.932 -0.051 0.360 201 198 207 0
7.7654 14.9584 -48.8484 0.628 0.010 0.778 199 193 203 0
-7.7430 40.9576 -60.2832 0.655 -0.463 -0.597 197 195 205 0
4.6709 30.9710 -54.5347 0.485 -0.773 -0.408 198 198 208 0
1.4071 39.0708 -57.7678 0.790 -0.611 -0.058 198 199 204 0
4.4486 34.3592 -55.6470 0.341 -0.932 0.127 200 199 205 0
5.2052 33.5091 -55.2207 0.684 -0.714 -0.147 200 199 205 0
5.3407 33.7164 -55.2575 0.703 -0.703 -0.111 200 201 205 0
5.3527 34.5822 -55.5273 0.251 -0.919 -0.302 199 200 205 0
6.1771 34.0396 -55.1834 0.932 -0.348 -0.102 200 200 202 0
6.2733 34.3175 -55.2506 0.932 -0.348 -0.102 198 199 198 0
6.3108 34.7007 -55.3633 0.350 -0.926 0.139 197 199 197 0
8.8147 35.6655 -55.1408 0.669 -0.550 0.500 211 204 121 0
8.8081 37.0935 -55.5913 0.614 -0.752 0.241 218 215 105 0
7.8982 40.7793 -56.9417 0.444 -0.498 0.745 224 223 96 0
8.5087 40.5977 -56.7563 0.245 -0.404 0.881 227 227 94 0
9.7231 38.7290 -55.9135 -0.102 -0.924 0.369 230 228 91 0
10.6420 40.4111 -56.2495 0.243 -0.671 0.701 231 234 87 0
10.9262 40.3459 -56.1693 0.176 -0.680 0.712 231 235 88 0
11.6819 39.3177 -55.6872 0.414 -0.444 0.795 231 234 88 0
12.0555 39.0610 -55.5280 -0.436 -0.900 -0.021 231 234 87 0
15.1897 40.1944 -55.2261 0.260 -0.842 -0.473 229 230 89 0
15.4223 40.2142 -55.1835 0.247 -0.875 -0.417 227 230 88 0
15.8652 39.7639 -54.9488 -0.047 -0.980 0.193 228 228 86 0
14.4938 45.0552 -56.9011 0.839 -0.118 -0.531 223 223 78 0
22.4937 41.2090 -54.0111 0.258 -0.962 -0.091 168 156 67 0
22.6748 41.3294 -54.0109 0.411 -0.870 -0.272 164 152 71 0
23.7011 43.4637 -54.4666 0.710 -0.385 0.590 159 162 145 0
23.8353 43.7221 -54.5196 0.696 -0.387 0.605 162 165 151 0
22.8183 47.8658 -56.0365 0.050 -0.306 0.951 168 168 158 0
29.8969 64.6888 -59.8408 0.353 -0.638 -0.684 180 169 163 0
30.0594 65.0051 -59.9062 0.313 -0.670 -0.673 181 170 164 0
32.6780 65.0973 -59.3851 0.973 -0.046 0.225 180 167 159 0
32.9133 67.1932 -59.9949 0.985 -0.168 -0.049 176 164 158 0
33.0908 67.4692 -60.0444 0.709 -0.644 -0.288 176 163 156 0
49.5719 67.9526 -56.7346 -0.218 -0.931 -0.292 95 86 82 0
-33.3578 9.8796 -56.1252 0.705 -0.596 0.385 237 234 232 0
-17.7942 36.6128 -61.2936 -0.316 -0.823 0.471 218 212 216 0
-12.5245 34.2163 -59.4230 -0.027 -0.580 0.814 207 207 209 0
-16.0380 39.6784 -61.8923 0.888 -0.455 -0.069 206 205 209 0
-15.8914 39.9045 -61.9329 0.905 -0.400 -0.146 206 205 210 0
-15.7065 40.0804 -61.9494 0.892 -0.420 -0.168 205 204 209 0
-13.2828 41.0549 -61.7459 0.802 -0.211 -0.559 201 200 206 0
3.3568 23.5495 -52.6962 0.693 -0.715 0.096 199 198 207 0
3.4966 23.7133 -52.7185 0.767 -0.637 -0.081 197 197 205 0
4.5919 31.1069 -54.8255 0.485 -0.778 -0.399 198 198 208 0
8.9397 35.9123 -55.4272 0.708 -0.460 0.536 212 207 115 0
8.8717 36.9862 -55.7812 0.541 -0.705 0.459 216 214 104 0
8.2327 40.1496 -56.9166 0.462 -0.480 0.746 223 223 96 0
10.6461 40.4197 -56.4924 0.347 -0.866 0.359 228 233 86 0
11.0228 40.1669 -56.3329 0.248 -0.910 0.331 228 234 86 0
11.1744 40.3695 -56.3650 0.309 -0.940 -0.144 229 234 86 0
15.3884 42.4887 -56.1454 -0.132 -0.983 -0.125 224 223 83 0
15.5994 42.5637 -56.1246 -0.084 -0.987 -0.140 222 221 80 0
24.7759 28.8232 -49.8414 -0.305 -0.952 -0.002 197 189 51 0
22.5654 41.0534 -54.1761 0.212 -0.972 -0.101 167 154 67 0
22.6727 41.3684 -54.2530 0.241 -0.968 0.070 164 151 71 0
24.1049 42.3829 -54.2715 0.421 -0.043 0.906 158 161 144 0
23.2480 46.6949 -55.8161 0.043 -0.388 0.920 168 168 157 0
32.6712 65.2174 -59.6843 0.989 -0.128 0.074 177 164 156 0
32.9144 67.2837 -60.2865 0.985 -0.168 -0.049 174 163 158 0
32.9988 67.9753 -60.4874 0.920 -0.267 -0.285 173 162 156 0
33.9278 68.1167 -60.3359 0.999 0.043 -0.015 170 158 152 0
38.0628 67.3917 -59.2335 0.754 -0.102 -0.648 160 149 143 0
48.9303 68.3273 -57.2348 -0.263 -0.925 -0.274 149 134 127 0
50.4860 69.5867 -57.3046 0.027 -0.971 -0.236 255 255 255 0
-12.5297 33.8226 -59.5548 0.029 -0.667 0.745 209 207 212 0
-16.0995 39.7561 -62.1993 0.889 -0.453 -0.072 206 205 210 0
-16.0037 40.0505 -62.2726 0.899 -0.411 -0.151 206 205 210 0
-15.9848 40.4490 -62.3953 0.898 -0.409 -0.164 206 205 210 0
-12.7762 36.5652 -60.4793 0.736 -0.648 -0.197 205 203 210 0
-12.5241 36.6361 -60.4483 0.722 -0.689 -0.067 204 201 210 0
-12.2248 36.6428 -60.3869 0.292 -0.887 -0.358 204 201 210 0
-12.8562 39.6010 -61.4616 0.762 -0.072 -0.644 202 203 208 0
-13.5734 41.4580 -62.2044 0.730 -0.067 -0.680 200 201 206 0
1.5416 25.1137 -53.7988 0.306 -0.901 -0.306 199 198 209 0
1.8555 25.0278 -53.7048 0.205 -0.960 -0.188 200 198 209 0
-1.8227 36.7226 -58.2045 0.080 -0.765 -0.638 199 198 206 0
6.3429 48.0304 -60.0672 0.845 -0.505 0.177 227 232 85 0
11.7638 40.7217 -56.5925 0.377 -0.703 -0.603 226 232 78 0
13.9823 41.2799 -56.2991 0.055 -0.951 -0.303 224 227 81 0
22.4263 30.4720 -51.0700 0.597 -0.802 -0.026 210 209 62 0
22.9578 30.7264 -51.0381 0.251 -0.955 0.160 206 202 56 0
24.5317 27.9381 -49.8173 -0.113 -0.983 0.148 203 198 54 0
24.5335 28.9377 -50.1348 -0.296 -0.955 -0.024 198 190 53 0
22.4892 38.3640 -53.5662 0.242 -0.933 0.266 178 167 60 0
22.7157 38.3553 -53.5154 0.202 -0.930 0.307 176 164 60 0
22.5930 41.0141 -54.3870 0.491 -0.684 -0.539 163 150 65 0
28.4469 56.0497 -57.9258 -0.403 -0.893 0.200 185 176 167 0
27.2942 62.6992 -60.2850 0.857 0.189 0.480 185 177 166 0
48.9837 68.0619 -57.3868 0.412 -0.896 -0.167 148 133 126 0
-53.1614 10.6584 -61.0724 -0.104 -0.986 -0.127 233 223 218 0
-48.4930 18.3095 -62.5228 0.538 -0.833 -0.128 235 227 227 0
-18.2781 36.8079 -61.9912 -0.406 -0.881 0.244 217 212 216 0
-16.1142 39.7716 -62.4772 0.889 -0.453 -0.072 207 206 211 0
-16.2276 40.3450 -62.6847 0.788 -0.352 -0.505 207 206 211 0
-12.6972 36.4558 -60.6880 0.571 -0.804 -0.167 206 204 211 0
-12.6370 36.7854 -60.7805 0.663 -0.674 -0.324 206 203 213 0
-12.2252 36.6404 -60.6463 0.228 -0.904 -0.361 205 202 213 0
-12.8755 37.9372 -61.1997 0.637 -0.106 0.764 206 203 214 0
-13.1628 38.7480 -61.5202 0.688 -0.149 0.710 206 203 214 0
-13.3378 40.6949 -62.1801 0.673 -0.144 -0.725 202 203 208 0
0.9503 24.8529 -54.0663 0.012 -0.956 -0.292 200 199 207 0
-2.8350 37.4364 -58.8974 0.079 -0.959 -0.274 200 199 207 0
-2.4130 37.6550 -58.8773 -0.051 -0.695 -0.717 201 200 208 0
0.7982 38.7380 -58.5385 -0.456 -0.885 0.089 199 199 205 0
7.3637 35.1222 -55.9816 -0.124 -0.751 0.649 188 191 181 0
10.3818 34.1581 -55.0294 0.560 -0.543 0.626 213 212 107 0
10.6303 34.1519 -54.9744 0.485 -0.509 0.712 214 215 102 0
10.7301 34.4281 -55.0414 0.459 -0.520 0.721 217 218 100 0
5.9782 48.7773 -60.6433 0.901 -0.387 -0.196 224 231 86 0
11.2212 40.3088 -56.8170 0.803 -0.202 -0.560 224 232 84 0
11.2362 40.7923 -56.9683 0.808 -0.230 -0.542 224 232 81 0
10.5494 43.2532 -57.9018 0.153 -0.948 -0.279 225 231 78 0
13.9037 41.4721 -56.6166 0.102 -0.936 -0.338 222 227 81 0
15.9593 42.3467 -56.4577 0.198 -0.727 -0.658 214 216 70 0
23.1760 30.7367 -51.2058 0.374 -0.927 0.043 204 199 55 0
24.6877 28.0825 -50.0346 -0.043 -0.953 0.300 199 192 56 0
22.8126 38.1367 -53.6494 0.175 -0.912 0.372 174 162 60 0
23.3164 37.9806 -53.4921 -0.089 -0.974 0.210 168 155 62 0
23.6158 37.7749 -53.3624 0.054 -0.993 0.105 166 152 63 0
22.5987 42.8473 -55.2013 0.825 -0.562 0.058 153 143 89 0
27.8959 54.7766 -57.8854 0.118 -0.525 0.843 181 174 164 0
28.0471 55.0599 -57.9437 0.074 -0.606 0.792 183 175 166 0
28.5116 55.8850 -58.1085 -0.374 -0.897 0.234 185 176 167 0
29.5644 52.9837 -56.9562 -0.346 -0.893 0.289 184 176 165 0
29.7497 53.1343 -56.9648 -0.267 -0.949 -0.170 186 178 166 0
27.3869 62.4348 -60.4427 0.865 0.198 0.460 187 179 167 0
42.6671 71.5705 -60.1037 0.448 -0.447 -0.774 156 144 132 0
49.0008 68.1437 -57.6567 0.416 -0.895 -0.161 147 132 125 0
49.6273 68.1707 -57.5317 -0.268 -0.925 -0.268 96 87 83 0
-53.8852 10.8383 -61.5455 0.030 -0.983 -0.180 229 220 216 0
-47.9136 18.1469 -62.6146 0.535 -0.843 -0.052 234 227 228 0
-18.6477 36.0646 -62.0988 0.695 -0.507 -0.510 219 215 218 0
-18.2416 36.7559 -62.2339 -0.401 -0.887 0.228 216 213 216 0
-17.4529 36.1646 -61.8747 -0.458 -0.836 0.303 216 212 215 0
-16.0946 34.8470 -61.1598 -0.264 -0.895 0.359 214 211 215 0
-12.3864 33.6263 -59.9721 0.916 -0.330 -0.229 210 208 213 0
-16.0425 39.6725 -62.7000 0.848 -0.529 0.017 206 205 210 0
-16.3754 40.5381 -63.0496 0.788 -0.352 -0.505 207 205 210 0
-13.0572 36.5254 -61.0480 0.444 -0.882 0.156 206 204 210 0
-12.5996 36.7318 -61.0163 0.749 -0.600 -0.281 206 203 212 0
-11.9590 36.2770 -60.7326 0.546 -0.812 0.207 206 204 212 0
-2.1413 37.2314 -58.9341 0.318 -0.727 -0.609 200 199 209 0
-2.2451 37.8363 -59.1508 -0.019 -0.682 -0.731 201 199 209 0
4.4768 31.7381 -55.7488 0.446 -0.892 0.079 199 200 207 0
5.0802 35.5378 -56.8409 0.216 -0.776 -0.593 202 203 203 0
7.7692 33.9474 -55.7530 0.233 -0.925 0.299 193 194 188 0
7.5250 35.2998 -56.2401 -0.210 -0.968 0.136 188 189 177 0
8.4320 35.0268 -55.9579 0.167 -0.986 0.012 183 181 149 0
10.8023 34.3033 -55.2170 0.578 -0.766 0.282 215 215 100 0
11.0867 34.6961 -55.2822 0.690 -0.551 0.470 219 221 97 0
9.6380 37.9720 -56.6461 0.949 0.128 0.287 219 221 96 0
6.0169 48.1717 -60.7017 0.985 -0.103 0.140 222 229 89 0
10.9390 40.9018 -57.3090 0.850 -0.139 -0.508 224 231 83 0
10.9255 41.4468 -57.4871 0.838 -0.176 -0.516 224 232 82 0
10.4594 43.4581 -58.2336 0.125 -0.949 -0.290 224 230 79 0
14.1626 40.9302 -56.6268 -0.411 -0.871 0.269 220 225 81 0
14.8638 43.1907 -57.2031 0.878 0.061 0.476 216 219 80 0
23.2059 30.6894 -51.3952 0.256 -0.852 -0.457 203 197 58 0
23.0532 38.1201 -53.8168 0.320 -0.916 0.240 171 159 61 0
23.3034 38.0461 -53.7393 0.387 -0.899 0.203 169 156 64 0
22.3431 43.5669 -55.7202 0.769 -0.472 -0.431 153 145 93 0
22.5681 43.5814 -55.6766 0.568 -0.731 -0.379 153 146 104 0
22.5495 44.2550 -55.8971 0.543 -0.616 -0.571 153 146 112 0
27.7941 55.1852 -58.2863 0.009 -0.638 0.770 183 176 166 0
28.2430 54.4450 -57.9521 0.256 -0.536 0.804 183 176 166 0
29.5334 53.1557 -57.2609 -0.324 -0.894 0.308 184 175 165 0
29.7979 53.0253 -57.1622 -0.325 -0.917 0.233 183 175 163 0
29.9499 53.2956 -57.2165 -0.184 -0.978 0.097 183 175 164 0
49.0206 68.1998 -57.9183 0.416 -0.895 -0.161 148 132 125 0
49.6460 68.2425 -57.7979 -0.268 -0.925 -0.268 95 86 82 0
-48.4381 18.2227 -63.0197 0.657 -0.753 -0.031 236 226 227 0
-20.3849 36.2096 -62.7867 -0.488 -0.865 -0.119 221 219 221 0
-17.3574 36.0382 -62.0787 -0.458 -0.836 0.303 215 214 217 0
-16.6790 40.0898 -63.2421 0.602 -0.718 0.349 209 207 212 0
-15.3447 38.7426 -62.5190 0.669 -0.675 -0.311 207 205 210 0
-16.6177 40.8571 -63.4769 0.780 -0.318 -0.539 207 205 210 0
-13.0493 36.5114 -61.3030 0.670 -0.687 -0.280 208 206 211 0
-12.6121 36.7454 -61.2844 0.782 -0.572 -0.248 206 205 210 0
-11.2140 35.2652 -60.5046 0.560 -0.782 -0.273 207 206 209 0
-11.0182 35.4065 -60.5081 0.560 -0.782 -0.273 206 205 211 0
-7.3198 41.6755 -61.7372 -0.338 -0.742 -0.579 201 199 208 0
-2.1671 38.1610 -59.4905 0.063 -0.655 -0.753 201 200 208 0
1.4585 38.5604 -58.8381 0.862 -0.457 -0.219 199 202 207 0
3.9969 35.6124 -57.3381 -0.091 -0.840 -0.535 201 202 205 0
7.8068 33.8899 -55.9600 0.233 -0.925 0.299 194 195 188 0
7.8423 34.2790 -56.0782 0.101 -0.956 0.274 191 192 185 0
7.5814 35.2080 -56.4347 -0.222 -0.963 0.154 190 191 179 0
8.4889 34.9332 -56.1503 0.138 -0.990 -0.021 185 182 153 0
8.7296 34.9520 -56.1044 0.145 -0.989 -0.017 188 185 144 0
11.3043 32.4395 -54.7373 0.159 -0.777 0.609 210 210 113 0
11.6225 32.2930 -54.6214 0.232 -0.691 0.684 212 212 106 0
11.3959 33.1837 -54.9582 0.288 -0.918 0.272 214 214 102 0
10.6749 35.0294 -55.7102 0.541 -0.631 0.556 215 216 97 0
10.4491 43.4982 -58.4962 0.210 -0.932 -0.296 223 228 80 0
13.7504 39.2066 -56.3974 -0.263 -0.801 0.538 221 227 76 0
14.1852 40.9022 -56.8518 -0.382 -0.844 0.377 219 225 81 0
14.2323 41.3353 -56.9816 0.280 -0.796 -0.536 219 223 83 0
14.3142 41.6949 -57.0802 0.409 -0.611 -0.677 219 223 84 0
14.9562 43.0062 -57.3657 0.918 -0.128 0.375 214 219 77 0
23.2636 38.1811 -54.0153 0.309 -0.927 0.212 165 155 65 0
22.5406 43.6912 -55.9522 0.534 -0.828 -0.171 151 146 107 0
22.4548 44.5478 -56.2476 0.345 -0.867 -0.360 152 146 115 0
28.6382 53.9401 -57.9507 -0.280 -0.662 0.695 182 173 164 0
29.8342 52.9583 -57.3755 -0.325 -0.917 0.233 181 173 162 0
33.7775 48.9404 -55.2268 0.983 0.179 -0.044 179 169 162 0
45.8268 68.3302 -58.8970 0.990 -0.101 -0.098 151 137 130 0
49.0379 68.2800 -58.1886 0.421 -0.891 -0.173 150 133 124 0
-7.3628 12.8208 -52.6334 0.630 -0.325 0.706 228 226 227 0
-17.9971 32.5334 -61.3436 -0.362 -0.849 0.385 223 221 222 0
-14.8568 29.4789 -59.6706 -0.375 -0.923 0.085 220 218 220 0
-19.5709 35.9995 -62.8111 -0.131 -0.991 0.005 219 217 220 0
-16.7093 40.1257 -63.5320 0.304 -0.949 0.082 209 207 212 0
-16.3930 40.1296 -63.4647 0.668 -0.650 0.362 209 207 212 0
-16.5957 40.8240 -63.7343 0.795 -0.315 -0.519 209 207 212 0
-14.8962 39.8224 -63.0406 0.743 -0.473 0.474 207 206 211 0
-10.9945 35.3716 -60.7488 0.863 -0.464 -0.202 206 205 211 0
-10.8225 35.5454 -60.7681 0.831 -0.541 -0.132 207 205 215 0
-11.2522 36.5444 -61.1858 0.806 -0.586 0.080 206 205 213 0
-2.7598 35.1691 -58.8989 0.947 -0.317 -0.055 201 201 209 0
-1.9597 34.7933 -58.6034 0.371 -0.892 -0.256 202 201 209 0
-3.9652 39.2096 -60.4732 0.188 -0.542 -0.819 202 201 209 0
12.9942 17.6328 -49.7867 -0.216 -0.976 -0.039 200 203 208 0
1.3569 38.7390 -59.1672 0.947 -0.320 0.000 200 202 207 0
6.7836 33.9212 -56.4257 0.253 -0.920 0.299 201 203 200 0
7.7460 34.0090 -56.2458 0.536 -0.683 0.497 196 197 190 0
7.9645 34.5240 -56.3658 0.523 -0.692 0.498 191 192 179 0
8.2851 34.3983 -56.2555 0.520 -0.636 0.570 190 188 173 0
8.2794 34.8675 -56.4092 -0.174 -0.969 0.178 188 185 169 0
8.5039 34.9170 -56.3766 0.133 -0.991 -0.011 187 183 157 0
11.0866 32.8632 -55.1496 0.333 -0.859 0.389 208 208 117 0
10.3212 43.7820 -58.8639 0.128 -0.979 -0.157 221 226 83 0
14.0930 41.6615 -57.3576 0.222 -0.832 -0.509 215 222 79 0
15.2411 42.3875 -57.3448 0.883 -0.086 0.462 211 219 74 0
14.9052 43.7037 -57.8453 0.989 0.030 0.147 209 216 70 0
22.0271 33.0592 -52.8430 0.407 -0.650 -0.642 199 195 62 0
23.0556 31.1017 -51.9840 0.592 -0.795 -0.135 198 194 63 0
24.2217 29.2938 -51.1438 0.607 -0.604 -0.517 197 189 64 0
23.9752 34.1277 -52.7681 0.752 -0.619 -0.226 177 168 62 0
24.1021 34.3527 -52.8138 0.747 -0.627 -0.219 173 164 64 0
21.9425 44.0890 -56.4458 0.497 -0.868 0.026 152 144 88 0
22.3681 44.1919 -56.3870 0.680 -0.722 0.131 150 145 110 0
22.1355 45.4500 -56.8463 0.775 -0.568 0.276 151 146 115 0
33.7096 49.2760 -55.5821 0.983 0.135 -0.124 178 172 160 0
49.0521 68.3914 -58.4702 0.389 -0.899 -0.203 149 133 121 0
-14.7983 29.4006 -59.8836 -0.485 -0.871 0.082 220 218 221 0
-15.8900 41.5904 -64.1042 0.874 -0.400 -0.275 207 207 209 0
-11.1972 35.6444 -61.1395 0.935 -0.349 -0.061 206 205 211 0
-0.6153 28.6792 -56.5594 0.250 -0.612 0.750 201 201 211 0
-3.6057 36.4631 -59.7539 0.860 -0.510 0.031 198 201 208 0
-4.5094 40.0620 -61.1265 0.217 -0.536 -0.816 202 201 209 0
12.8342 17.5392 -49.9908 0.307 -0.811 0.498 202 204 208 0
4.9934 35.7146 -57.6367 0.473 -0.322 -0.820 204 205 205 0
8.0500 33.9246 -56.3863 0.601 -0.555 0.575 196 198 188 0
8.3797 34.2366 -56.4164 0.608 -0.592 0.530 191 189 175 0
14.6171 34.9044 -55.2763 0.846 -0.449 -0.287 220 226 86 0
13.9627 41.9682 -57.7268 0.286 -0.795 -0.534 213 220 79 0
14.2085 41.9713 -57.6743 0.270 -0.799 -0.537 213 220 78 0
15.1958 41.9623 -57.4564 0.932 -0.352 -0.084 209 218 73 0
15.3004 42.2776 -57.5366 0.928 -0.361 -0.091 208 216 71 0
14.9393 43.6507 -58.0639 0.989 0.030 0.147 206 214 69 0
14.4650 45.2949 -58.7044 0.793 -0.069 0.605 205 213 67 0
18.6674 47.0687 -58.3688 0.202 -0.764 -0.612 177 169 61 0
21.6001 43.1867 -56.4618 0.391 -0.900 -0.195 159 148 71 0
21.9635 44.0681 -56.6707 0.513 -0.857 0.036 152 143 91 0
22.2722 43.8629 -56.5364 0.789 -0.599 0.134 149 142 101 0
24.0937 41.3948 -55.3333 0.154 -0.940 0.306 156 152 136 0
29.9030 49.6637 -56.7700 0.752 -0.655 0.074 180 173 163 0
32.1771 58.9891 -59.3217 0.953 0.230 0.196 180 167 158 0
45.8221 31.9135 -47.5039 0.997 0.072 0.003 156 145 139 0
49.0730 68.4382 -58.7297 0.451 -0.863 -0.229 148 131 122 0
-46.9703 18.8231 -63.7019 0.069 -0.329 0.942 234 233 229 0
-3.8067 36.3410 -60.0091 0.596 -0.803 0.008 197 200 207 0
-3.7829 36.7361 -60.1337 0.332 -0.912 -0.242 198 201 208 0
-2.9177 37.1438 -60.0782 0.658 -0.683 0.316 200 200 206 0
-2.7223 37.2779 -60.0795 0.754 -0.638 0.154 202 202 209 0
1.1045 37.8048 -59.4150 0.838 -0.427 -0.341 200 203 208 0
4.4833 36.6113 -58.2835 0.473 -0.322 -0.820 205 205 206 0
8.4644 32.7380 -56.1398 0.153 -0.956 -0.249 201 202 194 0
8.3776 33.7957 -56.5062 0.330 -0.779 0.534 194 196 182 0
8.4450 34.1284 -56.6008 0.377 -0.703 0.604 192 191 176 0
9.9602 41.4073 -58.6602 0.832 -0.014 -0.555 218 225 88 0
14.8090 42.3019 -57.8928 0.072 -0.963 -0.261 210 217 74 0
14.2778 46.3226 -59.3298 0.853 -0.478 0.209 204 210 68 0
24.0759 42.7243 -56.0033 0.981 -0.153 -0.121 159 160 145 0
24.1642 43.1087 -56.1102 0.979 -0.165 -0.118 159 160 146 0
30.2133 62.1914 -61.0546 0.812 0.285 0.510 177 172 157 0
46.9084 37.7581 -49.3747 -0.176 -0.963 0.206 152 142 133 0
47.0536 37.9360 -49.4014 -0.362 -0.931 -0.051 151 142 132 0
49.0899 68.5233 -59.0031 0.456 -0.857 -0.241 148 131 123 0
49.4978 68.6593 -58.9585 -0.366 -0.887 -0.281 146 129 120 0
-48.6216 18.5644 -64.2484 0.262 -0.671 -0.693 237 227 226 0
-48.7628 18.9678 -64.4126 0.411 -0.468 -0.782 237 227 226 0
-48.5725 19.1227 -64.4219 0.407 -0.470 -0.783 237 229 227 0
-3.1068 34.8544 -59.6158 0.348 -0.902 0.255 201 201 209 0
-2.8233 34.8479 -59.5513 0.426 -0.841 0.335 201 201 209 0
-2.6710 35.0407 -59.5815 0.355 -0.880 0.316 200 201 209 0
3.8640 37.6982 -59.0215 0.449 -0.355 -0.820 207 206 208 0
8.0463 33.0500 -56.5665 0.418 -0.906 -0.070 203 204 197 0
7.9774 33.6231 -56.7710 0.367 -0.613 0.700 203 204 195 0
8.3250 33.4485 -56.6368 0.427 -0.619 0.659 199 200 191 0
8.3941 33.7763 -56.7299 0.304 -0.659 0.688 195 197 183 0
8.4551 34.1206 -56.8302 0.416 -0.694 0.588 195 194 181 0
8.6293 34.2599 -56.8378 0.324 -0.673 0.665 194 191 177 0
8.6810 34.6248 -56.9470 0.206 -0.738 0.643 192 188 168 0
8.7816 34.9016 -57.0163 -0.272 -0.942 0.196 189 185 160 0
15.6170 39.4474 -57.0138 0.810 -0.550 -0.203 210 217 75 0
13.6383 44.9397 -59.2629 0.660 -0.169 -0.732 208 215 76 0
13.4511 45.9255 -59.6295 0.693 -0.153 -0.704 207 214 74 0
14.4447 45.9657 -59.4243 0.721 -0.143 -0.678 203 207 68 0
18.5023 39.3645 -56.3518 0.059 -0.857 -0.512 198 200 64 0
24.2558 42.2622 -56.0430 0.889 -0.456 -0.035 160 161 146 0
24.4821 42.2585 -55.9921 0.231 -0.972 0.038 162 163 148 0
24.9490 42.2070 -55.8723 0.733 -0.664 0.145 168 168 155 0
30.6668 60.5018 -60.6562 0.768 0.297 0.567 178 171 157 0
32.4950 57.8625 -59.3824 0.951 0.189 0.245 175 165 153 0
36.6681 60.4222 -59.3097 0.921 0.186 0.342 167 155 146 0
45.4230 67.2050 -59.6238 0.921 0.198 0.334 151 137 132 0
45.5240 69.7725 -60.4495 0.869 -0.418 -0.263 148 133 128 0
49.1097 68.5819 -59.2675 0.457 -0.857 -0.238 147 130 122 0
49.3386 68.4068 -59.1594 0.310 -0.916 -0.253 146 129 120 0
49.5377 68.5201 -59.1530 -0.239 -0.930 -0.281 145 128 118 0
-44.8223 18.6136 -63.6950 0.313 -0.170 0.934 237 236 232 0
-14.7851 37.1546 -63.2097 0.708 -0.617 0.343 210 210 215 0
-2.9790 25.5660 -56.7523 0.444 -0.844 -0.302 207 206 213 0
-6.9726 34.6850 -60.6626 0.639 -0.328 0.695 201 203 208 0
-7.2193 35.4530 -60.9722 0.567 -0.412 0.713 202 203 208 0
-2.8420 34.8785 -59.8137 0.375 -0.874 0.310 203 202 210 0
1.4105 38.2185 -59.9824 0.989 -0.134 0.067 203 205 209 0
8.0377 33.0751 -56.8097 0.409 -0.910 -0.070 204 206 201 0
8.3797 32.9100 -56.6793 -0.084 -0.996 -0.007 203 204 199 0
8.7077 33.6711 -56.8594 -0.237 -0.966 0.100 197 196 185 0
8.6852 34.1687 -57.0296 0.199 -0.601 0.774 196 194 180 0
13.8488 43.9340 -59.1300 0.844 -0.466 -0.266 207 215 76 0
18.4222 39.5787 -56.6730 0.106 -0.895 -0.433 194 199 64 0
19.1935 39.4123 -56.4472 0.070 -0.849 -0.524 190 191 61 0
22.2982 43.2803 -57.0450 0.795 -0.603 0.063 150 143 102 0
22.4537 43.4822 -57.0776 0.795 -0.603 0.063 148 143 111 0
24.2539 42.3048 -56.2887 0.864 -0.497 -0.081 162 163 150 0
24.5136 42.2084 -56.1993 0.707 -0.707 -0.033 164 164 151 0
24.7028 42.3077 -56.1905 0.715 -0.698 -0.051 166 166 153 0
24.9063 42.3663 -56.1649 0.656 -0.739 0.153 167 167 155 0
30.5113 60.2638 -60.8676 0.971 0.130 0.201 177 171 157 0
36.3876 45.5129 -54.6713 0.983 0.169 -0.072 173 164 153 0
45.1888 36.8115 -49.8367 0.927 0.200 0.318 154 141 135 0
46.9805 37.5341 -49.6805 -0.258 -0.965 0.055 150 141 131 0
49.1296 68.6394 -59.5320 0.452 -0.861 -0.233 144 129 120 0
-48.3072 18.8768 -64.8235 -0.090 -0.802 -0.591 236 228 226 0
-44.0501 18.8846 -63.8803 0.070 -0.168 0.983 236 235 233 0
-12.3454 26.3904 -59.3408 0.607 -0.462 -0.647 220 220 220 0
-7.2338 34.6437 -60.9596 0.254 -0.939 0.233 202 203 208 0
-7.2249 35.0446 -61.0914 0.325 -0.885 0.333 202 203 208 0
-6.9254 35.0312 -61.0203 0.260 -0.959 0.116 202 203 208 0
-6.6594 35.0646 -60.9724 0.514 -0.856 -0.062 202 203 208 0
-6.4317 35.1528 -60.9513 0.273 -0.952 0.138 203 203 208 0
-5.6016 35.2001 -60.7826 0.207 -0.953 0.222 205 204 212 0
-4.9869 35.1364 -60.6247 0.203 -0.932 0.299 202 202 210 0
7.5147 34.0207 -57.4747 0.457 -0.624 -0.634 205 207 204 0
8.3677 32.9414 -56.9249 0.050 -0.987 -0.155 204 206 202 0
8.5448 33.0719 -56.9291 -0.083 -0.987 -0.141 203 204 198 0
10.1675 34.6636 -57.0998 0.041 -0.985 -0.169 198 196 141 0
13.9799 43.1121 -59.0723 0.911 -0.263 -0.317 205 213 75 0
14.0663 43.4736 -59.1738 0.916 -0.253 -0.310 205 213 75 0
14.7661 47.6140 -60.4002 0.343 -0.790 -0.508 191 197 62 0
19.0487 39.7853 -56.8358 0.229 -0.815 -0.532 187 190 59 0
18.2524 46.4000 -59.2204 0.313 -0.681 -0.662 175 172 57 0
24.0019 34.7575 -54.0573 0.739 -0.637 0.221 164 154 66 0
22.4519 42.9048 -57.1208 0.693 -0.716 0.079 147 141 104 0
22.6427 43.0101 -57.1135 0.648 -0.750 0.134 149 144 115 0
23.0951 43.0280 -57.0190 0.591 -0.724 0.356 151 149 129 0
23.3765 42.8842 -56.9085 0.437 -0.814 0.382 154 153 136 0
24.2534 42.3436 -56.5332 0.864 -0.497 -0.081 165 163 151 0
24.4789 42.3434 -56.4830 0.830 -0.557 0.017 166 164 152 0
24.2810 44.1742 -57.1380 0.811 -0.559 0.174 168 167 155 0
34.3971 56.7056 -59.0726 -0.260 -0.851 0.456 170 161 151 0
34.6071 56.7639 -59.0454 -0.333 -0.852 0.403 171 161 151 0
46.9141 35.8879 -49.3436 0.417 -0.850 0.324 151 141 131 0
46.4582 69.7101 -60.7330 -0.105 -0.994 0.001 150 135 122 0
48.2436 71.2023 -60.8343 0.175 -0.695 -0.698 145 132 123 0
49.1469 68.7227 -59.8060 0.452 -0.861 -0.233 143 129 119 0
-55.3269 11.5696 -64.2104 0.680 -0.625 -0.384 229 220 217 0
-44.0611 17.6838 -63.7461 -0.099 -0.294 0.951 238 239 234 0
-43.7728 17.7552 -63.7056 -0.102 -0.298 0.949 236 237 232 0
-12.3483 26.3870 -59.5845 0.580 -0.527 -0.622 220 220 220 0
-13.9242 29.4082 -60.9501 -0.249 -0.551 0.796 217 217 219 0
-8.3394 30.9628 -60.2246 0.180 -0.978 -0.106 209 208 213 0
-6.6714 33.4352 -60.6816 0.209 -0.969 0.133 203 204 209 0
-6.4299 33.4998 -60.6493 0.063 -0.956 0.285 204 205 210 0
-6.3847 33.8444 -60.7548 0.214 -0.923 0.320 204 205 210 0
-6.9324 35.0407 -61.2785 0.221 -0.970 0.105 202 203 208 0
-6.6848 35.1010 -61.2434 0.221 -0.970 0.105 202 203 208 0
-6.4617 35.1962 -61.2256 0.244 -0.965 0.096 203 203 209 0
-5.6116 35.2153 -61.0422 0.182 -0.944 0.276 205 204 212 0
-1.5580 30.0751 -58.4125 0.883 -0.443 -0.157 201 201 209 0
-2.0608 32.8606 -59.4593 0.591 -0.648 0.480 204 203 211 0
7.7026 33.6941 -57.5587 -0.280 -0.903 -0.325 206 208 204 0
8.9387 33.7263 -57.2935 0.198 -0.598 0.777 200 201 187 0
9.6992 34.6236 -57.4247 0.115 -0.921 -0.372 187 183 152 0
10.1725 34.6668 -57.3335 0.227 -0.918 -0.326 194 193 142 0
10.3854 35.2036 -57.4661 0.934 -0.296 0.201 200 200 130 0
14.7136 37.2966 -57.2018 0.304 -0.727 0.616 210 219 75 0
13.9351 43.2340 -59.3677 0.908 -0.265 -0.325 204 213 75 0
14.1603 43.2877 -59.3354 0.883 -0.299 -0.363 203 212 75 0
13.8701 46.1992 -60.3770 0.625 -0.585 -0.516 195 206 69 0
18.7926 39.8643 -57.1524 0.121 -0.985 -0.119 186 192 57 0
18.9995 39.9296 -57.1282 0.227 -0.807 -0.545 185 187 59 0
24.0079 34.7721 -54.2794 0.797 -0.602 0.056 162 153 69 0
22.2838 42.7736 -57.3490 0.826 -0.554 0.101 147 140 98 0
22.5334 42.7219 -57.2759 0.646 -0.686 0.334 146 142 107 0
23.3265 42.4355 -57.0027 0.473 -0.804 0.360 151 151 133 0
23.5332 42.4924 -56.9756 0.545 -0.758 0.358 153 153 138 0
23.7178 42.6096 -56.9737 0.536 -0.763 0.360 158 156 144 0
24.5287 42.2420 -56.6693 0.831 -0.556 0.028 168 165 153 0
23.9833 44.4086 -57.5180 0.480 -0.851 -0.213 169 166 154 0
23.9370 45.1871 -57.7895 0.542 -0.832 0.115 170 167 156 0
33.8434 50.0211 -57.1993 0.932 0.141 0.334 176 168 155 0
34.6075 56.8475 -59.3189 -0.278 -0.863 0.422 170 160 150 0
37.5856 48.4791 -55.8463 0.416 -0.338 0.844 168 155 146 0
46.6158 36.8014 -49.9119 -0.075 -0.742 0.666 151 140 128 0
46.8280 36.5481 -49.7796 -0.114 -0.753 0.648 150 140 129 0
46.8646 37.4094 -50.0604 -0.257 -0.952 0.164 149 139 129 0
47.8472 75.1383 -62.4991 0.077 -0.797 -0.599 144 131 122 0
49.1253 69.1853 -60.2165 -0.292 -0.916 -0.274 142 130 117 0
-55.4528 11.6253 -64.5236 0.680 -0.625 -0.384 228 219 216 0
-55.2612 11.7717 -64.5299 0.659 -0.635 -0.403 232 221 217 0
-54.9129 11.8158 -64.4666 0.710 -0.562 -0.424 233 222 220 0
-46.9849 18.1285 -64.8166 0.956 -0.289 0.059 235 228 226 0
-12.5218 26.5911 -59.9368 0.577 -0.529 -0.622 220 220 220 0
-14.0104 29.5076 -61.2545 0.139 -0.463 0.875 217 216 218 0
-11.9344 31.8232 -61.5696 0.784 -0.516 0.347 212 211 216 0
-3.6448 26.4760 -57.9058 0.671 -0.486 0.560 206 206 212 0
-2.9583 26.2764 -57.6845 0.419 -0.804 -0.422 203 204 209 0
-6.2956 33.7166 -60.9427 0.215 -0.920 0.327 203 204 209 0
-0.3722 37.1072 -60.7570 0.154 -0.773 -0.615 205 204 209 0
-0.5251 39.1640 -61.4849 0.688 -0.722 -0.072 203 204 209 0
9.0052 31.8150 -56.8677 -0.183 -0.983 -0.003 206 208 203 0
8.9410 33.7329 -57.5290 0.191 -0.576 0.795 200 202 189 0
14.4643 37.8456 -57.6765 -0.027 -0.751 0.659 209 218 75 0
14.3805 38.5403 -57.9296 0.023 -0.674 0.738 209 218 75 0
12.0442 46.8687 -61.2628 0.752 -0.615 -0.238 205 213 76 0
14.0715 43.5082 -59.6744 0.879 -0.312 -0.360 200 210 75 0
23.7924 35.9166 -54.9326 0.590 -0.791 0.162 156 149 70 0
22.6793 42.3670 -57.3579 0.804 -0.484 0.346 146 142 112 0
23.0360 42.6395 -57.3697 0.294 -0.807 0.513 150 150 131 0
23.3577 42.3866 -57.2123 0.420 -0.804 0.421 151 151 135 0
23.9788 44.4606 -57.7724 0.465 -0.856 -0.228 171 165 155 0
23.9659 45.1452 -58.0061 0.551 -0.833 0.051 172 166 156 0
24.3001 53.8990 -60.8835 0.806 -0.398 -0.438 178 171 163 0
33.6559 36.2381 -52.8276 -0.121 -0.988 0.094 180 172 160 0
36.1381 31.5321 -50.6834 0.352 -0.526 -0.774 178 170 159 0
35.2460 42.1344 -54.4594 -0.376 -0.891 -0.256 176 168 157 0
42.7884 18.3367 -44.7407 0.968 0.040 -0.249 173 163 153 0
46.6850 36.4835 -49.9865 -0.083 -0.739 0.668 152 140 129 0
46.8473 36.5422 -49.9698 -0.099 -0.747 0.658 150 140 128 0
46.8853 37.3962 -50.2494 -0.261 -0.950 0.174 149 139 129 0
47.7898 78.0493 -63.7571 -0.437 -0.868 -0.237 142 129 119 0
50.2412 68.8407 -60.1013 -0.232 -0.931 -0.283 246 246 244 0
-55.5790 11.6813 -64.8376 0.680 -0.625 -0.384 230 220 218 0
-55.4485 11.8677 -64.8714 0.672 -0.626 -0.395 233 222 218 0
-54.9869 11.8385 -64.7574 0.688 -0.580 -0.436 234 223 220 0
-47.3961 18.4174 -65.2759 0.994 -0.097 0.041 234 227 226 0
-47.7724 19.0008 -65.5585 0.986 -0.120 0.120 233 229 228 0
-44.7687 17.3028 -64.3055 0.184 -0.174 0.967 234 233 233 0
-42.4094 17.5331 -63.8515 0.561 -0.192 0.805 236 234 235 0
-16.1774 22.1815 -59.5115 0.787 -0.043 -0.616 228 223 223 0
-4.2264 26.8976 -58.4151 0.670 -0.526 0.525 208 207 215 0
-3.6800 26.5224 -58.1647 0.242 -0.642 0.728 206 206 213 0
-2.9916 26.6969 -58.0686 0.400 -0.622 0.674 204 205 210 0
-7.0461 32.7460 -61.0338 0.856 0.018 0.517 205 206 211 0
-7.0031 33.0893 -61.1405 0.860 0.020 0.510 204 205 210 0
-0.2164 24.6630 -56.7532 0.282 -0.490 0.825 203 204 209 0
0.5291 36.9879 -60.7635 0.972 -0.180 0.151 204 205 211 0
9.4283 33.7636 -57.6634 0.251 -0.597 0.762 199 199 184 0
14.4652 38.3791 -58.0923 -0.146 -0.707 0.692 206 215 75 0
12.7476 45.9075 -61.0319 0.745 -0.610 -0.269 200 209 75 0
13.3761 45.0783 -60.6090 0.799 -0.595 -0.088 198 208 75 0
15.0304 45.9038 -60.5158 0.813 -0.405 -0.419 191 196 67 0
15.1537 46.2004 -60.5886 0.817 -0.400 -0.414 189 194 65 0
19.9656 41.0480 -57.7566 0.121 -0.876 -0.467 171 170 61 0
23.4155 42.2654 -57.3913 0.416 -0.842 0.343 155 153 140 0
23.6591 42.2210 -57.3213 0.512 -0.787 0.343 160 157 145 0
23.8003 42.4563 -57.3692 0.423 -0.800 0.425 163 160 148 0
24.4091 42.6527 -57.2985 0.941 -0.330 0.070 171 164 154 0
25.5874 39.9708 -56.1236 0.791 -0.594 0.148 172 165 155 0
25.8326 39.8983 -56.0437 0.874 -0.484 0.048 173 166 156 0
25.0194 50.2857 -59.7487 -0.188 -0.734 0.652 177 170 161 0
24.0213 56.3233 -62.0206 0.821 -0.491 -0.291 178 173 164 0
31.3848 36.5143 -53.6443 0.104 -0.994 0.040 179 174 163 0
31.7795 35.8913 -53.3441 0.247 -0.923 0.295 179 175 163 0
31.9176 36.0966 -53.3825 0.501 -0.801 0.327 180 175 163 0
32.1659 35.9413 -53.2739 0.419 -0.896 0.149 180 173 161 0
33.6681 36.2474 -53.0389 -0.118 -0.989 0.084 179 171 158 0
33.5284 37.4242 -53.4693 0.363 -0.878 -0.312 178 172 159 0
29.4540 58.2965 -61.4644 -0.226 -0.778 0.587 177 171 159 0
29.8007 57.8855 -61.2468 -0.068 -0.847 0.528 177 169 160 0
36.8736 49.0435 -56.6541 0.173 -0.281 0.944 166 156 146 0
46.2657 37.0564 -50.4721 0.285 -0.477 0.831 152 139 131 0
46.9714 36.9638 -50.2816 0.038 -0.979 0.202 149 139 127 0
46.6319 58.9335 -57.8064 0.962 0.168 0.215 146 134 124 0
47.9934 78.5424 -64.1472 -0.211 -0.975 -0.070 140 128 116 0
50.2596 68.9225 -60.3747 -0.218 -0.933 -0.287 246 246 245 0
50.8722 69.1003 -60.2969 -0.226 -0.940 -0.256 255 255 255 0
-55.7055 11.7374 -65.1525 0.680 -0.625 -0.384 229 219 217 0
-55.5588 11.9135 -65.1792 0.680 -0.625 -0.384 232 221 217 0
-47.7331 18.9483 -65.8030 0.980 -0.167 -0.106 230 228 227 0
-42.8467 17.5595 -64.2223 0.245 -0.155 0.957 237 235 236 0
-14.3937 29.5927 -61.8746 -0.070 -0.818 0.572 219 217 218 0
-7.0838 32.7972 -61.3100 0.866 -0.072 0.495 205 206 211 0
-7.1484 35.7678 -62.3370 -0.225 -0.962 -0.156 204 205 210 0
-0.1573 35.8866 -60.7930 0.087 -0.456 0.886 202 203 208 0
-0.3658 37.5546 -61.4087 0.374 -0.617 0.692 206 206 208 0
9.6310 30.7093 -56.8103 -0.140 -0.943 -0.302 206 209 202 0
9.7977 33.0920 -57.5845 0.344 -0.529 0.776 203 203 190 0
14.8645 37.0337 -57.7795 -0.053 -0.777 0.627 206 214 76 0
14.9793 37.3005 -57.8444 0.077 -0.587 0.806 205 213 75 0
14.7556 45.9842 -60.8543 0.809 -0.443 -0.387 190 195 68 0
14.9962 46.5943 -61.0077 0.802 -0.412 -0.432 187 192 65 0
19.9944 41.0059 -57.9705 0.333 -0.707 -0.624 169 168 64 0
23.6468 42.2909 -57.5806 0.127 -0.879 0.459 162 157 146 0
23.8221 42.4332 -57.5894 0.307 -0.880 0.361 166 162 151 0
25.6014 39.9688 -56.3463 0.797 -0.589 0.134 172 165 155 0
25.8474 39.8945 -56.2653 0.879 -0.474 0.057 172 165 155 0
23.6430 47.4694 -59.3463 0.996 -0.018 -0.084 172 167 161 0
23.4557 48.6841 -59.8027 0.994 0.019 -0.107 173 168 163 0
23.1967 52.9455 -61.3136 0.880 -0.026 -0.474 174 170 159 0
31.8570 35.6860 -53.4691 0.399 -0.859 0.320 177 173 161 0
31.9722 35.9654 -53.5382 0.855 -0.516 -0.047 179 173 161 0
32.3001 35.5475 -53.3215 0.347 -0.920 0.183 179 173 161 0
32.5013 35.5418 -53.2739 0.304 -0.932 0.195 180 172 161 0
32.2459 37.7329 -54.0785 -0.467 -0.876 0.120 180 172 159 0
36.0133 32.7695 -51.5332 0.065 -0.618 -0.784 175 169 155 0
29.6985 57.4634 -61.3797 -0.232 -0.761 0.606 175 170 158 0
48.1022 77.7601 -64.1256 -0.360 -0.928 0.097 137 127 115 0
50.2783 69.0022 -60.6478 -0.218 -0.933 -0.287 246 246 245 0
50.4834 69.0557 -60.6196 -0.227 -0.932 -0.282 254 255 255 0
50.9491 68.5351 -60.3366 -0.237 -0.931 -0.277 255 255 255 0
-55.8324 11.7936 -65.4682 0.680 -0.625 -0.384 229 220 216 0
-55.6855 11.9700 -65.4952 0.680 -0.625 -0.384 232 221 216 0
-46.2472 17.7973 -65.3417 0.777 -0.626 0.061 232 228 227 0
-15.2701 29.9102 -62.4360 -0.526 -0.731 0.435 221 219 222 0
-3.7740 20.8983 -56.7308 0.853 -0.204 0.480 212 211 216 0
-8.7870 32.7419 -61.9295 -0.015 -0.805 0.594 208 207 215 0
9.6884 31.0565 -57.1444 0.432 -0.637 0.638 206 207 201 0
10.3263 31.6754 -57.2111 0.041 -0.996 0.073 206 208 197 0
10.5680 34.4365 -58.1019 0.354 -0.892 0.279 187 184 146 0
14.5554 37.7101 -58.3152 -0.101 -0.946 0.307 204 213 78 0
19.6869 31.0816 -54.8759 0.226 -0.320 0.920 195 205 72 0
19.9226 31.5453 -54.9810 0.139 -0.378 0.915 191 201 69 0
14.1017 46.9324 -61.5775 0.601 -0.648 -0.468 189 194 67 0
23.6912 42.2059 -57.7745 0.148 -0.888 0.435 165 161 150 0
23.8475 42.4002 -57.8055 0.283 -0.940 0.193 168 164 153 0
25.8841 39.8286 -56.4608 0.906 -0.421 -0.048 171 167 158 0
23.6738 47.4227 -59.5655 0.996 -0.022 -0.091 173 168 161 0
23.1578 49.5863 -60.4241 0.849 -0.213 -0.483 173 168 162 0
23.1954 50.1676 -60.6147 0.849 -0.213 -0.483 174 169 163 0
24.1807 51.4870 -60.8423 -0.098 -0.893 0.440 173 169 158 0
29.8687 42.1896 -56.3620 0.144 -0.913 0.382 180 172 161 0
30.3815 41.9070 -56.1484 0.042 -0.948 0.317 179 171 160 0
31.8965 37.5927 -54.3255 -0.326 -0.943 0.061 179 171 160 0
38.6255 29.2030 -49.9191 0.564 -0.241 -0.790 173 163 154 0
36.8901 49.1351 -57.1421 -0.038 -0.292 0.956 163 153 143 0
37.6100 47.7829 -56.5149 -0.230 -0.404 0.885 167 154 145 0
45.3965 37.2548 -51.1352 0.939 -0.162 -0.304 150 139 130 0
46.3150 36.9795 -50.8317 0.758 0.080 0.647 146 135 129 0
47.6425 31.8426 -48.7697 0.970 -0.043 0.239 148 135 126 0
50.5141 69.0084 -60.8468 -0.218 -0.933 -0.287 255 255 255 0
51.0762 67.4059 -60.1698 -0.188 -0.874 -0.447 255 255 254 0
-55.9736 11.8590 -65.7911 0.674 -0.627 -0.390 228 220 215 0
-55.7750 12.0023 -65.7949 0.666 -0.631 -0.399 232 221 216 0
-45.9404 17.5421 -65.4516 0.750 -0.601 0.276 233 229 228 0
-45.8190 17.7444 -65.4935 0.707 -0.651 0.278 232 230 228 0
-41.8296 17.3092 -64.4306 0.242 -0.205 0.948 239 233 234 0
-9.5148 13.2961 -55.6532 0.195 -0.648 0.736 226 224 222 0
-9.4562 13.5306 -55.7205 0.143 -0.715 0.685 227 226 222 0
-3.6902 20.7860 -56.8990 0.877 -0.163 0.452 213 213 216 0
-8.9078 32.5053 -62.1283 0.064 -0.779 0.623 209 208 215 0
9.7433 30.9672 -57.3301 0.424 -0.615 0.665 207 208 202 0
10.0680 31.2650 -57.3584 0.415 -0.603 0.682 206 207 200 0
10.5488 31.7257 -57.4069 -0.045 -0.931 0.361 204 206 193 0
10.3315 34.4290 -58.3874 0.272 -0.933 0.238 192 188 161 0
10.5748 34.4365 -58.3343 0.280 -0.931 0.234 189 186 154 0
22.4550 41.8814 -58.1788 0.631 -0.775 -0.037 146 141 113 0
22.7002 41.8388 -58.1080 0.466 -0.875 0.134 150 145 122 0
24.3832 40.3481 -57.2095 0.795 -0.606 0.022 167 163 151 0
24.9989 40.4930 -57.1185 0.860 -0.498 -0.112 171 167 156 0
25.5712 40.1295 -56.8624 0.739 -0.574 -0.353 171 167 156 0
25.9177 39.7714 -56.6598 0.902 -0.431 0.011 171 167 158 0
23.0329 51.3834 -61.3182 0.893 -0.095 -0.440 175 170 161 0
29.9484 41.9800 -56.4978 0.155 -0.922 0.355 180 172 160 0
30.1466 42.0295 -56.4695 0.304 -0.870 0.388 180 172 160 0
34.6619 40.0052 -54.7391 0.998 -0.055 0.012 174 164 157 0
38.3316 29.7055 -50.3529 0.291 -0.379 -0.878 172 162 153 0
34.1054 50.1994 -58.3765 -0.163 -0.816 0.555 171 161 151 0
34.5850 50.0028 -58.1990 -0.184 -0.827 0.532 171 161 151 0
34.7477 50.2151 -58.2349 0.366 -0.881 0.301 169 158 148 0
37.0079 48.7000 -57.1959 -0.080 -0.350 0.933 162 152 142 0
37.3895 47.9308 -56.8437 -0.094 -0.389 0.916 163 153 143 0
37.8548 46.7728 -56.3385 -0.012 -0.362 0.932 163 152 143 0
38.0071 47.0039 -56.3832 0.328 -0.282 0.902 161 150 142 0
38.1377 47.3349 -56.4673 0.347 -0.285 0.894 159 148 141 0
38.4852 47.6101 -56.4826 0.219 -0.292 0.931 160 149 142 0
45.1018 23.6743 -46.7269 0.817 -0.090 -0.570 159 146 137 0
45.2989 37.9331 -51.5912 0.896 -0.247 -0.370 149 139 129 0
46.3489 36.8842 -50.9898 0.784 0.119 0.609 147 135 129 0
48.1101 73.9390 -63.3452 0.502 -0.244 0.830 140 128 116 0
49.4795 69.0696 -61.3552 0.304 -0.918 -0.255 136 127 111 0
-56.1452 11.9440 -66.1285 0.707 -0.599 -0.375 228 219 215 0
-55.9091 12.0634 -66.1155 0.666 -0.631 -0.399 231 220 215 0
-44.3142 16.2855 -64.9101 0.038 -0.935 0.354 232 228 227 0
-45.5085 17.4857 -65.6002 0.655 -0.742 0.141 230 228 227 0
-46.3043 18.3889 -66.0957 0.487 -0.873 -0.012 231 230 228 0
-2.6720 21.5327 -57.1493 0.851 -0.475 0.224 210 211 217 0
-7.9204 32.3481 -62.0993 -0.030 -0.727 0.686 208 207 214 0
2.1283 22.4109 -56.3492 0.114 -0.531 0.840 205 206 211 0
3.0282 21.8380 -55.9440 0.866 -0.362 0.346 204 205 210 0
10.0462 31.3153 -57.6099 0.463 -0.602 0.651 208 209 201 0
10.2222 34.1806 -58.5611 0.018 -0.882 0.471 200 198 178 0
10.4727 34.1745 -58.5014 0.206 -0.891 0.405 197 192 171 0
13.1697 34.1432 -57.8703 -0.004 -0.887 0.462 197 203 96 0
13.5800 33.8023 -57.6579 0.068 -0.975 0.211 199 205 95 0
20.0390 40.9832 -58.6577 -0.226 -0.970 -0.085 161 160 66 0
20.3188 40.8681 -58.5535 -0.122 -0.947 -0.299 159 157 68 0
22.3603 41.5595 -58.3233 0.141 -0.966 0.218 145 139 112 0
22.6086 41.5089 -58.2486 0.218 -0.937 0.274 150 144 121 0
22.8598 41.4485 -58.1700 0.205 -0.976 0.073 153 148 128 0
23.1394 41.3103 -58.0578 0.076 -0.996 0.045 157 152 136 0
23.3702 41.3004 -58.0013 0.074 -0.995 0.061 160 156 142 0
24.0618 40.0418 -57.4067 0.169 -0.858 0.485 163 159 147 0
24.0946 40.5609 -57.5788 0.248 -0.894 0.373 164 161 148 0
24.4082 40.3157 -57.4219 0.403 -0.869 0.285 167 163 151 0
24.7068 40.1075 -57.2811 0.855 -0.519 -0.002 169 165 153 0
23.7973 46.4843 -59.6971 0.980 -0.046 -0.193 171 167 158 0
23.6194 47.6626 -60.1459 0.992 -0.004 -0.123 171 167 158 0
22.9894 50.8536 -61.3951 0.849 -0.205 -0.487 173 167 158 0
22.9548 51.6562 -61.6808 0.902 -0.066 -0.426 173 166 158 0
29.7007 42.1384 -56.8355 -0.175 -0.969 0.174 180 172 158 0
32.2009 37.3537 -54.6046 -0.360 -0.909 -0.211 177 169 158 0
34.6017 50.0096 -58.4324 0.030 -0.998 0.046 170 160 150 0
37.0901 48.4209 -57.3103 -0.071 -0.315 0.946 161 151 141 0
37.4857 47.5867 -56.9307 -0.053 -0.415 0.908 161 151 141 0
37.9511 47.3396 -56.7381 0.106 -0.410 0.906 160 149 140 0
38.3020 47.6016 -56.7481 -0.080 -0.634 0.770 157 146 140 0
44.0497 29.8412 -49.2797 0.652 -0.208 -0.729 157 144 135 0
39.1701 61.1268 -61.2292 0.775 -0.112 -0.622 154 141 132 0
44.4344 37.9011 -51.9806 0.662 -0.292 0.690 152 139 130 0
44.4596 38.7632 -52.2732 0.793 -0.501 0.347 150 140 130 0
44.6585 38.6535 -52.1895 0.190 -0.945 0.266 149 139 129 0
48.5351 70.1898 -62.2120 0.852 -0.449 -0.270 139 127 116 0
49.5966 64.0616 -59.8470 0.996 0.024 0.085 137 126 115 0
-56.2381 11.9780 -66.4309 0.703 -0.607 -0.369 228 219 215 0
-56.0436 12.1247 -66.4370 0.666 -0.631 -0.399 231 220 215 0
-46.3410 18.3947 -66.3758 0.484 -0.875 -0.016 233 229 228 0
-48.3083 20.2018 -67.4590 0.606 -0.794 -0.043 234 230 231 0
-41.5890 16.7846 -64.7176 0.308 0.048 0.950 240 235 236 0
-41.6671 17.1393 -64.8590 0.286 0.048 0.957 239 233 236 0
-40.5553 16.5567 -64.3994 0.016 -0.298 0.955 239 233 236 0
-13.4358 28.3923 -62.2492 0.835 0.049 0.547 216 215 220 0
2.0904 9.9688 -52.2526 0.310 -0.765 -0.565 216 216 218 0
-2.8558 21.7721 -57.5014 0.939 -0.027 0.343 212 212 219 0
-7.6539 31.5827 -62.0228 0.627 -0.607 0.489 209 208 213 0
-7.9036 32.3228 -62.3380 -0.031 -0.716 0.697 207 207 213 0
2.0016 21.8661 -56.4116 0.840 -0.538 0.067 204 204 212 0
9.6837 30.6535 -57.6930 -0.395 -0.918 0.044 208 210 204 0
10.4133 30.6562 -57.5253 -0.049 -0.997 0.051 209 211 202 0
10.3861 31.1503 -57.7035 0.542 -0.740 0.397 209 210 201 0
13.4599 34.0588 -58.0048 -0.023 -0.954 0.298 196 200 97 0
17.2321 36.6096 -58.0204 -0.022 -0.988 -0.153 189 198 72 0
17.3866 36.7881 -58.0468 0.018 -0.970 -0.242 188 196 71 0
17.7250 36.5533 -57.8869 0.572 -0.819 -0.055 186 195 70 0
15.8852 49.4139 -62.7856 0.085 -0.892 0.444 162 162 66 0
19.9622 41.2028 -58.9872 -0.097 -0.973 -0.209 157 156 65 0
21.4995 38.5256 -57.7007 0.047 -0.990 -0.135 154 151 72 0
22.4385 41.3872 -58.4791 -0.108 -0.987 -0.119 150 144 122 0
24.2346 40.2151 -57.6563 0.632 -0.774 0.025 166 163 149 0
31.9419 38.2677 -55.1978 -0.461 -0.885 0.068 176 168 156 0
34.6842 40.0420 -55.1813 0.998 -0.065 0.012 170 160 152 0
34.7260 40.6394 -55.3794 0.998 -0.065 0.015 170 159 153 0
39.4785 44.1041 -55.4863 0.419 -0.905 -0.072 161 148 140 0
44.1561 38.5521 -52.4741 0.289 -0.096 0.952 152 139 130 0
44.7707 39.1433 -52.5377 -0.119 -0.974 -0.193 149 139 127 0
44.9187 39.3258 -52.5670 -0.064 -0.956 -0.288 149 139 127 0
45.8280 39.2314 -52.3240 -0.216 -0.956 0.199 146 133 126 0
49.7204 61.1516 -59.0494 0.995 0.026 0.101 137 127 117 0
50.3154 69.7304 -61.8960 -0.223 -0.896 -0.384 245 246 242 0
-56.3473 12.0225 -66.7414 0.700 -0.607 -0.375 229 220 216 0
-56.2082 12.2055 -66.7730 0.709 -0.604 -0.365 232 221 216 0
-55.2972 11.8860 -66.4498 0.505 -0.794 -0.338 233 222 219 0
-46.3655 18.3911 -66.6500 0.684 -0.717 0.134 233 229 228 0
-46.9018 19.1008 -67.0227 0.516 -0.856 -0.038 235 231 231 0
-40.7808 16.1305 -64.5629 0.040 -0.320 0.947 240 234 237 0
-40.3580 16.0892 -64.4503 0.099 -0.263 0.960 239 233 237 0
5.2162 8.1102 -51.0777 -0.285 -0.942 -0.178 215 215 217 0
-7.4910 30.9634 -62.0184 0.693 -0.696 -0.189 209 209 212 0
3.1650 22.3699 -56.5395 0.973 -0.181 0.144 204 205 210 0
-1.1921 32.3915 -61.0550 -0.106 -0.819 0.563 204 203 207 0
7.2505 34.5823 -59.8605 0.362 -0.454 0.814 207 210 204 0
10.3539 31.2201 -57.9644 0.310 -0.782 0.540 208 209 200 0
11.4385 31.0070 -57.6380 0.492 -0.870 -0.032 208 209 195 0
13.4372 33.6399 -58.0944 -0.045 -0.612 0.790 194 198 108 0
18.0875 34.2156 -57.2158 0.313 -0.934 -0.172 188 196 73 0
17.2925 37.0209 -58.3812 -0.239 -0.971 -0.003 184 192 71 0
14.9316 49.2823 -63.2163 -0.019 -0.934 0.357 168 169 68 0
15.2098 49.2289 -63.1330 -0.024 -0.931 0.366 167 167 69 0
20.4988 39.9035 -58.6445 0.099 -0.991 -0.094 156 154 69 0
24.6756 38.4494 -57.1662 0.005 -0.800 0.600 168 165 152 0
25.5701 37.8006 -56.7317 -0.085 -0.987 -0.139 170 166 154 0
26.0928 36.9543 -56.3144 0.094 -0.933 0.347 170 166 155 0
26.2371 44.7958 -59.0224 0.007 -0.832 -0.555 173 166 155 0
25.2583 48.4266 -60.5191 -0.066 -0.857 0.512 173 166 156 0
24.8900 50.2488 -61.2417 0.035 -0.998 -0.043 173 166 156 0
25.8524 50.1752 -60.9925 -0.164 -0.821 -0.547 171 167 155 0
26.2491 49.6635 -60.7215 -0.098 -0.894 -0.437 171 167 155 0
27.1859 47.4423 -59.7273 -0.140 -0.861 -0.489 171 167 155 0
35.0493 35.8473 -53.8475 -0.140 -0.954 -0.264 171 161 151 0
34.6457 40.2453 -55.4789 0.971 -0.147 -0.187 165 155 148 0
39.4297 37.4545 -53.3923 0.549 -0.282 -0.787 160 148 137 0
38.4947 45.0548 -56.2666 0.115 -0.289 0.950 159 146 136 0
38.6366 45.3203 -56.3265 0.058 -0.284 0.957 159 146 138 0
44.1443 27.8630 -48.9441 0.321 -0.453 -0.832 158 143 132 0
44.7497 39.3706 -52.8268 0.488 -0.707 0.512 147 137 125 0
40.9451 66.4642 -63.1827 0.967 -0.227 -0.119 146 134 123 0
46.5364 36.0669 -51.2569 0.808 0.077 0.584 145 132 124 0
45.7873 69.8990 -63.2591 0.359 -0.896 -0.261 144 130 119 0
46.1837 70.2528 -63.2908 0.396 -0.867 -0.304 142 129 118 0
50.3254 69.9071 -62.2082 -0.233 -0.892 -0.389 245 246 242 0
-56.7200 11.6921 -66.9822 0.708 -0.597 -0.378 133 133 133 0
-56.4709 12.0762 -67.0591 0.700 -0.607 -0.375 228 219 216 0
-56.2942 12.2352 -67.0737 0.684 -0.619 -0.386 232 221 218 0
