ply
format ascii 1.0
element vertex 829
property float x
property float y
property float z
property float nx
property float ny
property float nz
property uchar diffuse_red
property uchar diffuse_green
property uchar diffuse_blue
property uchar class
end_header
-8.9475 37.4467 -19.3066 0.402 -0.616 0.678 162 100 76 0
-7.8263 42.9681 -19.5430 0.190 -0.327 0.926 127 66 53 0
-7.6112 43.0637 -19.5412 0.088 -0.418 0.904 128 69 55 0
-6.3888 44.6658 -19.5828 0.494 -0.374 0.785 121 59 48 0
-6.1274 44.6844 -19.5758 0.468 -0.349 0.812 126 63 54 0
-5.8098 45.0709 -19.5851 0.396 -0.311 0.864 124 64 58 0
-5.6805 45.3160 -19.5933 0.352 -0.386 0.853 124 64 56 0
-4.8155 47.6167 -19.6798 0.131 -0.699 0.703 122 68 62 0
-3.6536 50.9855 -19.8096 0.568 -0.216 0.794 144 89 76 0
-3.6801 54.7079 -19.9926 -0.236 -0.390 0.890 185 146 114 0
3.2568 49.9720 -19.5519 0.468 -0.747 0.473 223 215 193 0
3.7811 49.4171 -19.5089 0.646 -0.492 0.584 223 214 191 0
35.4599 69.2670 -19.5260 -0.245 -0.967 0.071 192 169 127 0
35.7919 68.6442 -19.4856 -0.316 -0.932 -0.179 189 166 124 0
37.3117 77.2498 -19.8609 -0.166 -0.933 -0.318 181 162 117 0
37.1009 80.1361 -20.0085 0.053 -0.807 0.588 179 161 115 0
43.1809 59.9567 -18.8379 0.913 0.017 -0.407 172 150 111 0
47.1160 47.1517 -18.0927 0.410 -0.678 -0.610 161 138 97 0
46.4456 56.7273 -18.5815 0.042 -0.955 -0.294 158 139 97 0
46.6270 56.7836 -18.5788 -0.178 -0.934 -0.311 157 138 96 0
-35.0887 1.3700 -18.5199 0.126 -0.942 -0.311 133 133 133 0
-14.0904 27.2776 -19.1759 0.377 -0.762 0.526 239 229 203 0
-13.5901 27.6763 -19.1805 0.520 -0.506 0.688 239 229 203 0
-13.5566 27.9829 -19.1950 0.514 -0.526 0.677 239 229 202 0
-14.2713 29.2676 -19.2820 0.236 -0.859 0.455 239 229 202 0
-15.7430 34.1549 -19.5743 0.642 -0.276 0.715 235 224 196 0
-19.2518 39.2706 -19.9414 0.132 -0.799 0.587 235 224 195 0
-19.1141 39.4832 -19.9479 0.279 -0.585 0.761 234 223 194 0
-18.3051 38.7835 -19.8874 0.562 -0.622 0.545 234 224 193 0
-18.1571 38.9800 -19.8928 0.556 -0.621 0.552 233 224 193 0
-17.9904 39.1514 -19.8962 0.550 -0.633 0.544 236 224 193 0
-17.8525 39.3629 -19.9026 0.545 -0.646 0.535 234 221 191 0
-17.7129 39.5727 -19.9089 0.469 -0.660 0.587 234 219 190 0
-14.9741 39.3739 -19.8139 -0.329 -0.381 0.864 166 122 99 0
-10.9108 35.5230 -19.4934 0.330 -0.486 0.810 168 122 94 0
-10.6943 35.6038 -19.4908 0.004 -0.537 0.844 176 127 97 0
-10.4085 35.5826 -19.4808 -0.061 -0.610 0.790 180 128 99 0
-10.1643 35.6215 -19.4752 0.299 -0.430 0.852 182 130 101 0
-11.1315 38.6807 -19.6596 0.811 -0.340 0.476 171 114 86 0
-11.1463 39.1173 -19.6821 0.746 -0.404 0.530 171 111 83 0
-11.0953 39.4571 -19.6977 0.859 -0.326 0.394 171 110 82 0
-7.5886 42.5788 -19.7464 0.096 -0.462 0.881 124 62 50 0
-7.3788 42.6817 -19.7451 0.097 -0.462 0.882 124 63 51 0
-7.3016 43.0027 -19.7589 0.286 -0.387 0.876 127 63 53 0
-6.3681 44.1707 -19.7889 0.556 -0.371 0.744 122 60 49 0
-6.2332 44.4027 -19.7964 0.564 -0.372 0.737 121 58 48 0
-6.0060 44.4785 -19.7932 0.630 -0.297 0.718 121 58 49 0
-5.7860 44.5663 -19.7908 0.397 -0.510 0.763 123 60 52 0
-5.6272 44.7587 -19.7956 0.417 -0.509 0.753 124 64 54 0
-5.4765 44.9658 -19.8014 0.326 -0.588 0.740 123 61 53 0
-4.8259 47.1534 -19.8916 0.113 -0.391 0.913 124 66 58 0
-3.1916 50.6385 -20.0168 0.334 -0.118 0.935 140 82 70 0
-2.8035 52.4988 -20.0986 0.290 0.075 0.954 145 101 78 0
-2.6296 53.2222 -20.1297 -0.227 -0.362 0.904 156 115 89 0
-2.7905 56.8001 -20.3153 0.333 0.176 0.927 223 200 167 0
35.2604 69.2417 -19.7625 -0.343 -0.939 0.022 191 168 127 0
40.8469 65.3551 -19.3930 0.570 -0.293 0.767 178 156 115 0
40.1224 72.0206 -19.7519 0.455 -0.647 -0.612 177 155 115 0
40.2839 72.4322 -19.7677 0.494 -0.569 -0.657 176 154 114 0
46.6539 56.7138 -18.7767 0.057 -0.958 -0.282 158 135 96 0
-35.1899 1.4218 -18.7173 0.126 -0.942 -0.311 133 133 133 0
-34.9373 1.4586 -18.7112 0.127 -0.938 -0.324 69 64 56 0
-14.5164 27.1201 -19.3936 0.050 -0.642 0.765 238 228 202 0
-14.1834 27.0408 -19.3788 0.037 -0.638 0.769 239 229 204 0
-19.5724 38.5039 -20.1471 -0.285 -0.678 0.678 237 226 198 0
-18.9800 38.8947 -20.1485 0.249 -0.619 0.745 236 223 194 0
-14.5151 38.7114 -19.9964 -0.290 -0.329 0.899 162 114 93 0
-10.6221 35.0968 -19.6840 0.333 -0.497 0.801 166 117 88 0
-10.4612 35.2575 -19.6873 0.040 -0.558 0.829 178 127 97 0
-10.1960 35.2652 -19.6792 0.052 -0.564 0.824 179 128 97 0
-11.0725 39.0018 -19.9015 0.734 -0.385 0.559 166 104 79 0
-11.0094 39.3230 -19.9162 0.749 -0.340 0.569 166 104 78 0
-7.5574 41.6408 -19.9265 0.525 -0.816 0.243 127 62 52 0
-7.2718 41.6179 -19.9162 0.491 -0.795 0.357 136 72 62 0
-7.1442 41.8518 -19.9243 0.393 -0.774 0.497 130 66 56 0
-6.9628 41.9985 -19.9261 0.258 -0.852 0.455 126 61 51 0
-6.7535 43.4482 -19.9948 0.188 -0.271 0.944 127 65 56 0
-6.5626 43.5837 -19.9958 0.260 -0.322 0.910 129 69 59 0
-6.4176 43.7965 -20.0022 0.217 -0.356 0.909 124 64 54 0
-6.2398 43.9545 -20.0048 0.602 -0.270 0.752 120 57 48 0
-5.9252 44.3417 -20.0148 0.616 -0.400 0.679 121 57 50 0
-5.6673 44.3644 -20.0078 0.451 -0.538 0.712 120 56 49 0
-5.5301 44.5933 -20.0153 0.475 -0.515 0.714 123 60 52 0
-5.3668 44.7781 -20.0197 0.350 -0.569 0.744 125 60 52 0
-2.9315 48.1413 -20.1168 0.689 -0.712 -0.132 128 68 62 0
-3.0924 50.4580 -20.2425 -0.367 -0.564 0.740 133 75 63 0
-1.8378 54.3705 -20.4059 0.744 0.172 0.646 188 154 123 0
-2.2463 57.9635 -20.6058 0.401 0.163 0.902 224 204 180 0
35.2773 69.2544 -19.9945 -0.289 -0.944 0.157 191 168 127 0
35.4711 69.4209 -19.9970 -0.172 -0.985 -0.028 191 168 127 0
38.9407 60.3193 -19.4128 0.957 -0.077 0.278 187 164 122 0
39.0843 60.7020 -19.4281 0.962 -0.201 0.182 186 163 121 0
37.3658 77.1733 -20.3397 -0.325 -0.941 -0.098 182 159 117 0
40.9687 64.6337 -19.5724 0.696 -0.271 0.666 178 156 115 0
43.1513 66.9277 -19.6220 0.999 0.008 -0.044 167 143 107 0
46.0897 50.3302 -18.6649 0.810 -0.540 -0.230 166 142 106 0
46.4741 56.8280 -18.9906 0.055 -0.960 -0.275 159 135 97 0
46.6673 56.7739 -18.9816 0.057 -0.960 -0.274 157 133 95 0
-35.0415 1.5128 -18.9092 0.127 -0.938 -0.324 70 64 57 0
-33.3913 1.6271 -18.8611 0.119 -0.948 0.294 227 212 181 0
-19.0582 38.5949 -20.3698 0.458 -0.433 0.777 232 222 193 0
-14.4747 38.2430 -20.2004 -0.396 -0.441 0.805 160 109 90 0
-9.8224 35.1073 -19.8796 0.422 -0.420 0.803 179 125 93 0
-7.9486 35.9107 -19.8611 0.469 -0.292 0.833 152 90 71 0
-7.3605 41.3204 -20.1315 0.535 -0.728 0.427 127 61 51 0
-7.2278 41.5450 -20.1391 0.491 -0.795 0.357 137 71 62 0
-7.1369 41.8388 -20.1519 0.116 -0.807 0.579 140 74 65 0
-7.0943 42.2132 -20.1705 0.270 -0.222 0.937 130 64 55 0
-6.1929 43.4190 -20.2055 0.223 -0.337 0.914 123 62 52 0
-5.6551 44.3445 -20.2374 0.367 -0.901 0.230 120 54 48 0
-5.4207 44.4067 -20.2330 0.533 -0.520 0.668 120 54 48 0
-4.0990 46.8315 -20.3194 0.123 -0.183 0.975 120 54 50 0
-2.6692 49.1629 -20.3973 -0.284 -0.891 0.355 129 70 60 0
33.9426 69.2844 -20.2721 0.100 -0.915 -0.391 196 173 131 0
35.1858 64.9968 -20.0016 -0.128 -0.936 -0.327 194 173 130 0
34.2673 73.7337 -20.4996 0.739 -0.307 -0.600 193 170 129 0
36.1696 66.8136 -20.0666 -0.182 -0.905 0.384 190 167 128 0
39.1748 51.8493 -19.1666 -0.225 -0.909 0.351 187 164 123 0
38.1169 76.9013 -20.5428 -0.345 -0.932 -0.112 180 157 115 0
-35.6996 1.5269 -19.1241 0.104 -0.944 -0.311 255 255 255 0
-34.7318 1.9285 -19.1136 0.179 -0.899 -0.399 226 212 179 0
-10.8801 34.6727 -20.1122 0.363 -0.227 0.904 170 116 88 0
-10.7319 34.8510 -20.1170 0.368 -0.214 0.905 177 125 94 0
-7.6766 35.8976 -20.0715 0.243 -0.404 0.882 146 83 66 0
-7.0496 41.6952 -20.3697 0.116 -0.807 0.579 139 72 62 0
-6.8146 41.7537 -20.3650 0.110 -0.812 0.573 132 65 54 0
-6.5118 41.7000 -20.3518 -0.102 -0.689 0.717 121 53 44 0
-4.7379 45.0972 -20.4791 0.675 -0.084 0.733 130 67 58 0
-2.8084 48.4220 -20.5971 0.717 -0.688 -0.106 126 65 58 0
-2.4911 48.3333 -20.5815 0.758 -0.651 -0.040 129 67 60 0
-2.3010 48.4804 -20.5832 0.756 -0.654 -0.040 128 65 59 0
-2.1069 48.6203 -20.5843 0.777 -0.626 0.069 128 66 59 0
3.6918 53.5190 -20.6584 0.958 -0.241 0.156 223 213 193 0
39.1866 60.2951 -19.8333 0.984 -0.123 0.127 183 161 120 0
39.2532 61.1665 -19.8791 0.882 -0.331 0.336 184 162 121 0
41.6286 69.3311 -20.2487 0.995 0.100 -0.029 173 151 112 0
46.1180 50.4030 -19.0544 0.806 -0.548 -0.223 166 141 108 0
-36.8481 2.1105 -19.3898 -0.031 -0.977 -0.212 255 255 255 0
-35.8048 1.5811 -19.3236 0.104 -0.944 -0.311 255 255 255 0
-34.7384 1.6906 -19.2928 0.134 -0.937 -0.322 226 209 177 0
-34.6764 1.8666 -19.3007 0.085 -0.919 -0.385 225 212 178 0
-19.4703 39.1307 -20.8837 0.181 -0.637 0.749 234 222 195 0
-14.6622 37.6917 -20.6355 -0.535 -0.607 0.587 157 107 91 0
-14.3266 37.6173 -20.6196 -0.564 -0.569 0.599 155 103 87 0
-13.7447 37.1907 -20.5753 -0.478 -0.470 0.742 155 100 82 0
-7.3871 35.0463 -20.2334 -0.076 -0.825 0.560 138 75 58 0
-7.0406 38.6441 -20.4252 0.489 -0.442 0.752 125 62 47 0
-6.7505 41.6476 -20.5852 0.483 -0.568 0.666 126 60 48 0
-6.3668 41.4605 -20.5613 -0.102 -0.689 0.717 121 54 45 0
-5.6022 43.7944 -20.6669 0.338 -0.501 0.797 123 59 52 0
-3.4315 48.0803 -20.8344 0.486 0.159 0.859 126 59 55 0
-2.0651 48.5475 -20.8135 0.812 -0.551 0.191 124 60 57 0
-1.2215 50.5271 -20.8963 0.507 -0.600 0.619 127 74 66 0
-1.1382 50.8880 -20.9139 0.561 -0.505 0.656 127 76 66 0
-0.9492 51.0447 -20.9162 0.476 -0.616 0.628 125 77 65 0
0.1423 51.0077 -20.8763 0.807 -0.591 0.003 138 97 78 0
0.4075 51.0108 -20.8672 0.575 -0.809 -0.124 139 100 77 0
3.2069 54.0090 -20.9400 0.712 -0.561 0.422 223 212 192 0
3.6814 53.5550 -20.8978 0.956 -0.232 0.178 223 213 192 0
3.8342 54.3658 -20.9384 0.982 -0.175 0.074 224 213 194 0
36.3156 47.6570 -19.4323 -0.206 -0.353 0.913 201 179 138 0
35.7824 66.7385 -20.5313 -0.304 -0.396 0.867 191 168 127 0
36.2255 65.4684 -20.4441 -0.491 -0.784 0.380 190 168 129 0
-36.9428 2.1566 -19.5907 -0.054 -0.978 -0.199 255 255 255 0
-34.8412 1.7442 -19.4919 0.134 -0.937 -0.322 225 209 177 0
-34.8168 1.9481 -19.5029 0.088 -0.921 -0.379 225 212 178 0
-19.0519 38.9558 -21.0948 0.205 -0.584 0.786 235 217 192 0
-18.7752 38.9799 -21.0863 0.212 -0.595 0.775 222 198 174 0
-8.0737 34.8785 -20.4669 -0.095 -0.854 0.511 143 81 62 0
-7.2944 34.9010 -20.4405 -0.207 -0.832 0.515 145 82 64 0
-7.1894 35.1440 -20.4509 0.006 -0.761 0.649 143 80 65 0
-7.0056 36.0823 -20.4989 0.157 -0.624 0.766 133 72 55 0
-6.9537 40.6570 -20.7632 0.244 -0.448 0.860 126 60 47 0
-6.7862 40.8229 -20.7669 0.269 -0.427 0.863 128 62 50 0
-6.6623 41.0603 -20.7763 0.264 -0.472 0.841 129 63 51 0
-6.4380 41.1341 -20.7726 0.459 -0.299 0.837 126 60 48 0
-5.5421 43.6928 -20.8896 0.154 -0.628 0.763 126 61 53 0
-3.6368 44.5833 -20.8736 0.667 -0.744 0.025 124 52 50 0
-3.4681 44.7579 -20.8777 0.693 -0.718 0.067 121 47 46 0
-1.3309 50.2256 -21.1197 0.892 -0.441 0.100 127 70 67 0
-1.1842 50.4621 -21.1283 0.726 -0.671 0.154 125 70 66 0
-0.8430 50.3218 -21.1080 0.443 -0.883 -0.155 124 71 65 0
-0.9147 50.9851 -21.1491 0.379 -0.905 -0.194 125 73 67 0
-1.2151 53.7143 -21.3186 0.802 -0.591 -0.089 133 87 76 0
3.0045 55.6071 -21.2785 0.558 -0.816 0.150 223 212 191 0
3.1634 55.8420 -21.2865 0.547 -0.826 0.134 226 213 194 0
2.4212 58.0513 -21.4415 0.784 -0.608 0.125 226 213 196 0
28.2647 37.2776 -19.3134 0.349 -0.430 -0.832 217 204 178 0
30.0090 67.5570 -21.0127 -0.174 -0.958 -0.229 204 186 147 0
33.7526 57.2694 -20.2810 -0.139 -0.987 -0.077 204 182 143 0
36.0088 65.5708 -20.6837 -0.422 -0.564 0.710 191 168 127 0
36.8723 72.1925 -21.0381 0.328 -0.399 0.856 184 164 123 0
36.8386 79.6316 -21.4721 0.695 -0.676 -0.246 181 161 119 0
42.5495 58.1636 -20.0200 0.985 0.076 -0.154 178 155 117 0
47.2271 48.7508 -19.3060 0.621 -0.365 -0.693 163 137 98 0
-37.0378 2.2028 -19.7921 -0.054 -0.978 -0.199 255 255 255 0
-35.9848 1.6674 -19.7217 0.119 -0.944 -0.307 254 254 254 0
-35.7194 1.6969 -19.7138 0.118 -0.941 -0.316 133 133 133 0
-34.9301 1.7877 -19.6904 0.118 -0.941 -0.316 223 211 177 0
-34.9278 2.0080 -19.7035 0.207 -0.910 -0.358 227 211 177 0
-21.5831 36.8153 -21.2950 0.710 -0.703 -0.040 238 227 204 0
-21.2040 36.7112 -21.2749 0.463 -0.886 -0.013 237 226 203 0
-20.8712 36.6651 -21.2600 0.531 -0.820 -0.215 237 226 203 0
-20.6700 36.7882 -21.2600 0.314 -0.949 0.006 236 226 202 0
-16.6376 35.6896 -21.0473 0.813 -0.577 0.076 209 182 160 0
-16.5700 35.9847 -21.0624 0.705 -0.670 0.233 186 153 132 0
-10.0993 33.9160 -20.7027 0.649 -0.445 0.616 191 122 95 0
-9.9887 34.1463 -20.7124 0.695 -0.413 0.589 186 117 89 0
-10.0686 34.6560 -20.7458 0.845 -0.239 0.478 176 107 80 0
-7.3961 34.6502 -20.6479 -0.090 -0.821 0.564 144 81 63 0
-7.2372 34.8100 -20.6516 -0.200 -0.809 0.553 145 82 64 0
-6.1512 36.3936 -20.7066 0.195 -0.482 0.854 130 68 55 0
-6.6177 40.9865 -20.9979 0.390 -0.462 0.796 127 62 50 0
-5.4239 43.4925 -21.1039 0.148 -0.613 0.776 128 60 50 0
-5.1538 43.4916 -21.0940 0.159 -0.613 0.774 129 60 51 0
-3.5805 44.4864 -21.0960 0.583 -0.795 0.168 126 55 55 0
-3.0301 45.4097 -21.1311 0.639 -0.545 0.543 125 49 49 0
-2.8231 45.5177 -21.1300 0.623 -0.418 0.661 125 50 51 0
-2.6702 45.7236 -21.1367 0.629 -0.410 0.660 126 51 53 0
-1.2611 50.0981 -21.3465 0.823 -0.559 0.100 125 66 65 0
-1.1258 50.3565 -21.3570 0.788 -0.531 0.312 122 65 62 0
-0.8731 50.3878 -21.3496 0.422 -0.889 -0.179 120 65 62 0
-0.8125 50.7933 -21.3716 0.438 -0.881 -0.177 120 66 64 0
-1.0365 53.3683 -21.5336 0.486 0.071 0.871 125 76 71 0
2.9538 55.1533 -21.4945 0.837 -0.453 0.306 223 212 189 0
3.0086 55.6122 -21.5199 0.566 -0.811 0.146 223 212 190 0
3.2108 55.7531 -21.5209 0.566 -0.811 0.146 223 212 192 0
22.4639 41.5017 -19.9672 0.250 -0.925 0.286 218 210 190 0
33.7679 57.2750 -20.4966 -0.141 -0.986 -0.085 204 184 145 0
37.0306 62.3100 -20.6781 -0.491 -0.866 0.096 190 168 129 0
36.5156 71.7475 -21.2605 0.475 -0.500 0.724 186 164 124 0
36.9574 71.7940 -21.2472 0.333 -0.403 0.853 183 166 123 0
37.8852 71.5802 -21.2005 -0.114 -0.751 0.650 180 163 120 0
37.9900 72.3387 -21.2420 0.877 -0.475 -0.068 180 162 120 0
38.1385 72.8249 -21.2656 0.982 0.058 0.181 180 161 119 0
42.4236 59.2301 -20.2974 0.985 0.076 -0.154 176 154 115 0
47.2215 48.9762 -19.5099 0.635 -0.342 -0.693 165 139 102 0
-36.1033 1.7310 -19.9238 0.120 -0.947 -0.297 254 254 254 0
-35.8245 1.7512 -19.9146 0.118 -0.941 -0.316 133 133 133 0
-35.2968 1.8117 -19.8985 0.118 -0.941 -0.316 222 207 177 0
-35.3853 2.3212 -19.9331 0.024 -0.978 -0.208 230 210 179 0
-20.8940 35.9219 -21.4493 -0.002 -0.882 0.470 237 227 201 0
-20.9374 36.3578 -21.4777 0.311 -0.856 0.413 236 226 200 0
-20.9931 36.8118 -21.5076 0.534 -0.818 -0.216 235 225 199 0
-20.0480 35.9723 -21.4208 0.455 -0.874 -0.170 234 224 198 0
-18.2251 34.3598 -21.2538 0.493 -0.724 -0.482 236 225 197 0
-17.7179 34.4489 -21.2403 0.108 -0.901 -0.420 235 223 195 0
-17.4650 34.4937 -21.2336 0.079 -0.902 -0.425 235 223 195 0
-18.9707 38.4318 -21.5311 0.231 -0.605 0.762 213 189 168 0
-16.5837 35.9947 -21.2925 0.793 -0.585 0.167 157 119 101 0
-14.1844 35.4217 -21.1677 -0.252 -0.711 0.657 160 102 88 0
-14.0134 35.5734 -21.1706 0.459 -0.544 0.703 162 104 89 0
-13.7433 35.5867 -21.1613 0.351 -0.696 0.627 163 106 89 0
-10.1514 33.5962 -20.9050 0.654 -0.437 0.618 178 108 85 0
-10.0159 33.7892 -20.9117 0.654 -0.437 0.618 177 107 82 0
-9.8960 34.0056 -20.9205 0.695 -0.413 0.589 168 98 73 0
-8.0569 34.0479 -20.8543 0.080 -0.548 0.833 146 75 61 0
-6.6260 35.8968 -20.9140 0.177 -0.834 0.523 132 70 55 0
-6.0435 36.2215 -20.9121 0.590 -0.584 0.558 129 67 54 0
-5.3248 42.8671 -21.2923 0.846 -0.287 0.449 129 61 49 0
-5.1140 42.9658 -21.2905 0.465 -0.855 0.229 128 59 48 0
-4.9523 43.1482 -21.2956 0.514 -0.804 0.300 127 57 49 0
-4.8240 43.3884 -21.3055 0.471 -0.674 0.569 125 54 47 0
-4.6679 43.5818 -21.3115 0.603 -0.580 0.548 129 58 51 0
-4.5273 44.2687 -21.3484 0.491 -0.610 0.623 134 66 56 0
-4.2228 44.6758 -21.3619 0.376 -0.769 0.517 136 67 60 0
-3.5374 44.4128 -21.3202 0.608 -0.777 0.162 128 57 55 0
-3.0329 45.4181 -21.3629 0.625 -0.610 0.487 124 50 50 0
-2.8501 45.5700 -21.3653 0.630 -0.606 0.486 123 49 51 0
-2.6500 45.6908 -21.3653 0.566 -0.677 0.470 125 51 53 0
-2.4126 45.7437 -21.3596 0.673 -0.404 0.620 131 57 58 0
-2.5952 47.5493 -21.4771 0.639 -0.756 0.138 132 58 59 0
-1.1256 50.3634 -21.5945 0.641 -0.227 0.733 121 61 60 0
-0.8489 50.3483 -21.5832 0.543 -0.579 0.608 121 62 61 0
-0.4727 50.1376 -21.5562 0.440 -0.680 0.587 119 63 62 0
0.3390 49.5905 -21.4923 0.664 -0.715 -0.217 117 67 64 0
-0.2709 59.7310 -22.1364 0.506 0.231 0.831 221 206 183 0
3.3623 54.8587 -21.7020 0.855 -0.346 0.387 222 212 189 0
4.2968 53.9727 -21.6127 0.050 -0.886 -0.460 221 213 193 0
22.6848 41.5017 -20.1608 0.250 -0.925 0.286 218 210 191 0
28.0612 38.0304 -19.7470 0.481 -0.812 -0.332 214 203 181 0
33.7216 57.5778 -20.7327 -0.289 -0.957 -0.011 205 185 148 0
33.9425 57.5305 -20.7216 -0.204 -0.974 -0.100 205 185 147 0
36.8049 46.4124 -19.9334 -0.122 -0.569 0.813 207 186 147 0
36.2083 69.7009 -21.3824 -0.135 -0.896 -0.423 188 166 127 0
36.7504 71.8092 -21.4913 0.487 -0.528 0.696 185 165 123 0
37.0181 71.5447 -21.4650 0.333 -0.400 0.854 183 166 123 0
37.3029 71.1667 -21.4312 0.526 -0.203 0.826 181 165 122 0
37.5896 70.7661 -21.3960 0.544 -0.134 0.829 179 164 121 0
38.0804 74.8192 -21.6259 0.983 0.063 0.170 179 161 118 0
42.2680 60.5169 -20.5930 0.987 0.080 -0.138 177 154 116 0
-35.9210 1.7992 -20.1151 0.251 -0.885 -0.393 133 133 133 0
-35.6988 1.8601 -20.1105 0.251 -0.885 -0.393 70 64 57 0
-36.0828 2.3613 -20.1566 0.232 -0.916 -0.326 225 208 179 0
-35.4897 2.3761 -20.1348 0.035 -0.971 -0.236 230 207 179 0
-22.5838 38.0750 -21.8824 -0.024 -0.849 0.528 236 226 199 0
-20.6652 35.9972 -21.6784 0.259 -0.915 0.309 236 226 199 0
-20.3643 35.9901 -21.6664 -0.216 -0.974 0.076 235 225 197 0
-18.0936 33.4315 -21.4186 0.699 -0.710 0.079 236 227 199 0
-17.8795 33.5258 -21.4164 0.763 -0.641 -0.076 234 224 196 0
-17.7963 33.7906 -21.4298 0.652 -0.754 0.078 235 222 195 0
-17.4833 34.5082 -21.4629 0.559 -0.828 0.042 236 221 193 0
-17.1628 34.8427 -21.4716 0.723 -0.671 0.168 233 218 191 0
-17.0711 35.1018 -21.4844 0.848 -0.512 0.135 227 211 185 0
-19.0906 38.1886 -21.7556 0.227 -0.611 0.758 201 178 154 0
-16.9022 37.1997 -21.6097 -0.094 -0.272 0.958 151 104 88 0
-14.1420 35.3551 -21.3880 -0.298 -0.692 0.658 157 99 84 0
-6.3815 35.5132 -21.1005 0.078 -0.689 0.720 126 65 51 0
-6.1672 35.5886 -21.0970 0.065 -0.696 0.715 122 60 48 0
-5.8680 35.9425 -21.1078 0.737 -0.439 0.514 120 58 45 0
-5.6542 36.0186 -21.1044 0.820 -0.535 0.206 117 58 44 0
-6.4157 38.9183 -21.3157 0.082 -0.240 0.967 122 64 49 0
-5.1930 42.6443 -21.5028 0.791 -0.315 0.524 130 62 49 0
-5.0868 42.9202 -21.5161 0.465 -0.855 0.229 131 62 51 0
-4.8838 43.0321 -21.5154 0.503 -0.813 0.292 127 54 46 0
-4.6867 43.1540 -21.5155 0.503 -0.813 0.292 123 50 43 0
-4.5211 43.3302 -21.5202 0.478 -0.790 0.383 129 56 48 0
-4.4298 44.1009 -21.5651 0.522 -0.605 0.602 137 67 57 0
-4.2162 44.1965 -21.5629 0.508 -0.597 0.621 139 69 60 0
-4.1554 44.5599 -21.5834 0.376 -0.769 0.517 139 69 60 0
-3.6022 44.5298 -21.5603 0.597 -0.786 0.159 129 58 54 0
-2.8696 45.6088 -21.6000 0.605 -0.536 0.589 125 50 52 0
-2.5902 45.5861 -21.5879 0.566 -0.677 0.470 128 54 55 0
-2.4873 47.3550 -21.6950 0.544 -0.786 0.293 128 53 55 0
-2.2876 47.4818 -21.6953 0.516 -0.801 0.302 124 50 51 0
-1.1218 49.8438 -21.7990 0.549 -0.473 0.689 124 61 59 0
-0.8292 50.3174 -21.8175 0.578 -0.570 0.584 121 60 60 0
1.1067 48.0861 -21.6032 0.282 -0.883 -0.376 117 66 63 0
0.8063 52.9449 -21.9199 0.677 0.051 0.734 125 86 71 0
3.5234 55.6814 -21.9876 0.094 -0.949 -0.299 222 213 192 0
4.8705 53.8780 -21.8227 -0.055 -0.918 -0.392 222 214 195 0
22.3272 41.9614 -20.4052 0.014 -0.983 -0.184 218 210 190 0
22.6161 41.7340 -20.3798 0.404 -0.861 0.308 218 210 191 0
36.8142 71.5427 -21.7079 0.392 -0.554 0.735 187 165 126 0
37.1844 70.6459 -21.6374 0.405 -0.213 0.889 185 166 124 0
37.3572 70.9542 -21.6501 0.518 -0.191 0.834 183 166 123 0
37.6394 70.5801 -21.6158 0.493 -0.287 0.821 180 164 122 0
37.8398 70.7141 -21.6166 0.547 -0.291 0.785 181 164 121 0
45.3660 57.8129 -20.5178 -0.057 -0.865 -0.498 166 142 104 0
45.5892 57.5289 -20.4914 -0.066 -0.856 -0.513 165 141 103 0
-36.0320 1.8576 -20.3174 0.251 -0.885 -0.393 133 133 133 0
-35.5521 2.4002 -20.3335 0.025 -0.968 -0.249 231 210 181 0
-23.8951 0.7628 -19.7707 -0.495 -0.844 0.206 232 214 184 0
-17.9955 33.2944 -21.6328 0.559 -0.789 0.257 236 225 200 0
-17.9473 33.6039 -21.6508 0.653 -0.754 0.071 234 222 197 0
-17.7750 33.7530 -21.6537 0.653 -0.754 0.071 235 221 197 0
-17.6631 33.9813 -21.6640 0.714 -0.700 0.020 236 221 197 0
-17.5447 34.2021 -21.6735 0.705 -0.709 0.017 236 220 196 0
-17.4023 34.3919 -21.6801 0.731 -0.673 -0.114 237 218 194 0
-17.1394 34.8023 -21.6962 0.759 -0.639 -0.122 214 191 169 0
-17.0641 35.0833 -21.7114 0.854 -0.504 0.129 192 166 145 0
-16.7422 35.4191 -21.7204 0.783 -0.195 0.591 153 112 95 0
-16.4218 35.7583 -21.7296 0.744 -0.136 0.655 149 100 86 0
-14.9853 35.7364 -21.6718 0.025 -0.199 0.980 153 96 82 0
-14.4516 35.3880 -21.6285 -0.063 -0.271 0.961 153 95 81 0
-13.9241 35.4341 -21.6107 -0.464 -0.532 0.709 155 93 80 0
-9.8932 33.2113 -21.3095 0.222 -0.831 0.510 153 80 67 0
-9.6686 33.2741 -21.3047 0.222 -0.831 0.510 150 77 63 0
-9.1303 33.2683 -21.2832 0.080 -0.882 0.465 143 68 54 0
-8.8403 33.2334 -21.2696 0.103 -0.858 0.504 143 68 54 0
-8.6188 33.2982 -21.2651 0.050 -0.868 0.495 140 65 53 0
-6.0520 35.4058 -21.3000 0.807 -0.387 0.446 122 62 51 0
-5.9652 35.6804 -21.3143 0.729 -0.409 0.549 116 55 44 0
-5.6610 38.1291 -21.4599 0.357 -0.786 0.505 115 56 43 0
-5.5442 38.3678 -21.4707 0.345 -0.780 0.522 116 55 44 0
-5.0477 42.3986 -21.7106 0.829 -0.345 0.441 129 61 48 0
-4.9745 42.7299 -21.7291 0.559 -0.675 0.483 133 63 51 0
-4.7785 42.8531 -21.7293 0.660 -0.560 0.502 132 59 50 0
-4.5231 42.8743 -21.7206 0.151 -0.875 0.460 123 49 42 0
-3.5031 44.3572 -21.7760 0.617 -0.785 0.063 133 61 56 0
-2.7494 44.9151 -21.7824 0.202 -0.691 0.694 126 52 53 0
-2.5447 45.5074 -21.8125 0.802 -0.177 0.570 129 55 56 0
-2.1034 47.1456 -21.9006 0.676 -0.623 0.394 125 50 51 0
1.0248 51.4231 -22.0531 0.690 0.079 0.720 118 71 64 0
1.0600 51.8926 -22.0819 0.669 0.058 0.741 119 75 67 0
2.0029 50.5105 -21.9560 0.880 -0.201 0.430 120 77 67 0
1.5510 56.4710 -22.3573 0.609 0.262 0.748 220 202 177 0
3.1732 56.4633 -22.2932 0.049 -0.822 -0.568 221 212 192 0
6.5789 50.1141 -21.7509 0.663 -0.740 -0.114 222 214 195 0
34.1442 36.6454 -19.8024 -0.126 -0.412 0.903 213 196 173 0
36.8897 72.5821 -22.0074 0.175 -0.616 0.768 185 165 126 0
37.2793 71.5628 -21.9265 0.180 -0.940 0.290 183 164 125 0
40.1458 65.6371 -21.4327 0.983 -0.054 -0.176 179 160 118 0
-36.1433 1.9162 -20.5203 0.251 -0.885 -0.393 133 133 133 0
-35.9204 1.9773 -20.5154 0.239 -0.888 -0.394 69 62 55 0
-36.2750 2.4575 -20.5613 0.233 -0.922 -0.310 224 208 178 0
-35.6672 2.4627 -20.5372 0.024 -0.967 -0.253 230 210 178 0
-17.6624 33.9707 -21.8907 0.688 -0.720 0.088 233 219 197 0
-17.5333 34.1775 -21.8991 0.727 -0.687 -0.020 233 217 196 0
-17.3926 34.3697 -21.9062 0.733 -0.669 -0.127 227 208 186 0
-17.2225 34.9034 -21.9345 0.822 -0.522 -0.228 176 146 130 0
-16.1385 35.3660 -21.9215 0.758 -0.107 0.644 146 93 81 0
-8.7741 33.1310 -21.4784 -0.086 -0.927 0.365 133 55 48 0
-5.6929 37.7533 -21.6593 0.433 -0.642 0.633 119 57 46 0
-5.1073 42.5001 -21.9486 0.465 -0.656 0.594 127 60 46 0
-4.7102 42.7372 -21.9483 0.660 -0.560 0.502 134 61 52 0
-4.4885 42.8160 -21.9446 0.187 -0.732 0.655 126 52 44 0
-2.1045 47.1525 -22.1347 0.697 -0.630 0.342 129 52 52 0
1.0572 52.4531 -22.3570 0.671 0.081 0.737 116 70 64 0
2.0434 51.5207 -22.2560 0.799 -0.142 0.585 120 79 71 0
3.6537 56.0103 -22.4872 0.189 -0.977 -0.102 221 213 194 0
4.1963 55.3993 -22.4251 0.149 -0.975 -0.163 222 214 195 0
21.8169 44.7882 -21.0182 0.097 -0.991 -0.098 219 209 191 0
34.0758 36.2317 -19.9620 -0.173 -0.488 0.855 213 196 174 0
34.1653 36.6113 -19.9834 -0.142 -0.653 0.744 214 196 174 0
40.0431 65.0376 -21.6208 0.997 -0.070 0.041 179 158 118 0
46.6793 54.7877 -20.6788 -0.029 -0.750 -0.661 163 139 102 0
-36.2550 1.9749 -20.7237 0.251 -0.885 -0.393 133 133 133 0
-36.0331 2.0371 -20.7188 0.239 -0.888 -0.394 68 61 54 0
-36.3648 2.5009 -20.7637 0.231 -0.915 -0.332 221 207 176 0
-36.1296 2.5542 -20.7577 0.270 -0.903 -0.333 226 210 178 0
-19.2264 34.8674 -22.2431 -0.294 -0.855 -0.427 232 219 202 0
-17.6842 33.9896 -22.1205 0.734 -0.678 -0.023 230 217 196 0
-17.5723 34.2191 -22.1314 0.729 -0.684 -0.015 228 212 192 0
-17.3959 34.7436 -22.1595 0.804 -0.348 -0.482 176 151 134 0
-17.2507 34.9316 -22.1662 0.781 -0.616 -0.105 152 119 106 0
-15.3263 34.6407 -22.0676 -0.208 -0.602 0.771 146 90 82 0
-8.3312 31.3236 -21.5565 0.191 -0.741 0.644 136 59 54 0
-8.7431 33.0802 -21.6919 -0.150 -0.929 0.338 131 52 47 0
-8.4325 33.0136 -21.6747 -0.083 -0.828 0.555 130 51 46 0
-8.1549 32.9943 -21.6620 -0.083 -0.828 0.555 131 53 47 0
-5.5795 37.5693 -21.8648 0.424 -0.644 0.637 119 57 47 0
-5.3946 37.6962 -21.8657 0.357 -0.614 0.704 122 60 49 0
-4.1226 39.4993 -21.9351 0.447 -0.893 -0.041 116 53 39 0
-5.0529 42.4086 -22.1696 0.495 -0.647 0.580 127 61 45 0
-4.7236 42.7611 -22.1798 0.627 -0.592 0.507 134 63 51 0
2.6622 50.2554 -22.3820 0.398 -0.222 0.890 118 73 67 0
34.4651 36.1832 -20.1265 -0.106 -0.675 0.730 212 195 171 0
47.0698 46.3763 -20.2963 0.059 -0.566 -0.823 165 142 104 0
46.7176 54.6089 -20.8661 -0.022 -0.727 -0.686 163 139 101 0
-36.3679 2.0346 -20.9278 0.244 -0.891 -0.384 133 133 133 0
-36.1432 2.0950 -20.9226 0.251 -0.885 -0.393 68 61 54 0
-36.4626 2.5501 -20.9674 0.231 -0.915 -0.332 221 205 177 0
-36.2208 2.5989 -20.9606 0.261 -0.899 -0.352 224 208 178 0
-17.4903 34.8590 -22.4002 0.804 -0.348 -0.482 148 117 103 0
-9.1177 31.3111 -21.8038 0.406 -0.607 0.683 138 65 59 0
-8.7054 31.0983 -21.7718 0.041 -0.596 0.802 134 60 55 0
-8.4941 31.1732 -21.7681 -0.049 -0.623 0.781 133 59 53 0
-8.1758 31.4739 -21.7755 0.255 -0.953 0.166 132 55 49 0
-8.2636 32.7598 -21.8679 0.182 -0.891 0.415 130 52 47 0
-5.5110 37.4574 -22.0765 0.493 -0.781 0.384 118 60 48 0
-5.3073 37.5537 -22.0746 0.534 -0.721 0.442 120 60 49 0
-5.2835 37.9413 -22.1003 0.317 -0.877 0.361 120 60 49 0
-4.3950 39.0763 -22.1414 0.684 -0.722 0.104 116 56 45 0
-4.2409 39.2576 -22.1474 0.672 -0.731 0.116 118 56 44 0
-4.1952 39.6208 -22.1705 0.652 -0.752 0.099 118 56 43 0
-4.0997 42.1512 -22.3411 0.488 -0.866 -0.109 136 64 51 0
-3.2990 44.0040 -22.4354 0.461 -0.873 0.158 138 65 57 0
-0.7804 46.6778 -22.5141 -0.118 -0.945 -0.305 139 65 65 0
-0.6808 47.9990 -22.6011 -0.249 -0.645 0.722 129 56 55 0
-0.3569 47.8872 -22.5798 -0.265 -0.639 0.722 127 57 55 0
4.2317 48.0868 -22.4009 -0.050 -0.987 0.150 121 77 73 0
34.1867 35.8849 -20.3010 -0.235 -0.704 0.670 212 196 174 0
43.9003 47.8058 -20.7157 0.994 0.106 -0.011 177 155 118 0
42.7453 70.4122 -22.3242 0.925 -0.083 0.372 169 147 110 0
-36.4792 2.0929 -21.1323 0.251 -0.885 -0.393 133 133 133 0
-36.2618 2.1590 -21.1277 0.259 -0.887 -0.382 69 62 55 0
-36.5607 2.5994 -21.1716 0.231 -0.915 -0.332 224 207 181 0
-36.3195 2.6489 -21.1647 0.272 -0.896 -0.351 226 210 182 0
-33.1037 5.7569 -21.2460 -0.407 -0.810 -0.422 230 215 184 0
-22.4705 37.4888 -23.0287 0.844 -0.518 -0.138 228 220 203 0
-22.3028 37.6603 -23.0336 -0.184 -0.983 0.013 226 220 202 0
-17.7946 34.4918 -22.6166 0.797 -0.406 -0.448 164 140 127 0
-17.6294 35.0338 -22.6478 0.809 -0.351 -0.472 147 108 100 0
-9.0132 31.1552 -22.0044 0.406 -0.607 0.683 138 65 60 0
-8.7234 31.1181 -21.9893 0.592 -0.526 0.611 134 59 56 0
-8.2357 31.5556 -21.9993 0.267 -0.946 0.187 128 54 49 0
-7.5906 31.7637 -21.9863 0.116 -0.496 0.861 127 51 45 0
-7.3583 31.8070 -21.9794 0.122 -0.479 0.869 126 50 44 0
-5.6938 34.4279 -22.0929 0.639 -0.739 0.213 123 61 48 0
-5.5058 34.5411 -22.0928 0.595 -0.738 0.319 119 57 44 0
-5.7056 37.7683 -22.3291 0.584 -0.737 -0.341 117 59 45 0
-4.3015 38.9207 -22.3501 0.823 -0.446 0.352 117 55 44 0
-4.1382 39.5254 -22.3858 0.681 -0.719 0.139 118 57 43 0
-0.8903 46.8908 -22.7661 0.069 -0.997 0.028 142 68 69 0
3.2381 48.5561 -22.7065 0.689 -0.722 -0.063 115 63 60 0
3.8682 48.8545 -22.7005 0.382 -0.659 -0.648 117 71 69 0
3.2673 50.6497 -22.8529 0.600 -0.173 0.781 119 76 71 0
1.5576 60.0637 -23.5906 0.549 0.190 0.814 220 208 188 0
21.8167 64.0080 -22.9995 0.629 0.125 0.767 212 201 183 0
44.4385 42.7203 -20.5267 0.994 0.107 0.005 178 154 118 0
47.3939 57.5123 -21.4437 0.069 -0.966 -0.250 50 48 47 0
-36.5918 2.1522 -21.3375 0.251 -0.885 -0.393 133 133 133 0
-36.3731 2.2176 -21.3326 0.242 -0.899 -0.364 68 61 55 0
-36.6596 2.6493 -21.3763 0.240 -0.915 -0.323 224 207 182 0
-36.4184 2.6991 -21.3693 0.272 -0.896 -0.351 227 210 186 0
-22.1207 37.0317 -23.2185 -0.260 -0.965 0.028 227 219 204 0
-22.1487 37.4521 -23.2501 -0.206 -0.946 0.250 224 218 200 0
-21.7915 37.3800 -23.2292 -0.206 -0.946 0.250 224 217 199 0
-17.8350 34.9148 -22.8780 0.795 -0.370 -0.481 145 108 100 0
-17.4917 34.8421 -22.8577 0.696 -0.713 0.086 147 104 98 0
-7.3630 32.5862 -22.2511 0.043 -0.614 0.788 133 60 53 0
-7.2433 32.7991 -22.2612 0.495 -0.588 0.640 135 63 57 0
-6.9851 32.8048 -22.2503 0.512 -0.568 0.645 132 63 55 0
-6.8699 33.0253 -22.2612 0.472 -0.574 0.668 128 60 51 0
-4.3508 34.3515 -22.2464 0.579 -0.471 0.666 117 59 44 0
-5.7628 37.8585 -22.5612 0.625 -0.712 -0.321 118 60 43 0
-5.2530 37.8891 -22.5411 0.468 -0.768 0.438 116 57 42 0
-4.3329 38.9724 -22.5788 0.788 -0.483 0.382 116 54 42 0
-3.9587 38.7867 -22.5491 0.592 -0.642 0.487 116 56 42 0
-4.1265 39.5059 -22.6083 0.671 -0.727 0.146 118 59 43 0
-3.7610 42.9490 -22.8406 0.554 -0.813 -0.180 133 60 45 0
1.9733 49.0212 -23.0271 0.777 -0.440 0.450 116 54 53 0
3.2482 48.5456 -22.9369 0.711 -0.702 -0.039 124 67 65 0
3.2789 50.6370 -23.0864 0.631 -0.114 0.767 114 71 66 0
3.7367 57.6709 -23.5736 0.720 -0.584 -0.374 221 213 192 0
26.9195 72.4547 -23.6236 0.880 -0.333 0.339 210 195 172 0
43.6249 44.8888 -20.9035 0.121 -0.764 -0.634 178 157 120 0
46.3998 58.1786 -21.7403 0.455 -0.392 -0.800 161 141 103 0
-36.7047 2.2116 -21.5432 0.251 -0.885 -0.393 135 135 135 0
-36.4787 2.2721 -21.5376 0.242 -0.899 -0.364 68 61 56 0
-36.7561 2.6974 -21.5813 0.255 -0.901 -0.350 222 206 182 0
-36.5176 2.7494 -21.5745 0.272 -0.896 -0.351 226 209 186 0
-36.2495 2.7795 -21.5647 -0.028 -0.994 -0.109 228 209 184 0
-35.8326 2.9261 -21.5569 -0.462 -0.871 -0.171 230 211 186 0
-18.1194 33.7674 -23.0363 0.540 -0.841 -0.031 202 180 167 0
-18.6011 35.5316 -23.1878 -0.266 -0.824 0.499 145 114 104 0
-17.7415 34.7819 -23.0941 0.744 -0.658 -0.113 144 107 99 0
-5.2399 38.2952 -22.7935 0.765 -0.503 -0.402 115 56 41 0
-3.8975 41.8074 -22.9921 0.427 -0.887 0.176 134 66 49 0
-3.6873 41.9025 -22.9897 0.448 -0.874 0.189 134 63 47 0
-3.8320 43.0741 -23.0825 0.580 -0.797 -0.168 135 63 48 0
1.3388 47.6852 -23.1908 0.956 -0.291 -0.038 130 63 56 0
1.3112 48.2574 -23.2342 0.675 -0.732 0.086 128 62 56 0
2.8749 48.7893 -23.2034 0.334 -0.233 0.913 138 77 74 0
3.3616 57.3231 -23.8103 0.713 -0.597 -0.369 218 208 186 0
3.5554 57.4910 -23.8140 0.724 -0.581 -0.371 219 211 189 0
3.6958 58.3827 -23.8734 0.690 -0.720 -0.077 222 214 193 0
26.7940 72.0261 -23.8449 0.899 -0.401 0.175 212 197 173 0
46.2917 49.2425 -21.2939 0.341 -0.465 -0.817 165 145 110 0
-36.8090 2.2648 -21.7487 0.246 -0.899 -0.363 135 135 135 0
-36.5847 2.3268 -21.7431 0.242 -0.899 -0.364 68 61 56 0
-36.8573 2.7488 -21.7873 0.255 -0.901 -0.350 223 207 184 0
-36.6171 2.7998 -21.7802 0.272 -0.896 -0.351 227 210 188 0
-36.4607 2.9118 -21.7814 0.219 -0.925 -0.312 229 210 186 0
-5.3128 33.0235 -22.6241 0.232 -0.547 0.804 122 60 49 0
-5.3842 38.0988 -23.0092 0.734 -0.636 -0.239 117 58 42 0
-3.6651 41.8655 -23.2140 0.448 -0.874 0.189 137 65 50 0
-1.3671 43.3983 -23.2243 -0.095 -0.992 0.089 136 61 58 0
1.5666 45.7176 -23.2648 0.470 -0.738 0.485 142 70 58 0
1.7498 46.3722 -23.3057 0.371 -0.622 0.690 133 61 54 0
2.1821 46.5411 -23.2987 0.038 -0.915 0.403 130 61 55 0
1.7093 47.9957 -23.4297 -0.040 -0.864 0.502 128 59 55 0
2.8174 48.3869 -23.4085 0.073 -0.926 0.369 123 60 54 0
3.0561 48.4290 -23.4008 0.805 -0.561 -0.192 126 64 59 0
3.4600 57.7190 -24.0812 0.772 -0.455 -0.444 219 211 190 0
3.6893 57.8090 -24.0775 0.753 -0.461 -0.470 220 212 191 0
3.7874 58.1936 -24.1019 0.680 -0.446 -0.582 221 213 192 0
28.3909 42.7182 -21.8141 0.777 0.088 0.623 214 203 184 0
41.5920 70.0506 -23.2673 0.991 0.121 0.055 175 151 123 0
-36.9150 2.3191 -21.9548 0.246 -0.899 -0.363 136 136 136 0
-36.6909 2.3816 -21.9492 0.242 -0.899 -0.364 69 61 55 0
-36.9588 2.8003 -21.9938 0.255 -0.901 -0.350 225 207 185 0
-36.7217 2.8540 -21.9869 0.277 -0.896 -0.347 227 210 187 0
-36.5825 2.9788 -21.9900 0.209 -0.925 -0.318 228 211 187 0
-34.3919 11.1657 -22.5165 -0.523 -0.750 0.406 238 221 192 0
-11.5711 29.1263 -22.8323 -0.142 -0.919 0.368 129 70 66 0
-3.6709 41.8769 -23.4433 0.339 -0.847 0.410 137 70 50 0
1.7439 45.8841 -23.4987 0.491 -0.587 0.643 137 60 53 0
1.8448 46.1936 -23.5178 0.371 -0.622 0.690 133 57 51 0
2.0409 46.8291 -23.5574 0.077 -0.915 0.396 132 59 54 0
1.8285 47.7671 -23.6394 -0.065 -0.929 0.363 124 53 48 0
2.8668 48.2960 -23.6316 0.017 -0.935 0.354 119 55 49 0
3.0836 48.3829 -23.6282 0.806 -0.573 -0.147 118 55 49 0
3.1319 48.8154 -23.6591 0.821 -0.547 -0.165 118 56 53 0
4.0040 49.1544 -23.6445 0.161 -0.724 0.670 114 64 61 0
4.4778 48.7006 -23.5876 0.596 -0.600 0.533 112 66 62 0
2.4952 59.2724 -24.4917 0.667 0.285 0.688 224 209 188 0
4.1436 58.0149 -24.3184 0.906 -0.230 -0.356 221 213 191 0
21.5167 44.6103 -22.4797 -0.083 -0.761 0.643 219 209 191 0
46.0129 47.3643 -21.5498 0.879 -0.383 -0.285 167 148 112 0
-37.0214 2.3736 -22.1615 0.246 -0.899 -0.363 136 136 136 0
-36.7917 2.4324 -22.1552 0.244 -0.902 -0.357 70 61 55 0
-37.0424 2.8389 -22.1989 0.283 -0.893 -0.350 226 207 185 0
-36.8237 2.9062 -22.1938 0.283 -0.893 -0.350 227 211 187 0
-36.6492 3.0055 -22.1933 0.209 -0.925 -0.317 227 211 187 0
-31.2852 19.3454 -23.2186 -0.333 -0.369 0.868 234 221 204 0
-28.9938 18.3132 -23.0288 0.811 -0.158 0.564 237 222 205 0
-21.5217 35.0887 -23.9880 0.518 -0.736 0.435 227 220 202 0
-19.9145 34.9266 -23.8990 0.438 -0.895 0.084 199 178 161 0
-19.7855 35.1388 -23.9095 -0.045 -0.813 0.581 171 146 130 0
-12.6180 29.4377 -23.1223 -0.119 -0.652 0.749 130 72 71 0
-11.7545 29.0032 -23.0472 -0.399 -0.799 0.451 130 70 69 0
-11.3153 28.7722 -23.0082 -0.223 -0.934 0.280 130 69 68 0
-5.7590 38.7030 -23.5223 0.994 0.011 0.109 118 60 43 0
-5.5913 38.8629 -23.5268 0.986 0.091 0.139 119 61 44 0
-4.2385 40.1369 -23.5623 0.839 -0.338 0.426 116 61 41 0
4.5881 49.0212 -23.8390 0.404 -0.229 0.885 111 67 63 0
3.1243 58.4977 -24.6510 0.705 0.260 0.660 223 208 188 0
19.0431 53.9757 -23.5403 0.558 0.150 0.816 223 210 194 0
42.0881 66.5834 -23.4331 0.973 0.131 0.191 174 150 121 0
46.0278 47.3901 -21.7422 0.840 -0.382 -0.385 166 148 112 0
47.5112 48.3271 -21.7452 -0.134 -0.936 0.324 163 143 106 0
47.6505 57.8462 -22.4843 -0.002 -0.962 -0.273 246 246 243 0
-37.5760 2.3012 -22.3803 0.199 -0.917 -0.346 255 255 255 0
-36.8994 2.4882 -22.3624 0.246 -0.899 -0.363 69 61 55 0
-37.1316 2.8815 -22.4051 0.269 -0.898 -0.349 225 207 185 0
-37.0995 3.0846 -22.4198 0.635 -0.656 -0.409 226 210 186 0
-29.3911 18.6785 -23.2924 0.798 -0.217 0.562 233 222 204 0
-21.5450 34.7319 -24.1951 0.424 -0.900 0.098 229 221 203 0
-21.1393 34.5954 -24.1646 0.113 -0.923 0.367 228 220 202 0
-20.9495 34.7300 -24.1661 0.108 -0.910 0.400 229 218 201 0
-20.6582 34.7360 -24.1525 0.102 -0.915 0.389 228 215 198 0
-20.1488 34.8391 -24.1360 0.130 -0.945 0.300 208 191 171 0
-19.9905 35.0136 -24.1423 -0.162 -0.774 0.612 166 144 125 0
-19.8656 35.2315 -24.1537 0.011 -0.782 0.623 148 119 103 0
-18.6800 34.8333 -24.0644 -0.447 -0.856 0.262 141 100 92 0
-18.1952 34.5796 -24.0207 -0.447 -0.862 0.239 140 96 90 0
-14.4251 30.3737 -23.5020 -0.110 -0.913 0.392 133 85 81 0
-14.5944 30.9629 -23.5573 -0.203 -0.946 0.254 131 81 77 0
-13.1626 29.4301 -23.3655 -0.242 -0.695 0.677 129 76 74 0
-12.8468 29.3720 -23.3455 -0.236 -0.697 0.677 127 71 70 0
-12.5549 29.3448 -23.3292 -0.135 -0.639 0.757 128 69 69 0
-5.4941 38.2726 -23.7006 0.958 -0.041 0.285 120 63 46 0
-4.1641 40.4579 -23.8108 0.863 -0.278 0.422 116 61 41 0
-3.5176 41.6152 -23.8719 0.698 -0.447 0.559 133 75 46 0
-3.6839 43.2888 -24.0137 0.421 -0.902 -0.091 141 79 51 0
-3.6364 44.1443 -24.0798 -0.003 -0.943 0.332 143 80 58 0
1.7288 45.9287 -23.9625 0.269 -0.546 0.793 139 56 47 0
2.4437 46.5603 -23.9783 0.108 -0.558 0.823 124 46 41 0
3.6751 57.2880 -24.7759 0.723 0.260 0.640 219 203 183 0
19.3864 53.6839 -23.7269 0.548 0.147 0.824 220 208 192 0
26.7076 44.4113 -22.6313 -0.192 -0.950 -0.247 216 205 183 0
29.6338 37.1107 -21.9063 0.693 0.037 0.720 213 201 179 0
29.0493 58.9629 -23.6806 0.624 -0.459 -0.632 210 195 172 0
29.2610 59.0072 -23.6739 0.567 -0.606 -0.558 209 194 171 0
34.6848 50.9380 -22.7665 0.892 0.152 0.426 208 193 171 0
47.6651 57.9058 -22.6945 -0.002 -0.962 -0.273 246 246 243 0
-37.7266 2.3866 -22.5929 0.213 -0.914 -0.345 255 255 255 0
-37.5749 2.5025 -22.5949 0.155 -0.938 -0.311 255 255 255 0
-36.8200 2.6338 -22.5683 0.251 -0.891 -0.378 226 208 186 0
-37.2086 3.1418 -22.6289 0.627 -0.657 -0.419 227 211 187 0
-37.0749 3.2718 -22.6329 0.627 -0.657 -0.419 228 212 187 0
-22.1647 35.1226 -24.4916 -0.091 -0.995 -0.039 229 222 204 0
-20.4878 34.8843 -24.3895 0.055 -0.979 0.195 218 203 185 0
-20.3207 35.0482 -24.3946 0.233 -0.968 0.090 183 164 145 0
-20.1418 35.1971 -24.3979 0.254 -0.955 0.156 149 124 107 0
-19.7430 35.0630 -24.3673 0.011 -0.782 0.623 144 113 98 0
-19.4577 35.0738 -24.3540 -0.117 -0.870 0.478 141 104 92 0
-18.4321 34.5003 -24.2567 -0.463 -0.832 0.304 138 94 87 0
-14.6695 31.0531 -23.7902 -0.175 -0.971 0.162 128 76 73 0
-13.0664 29.2937 -23.5677 -0.217 -0.671 0.709 127 71 70 0
-12.3667 29.0846 -23.5161 -0.147 -0.644 0.751 126 65 66 0
-7.6149 29.4826 -23.3140 0.520 -0.382 0.764 131 51 51 0
-6.9122 29.2163 -23.2576 0.122 -0.716 0.688 132 52 53 0
-5.1646 31.2050 -23.3334 0.224 -0.844 0.487 123 50 47 0
-3.5388 32.2444 -23.3378 0.412 -0.903 -0.125 117 58 48 0
-3.9168 39.1547 -23.9194 0.359 -0.912 -0.200 109 54 34 0
-3.5131 39.3594 -23.9161 0.462 -0.860 0.216 116 61 41 0
-3.6397 42.2863 -24.1608 0.758 -0.403 0.512 134 77 45 0
-3.5513 42.5948 -24.1816 0.734 -0.512 0.446 138 80 48 0
-3.6937 43.3077 -24.2467 0.421 -0.902 -0.091 142 82 51 0
1.8930 45.6153 -24.1589 0.505 -0.397 0.766 141 58 46 0
1.5689 46.7585 -24.2681 -0.034 -0.916 0.400 139 55 47 0
2.9812 46.5257 -24.1794 0.282 -0.632 0.722 125 52 45 0
19.7536 50.5555 -23.6798 0.787 0.142 0.600 220 212 193 0
26.1873 45.5050 -22.9508 -0.006 -0.874 0.486 215 204 186 0
26.8036 44.1266 -22.8081 -0.111 -0.939 -0.324 216 203 184 0
27.0195 44.0964 -22.7949 -0.111 -0.939 -0.324 215 201 182 0
29.2349 59.1814 -23.9145 0.571 -0.607 -0.553 207 192 169 0
36.1144 52.9216 -23.0650 0.823 -0.565 0.055 205 189 168 0
46.7261 58.0276 -22.9571 0.084 -0.938 -0.335 165 141 105 0
-37.8204 2.4313 -22.8000 0.185 -0.929 -0.321 255 255 255 0
-37.6618 2.5426 -22.8013 0.147 -0.937 -0.317 255 255 255 0
-37.1161 2.6004 -22.7787 0.248 -0.899 -0.362 70 62 55 0
-37.3005 3.1864 -22.8366 0.627 -0.657 -0.419 229 213 188 0
-37.1667 3.3167 -22.8407 0.627 -0.657 -0.419 229 213 187 0
-33.1100 0.7999 -22.4277 0.393 -0.743 -0.542 230 213 187 0
-54.1684 23.5938 -25.3792 0.162 -0.748 0.644 237 220 195 0
-20.4294 35.1763 -24.6443 0.379 -0.923 0.066 155 130 115 0
-20.1857 35.2428 -24.6376 0.413 -0.663 0.625 143 111 99 0
-19.8552 35.1971 -24.6172 0.060 -0.631 0.773 140 103 93 0
-12.1660 28.8075 -23.7000 -0.162 -0.659 0.734 122 61 62 0
-8.8211 28.5957 -23.5142 0.064 -0.831 0.552 137 62 67 0
-5.3052 29.4890 -23.4116 0.097 -0.773 0.627 123 45 43 0
-5.6198 30.7248 -23.5300 0.256 -0.657 0.709 124 50 46 0
-4.7120 31.2922 -23.5315 0.141 -0.836 0.530 119 49 46 0
-3.5596 32.2748 -23.5551 0.387 -0.914 -0.124 116 56 45 0
-3.4415 39.2389 -24.1274 0.342 -0.913 0.225 115 62 40 0
-3.2354 39.3338 -24.1249 0.398 -0.887 0.234 119 65 44 0
-3.2651 43.9668 -24.5111 0.081 -0.994 -0.070 150 89 59 0
1.6430 45.1030 -24.3586 0.543 -0.435 0.718 150 80 53 0
1.8042 45.2917 -24.3662 0.543 -0.435 0.718 143 69 46 0
2.0124 45.3895 -24.3638 0.426 -0.576 0.698 141 62 46 0
4.4505 47.7302 -24.4356 0.203 -0.350 0.914 114 53 50 0
5.6274 49.0263 -24.4840 0.968 -0.014 0.249 112 74 66 0
3.2708 59.4373 -25.4669 0.817 0.319 0.480 221 207 185 0
36.1222 52.9661 -23.2777 0.748 -0.652 0.123 206 190 171 0
46.7382 58.1048 -23.1705 0.084 -0.938 -0.335 168 140 108 0
46.9408 57.9835 -23.1503 0.062 -0.948 -0.312 166 139 105 0
-37.9373 2.4926 -23.0102 0.205 -0.921 -0.331 255 255 255 0
-37.7683 2.5967 -23.0104 0.147 -0.937 -0.317 255 255 255 0
-37.2141 2.6490 -22.9864 0.269 -0.892 -0.364 70 62 55 0
-37.0307 2.7422 -22.9849 0.270 -0.891 -0.364 227 209 186 0
-37.3751 3.2185 -23.0429 0.603 -0.670 -0.432 229 213 188 0
-37.2587 3.3616 -23.0490 0.627 -0.657 -0.419 230 214 187 0
-19.9680 34.5755 -24.8040 -0.229 -0.779 0.584 145 111 102 0
-19.6958 34.6035 -24.7925 0.003 -0.762 0.647 139 97 91 0
-19.3402 34.5232 -24.7675 -0.001 -0.762 0.648 134 90 86 0
-19.0093 34.4734 -24.7463 -0.009 -0.796 0.605 133 86 83 0
-16.7567 32.6691 -24.4783 -0.484 -0.622 0.615 125 76 72 0
-14.3944 30.3056 -24.1574 -0.175 -0.945 0.277 128 73 71 0
-14.4360 30.7261 -24.1951 -0.431 -0.876 0.218 127 71 70 0
-13.7967 30.2452 -24.1217 -0.556 -0.712 0.428 127 69 68 0
-13.5846 30.3289 -24.1179 -0.401 -0.710 0.579 124 65 64 0
-8.0903 28.2955 -23.6645 0.179 -0.625 0.760 138 63 66 0
-5.2686 29.0513 -23.5840 0.582 -0.539 0.609 128 50 49 0
-5.1884 29.3104 -23.6018 0.462 -0.725 0.510 119 43 40 0
-5.4362 30.0612 -23.6780 -0.029 -0.836 0.548 115 41 36 0
-4.2154 31.3102 -23.7211 0.238 -0.971 0.002 117 52 44 0
-4.0132 31.3912 -23.7176 0.223 -0.974 0.024 119 55 45 0
-3.6012 31.9380 -23.7428 0.479 -0.867 -0.136 112 52 41 0
-3.4923 32.1662 -23.7565 0.361 -0.920 -0.150 115 55 44 0
-2.7358 32.5754 -23.7524 0.818 -0.562 -0.122 114 56 44 0
-3.2082 39.2882 -24.3444 0.398 -0.887 0.234 115 66 44 0
-5.4654 45.4492 -24.9812 0.823 0.188 0.537 131 81 48 0
-4.7055 44.6044 -24.8708 -0.144 -0.832 0.535 135 83 49 0
-3.7842 43.9390 -24.7674 0.096 -0.990 0.100 143 90 53 0
-3.0578 44.5520 -24.7820 0.552 -0.831 0.074 146 81 60 0
1.9257 45.0627 -24.5700 0.502 -0.456 0.735 147 76 52 0
2.1156 45.1953 -24.5715 0.376 -0.570 0.731 144 69 49 0
21.6607 47.6170 -23.7755 -0.005 -0.505 0.863 220 209 191 0
25.7385 37.1041 -22.6773 -0.232 -0.751 0.618 218 206 190 0
26.9955 44.9741 -23.2787 -0.047 -0.948 0.316 216 203 186 0
46.9538 58.0543 -23.3631 0.062 -0.948 -0.312 168 138 106 0
47.3312 58.0778 -23.3458 0.019 -0.949 -0.314 106 90 73 0
-37.3191 2.7026 -23.1955 0.269 -0.892 -0.364 68 63 56 0
-37.1902 2.8355 -23.2002 0.447 -0.769 -0.457 224 210 186 0
-37.4717 3.2664 -23.2520 0.603 -0.670 -0.432 227 213 186 0
-37.3509 3.4066 -23.2578 0.627 -0.657 -0.419 229 213 185 0
-23.8293 36.4074 -25.3962 -0.295 -0.768 0.568 228 221 204 0
-23.5867 36.4851 -25.3902 -0.334 -0.767 0.548 227 222 202 0
-19.9399 34.5288 -25.0315 0.054 -0.965 0.257 138 99 94 0
-19.6790 34.5713 -25.0216 0.103 -0.928 0.359 135 89 88 0
-19.1124 34.5964 -24.9942 0.027 -0.970 0.240 129 79 79 0
-18.7888 34.5554 -24.9738 0.007 -0.953 0.302 127 77 76 0
-18.1284 34.0746 -24.8980 -0.152 -0.941 -0.304 125 74 73 0
-16.7140 32.6036 -24.6975 -0.491 -0.870 0.054 124 73 70 0
-15.3360 31.1684 -24.5020 -0.492 -0.866 0.083 122 71 68 0
-14.5921 30.5569 -24.4105 -0.552 -0.821 0.149 124 70 68 0
-4.2901 30.6393 -23.8805 0.237 -0.840 0.488 117 47 42 0
-3.4054 32.0269 -23.9539 0.336 -0.933 -0.126 113 54 39 0
-2.1544 31.6433 -23.8557 0.660 -0.625 0.417 114 54 43 0
-2.6624 34.5088 -24.1290 0.196 -0.724 0.661 109 56 38 0
-3.3462 39.5226 -24.5967 0.353 -0.933 0.072 119 69 44 0
-4.7746 44.7262 -25.1195 -0.093 -0.936 0.341 134 83 49 0
-3.1670 44.7497 -25.0377 0.538 -0.843 0.019 148 84 58 0
-0.4928 44.7164 -24.8954 0.447 -0.893 -0.045 150 92 63 0
-0.0400 45.8416 -24.9687 0.857 -0.394 -0.333 163 108 63 0
0.1146 46.0478 -24.9785 0.799 -0.399 -0.450 161 106 59 0
4.6547 46.7968 -24.8063 0.825 -0.321 0.466 121 58 50 0
4.8495 46.9208 -24.8068 0.826 -0.379 0.417 119 58 49 0
26.2843 47.4632 -23.7360 0.600 -0.707 -0.373 216 203 186 0
26.5147 47.4021 -23.7187 0.519 -0.749 -0.412 215 203 187 0
26.8530 46.9628 -23.6632 0.639 -0.550 -0.539 215 203 187 0
36.1933 52.7706 -23.6767 0.882 -0.371 0.290 206 189 169 0
36.3068 53.2261 -23.7100 0.872 -0.388 0.297 205 187 169 0
43.9606 69.2950 -24.6955 0.873 -0.073 -0.482 169 147 115 0
47.3800 48.7766 -22.7493 -0.297 -0.889 -0.348 166 140 110 0
46.7641 58.2451 -23.5972 0.086 -0.918 -0.386 167 139 109 0
-38.1426 2.5944 -23.4290 0.239 -0.898 -0.369 255 255 255 0
-37.8554 2.6144 -23.4155 0.276 -0.900 -0.337 255 255 255 0
-37.6482 2.6914 -23.4113 0.269 -0.892 -0.364 135 136 135 0
-37.4244 2.7563 -23.4051 0.269 -0.892 -0.364 68 64 56 0
-37.2602 2.8640 -23.4059 0.427 -0.780 -0.458 224 211 187 0
-37.4366 3.2188 -23.4463 0.452 -0.808 -0.378 227 214 187 0
-38.1680 3.9791 -23.5518 0.589 -0.589 -0.554 230 214 187 0
-15.7568 18.3120 -23.6200 0.378 0.089 0.922 235 226 217 0
-24.4178 36.3658 -25.6634 0.386 -0.903 0.190 231 223 208 0
-24.0723 36.3175 -25.6408 -0.147 -0.900 0.411 229 222 203 0
-19.2878 34.4347 -25.2218 0.083 -0.964 0.252 128 80 80 0
-18.7431 34.1086 -25.1643 0.118 -0.963 0.242 127 77 77 0
-18.4398 34.0924 -25.1467 0.576 -0.809 -0.116 127 76 75 0
-17.9791 33.8702 -25.1028 0.525 -0.847 -0.087 126 75 74 0
-16.8696 32.7973 -24.9498 -0.472 -0.881 0.036 123 72 71 0
-15.8418 31.8227 -24.8098 -0.637 -0.762 0.112 121 70 68 0
-14.7966 30.8170 -24.6661 -0.622 -0.781 0.065 122 67 65 0
-4.4005 28.8822 -23.9447 0.578 -0.729 0.367 118 40 39 0
-4.1241 29.2265 -23.9602 0.231 -0.564 0.793 120 44 40 0
-4.6999 31.2631 -24.1695 0.163 -0.984 -0.065 118 49 42 0
-3.9878 31.3457 -24.1389 0.096 -0.990 -0.103 121 55 46 0
-3.7422 31.3592 -24.1271 0.656 -0.755 -0.001 121 55 45 0
-3.3957 32.0091 -24.1657 0.667 -0.683 0.299 112 51 36 0
-2.1838 30.8903 -24.0032 0.427 -0.795 0.430 111 51 39 0
-3.2124 33.7436 -24.3081 -0.071 -0.623 0.779 115 56 44 0
-2.9647 44.8708 -25.2711 0.574 -0.819 -0.031 150 85 59 0
-0.4521 44.6456 -25.1181 0.449 -0.887 0.107 144 92 60 0
-0.2281 44.7175 -25.1125 0.438 -0.897 0.058 148 99 62 0
-0.3730 45.4818 -25.1872 0.850 -0.427 -0.307 156 106 66 0
-0.1229 46.0047 -25.2198 0.833 -0.538 0.132 159 107 61 0
4.7702 52.6072 -25.5394 0.877 0.100 0.470 111 77 68 0
29.1165 60.8790 -24.9732 0.576 -0.804 0.147 207 194 174 0
36.2280 52.6771 -23.8763 0.935 -0.311 0.172 205 189 171 0
46.9790 49.3750 -23.0161 -0.069 -0.933 -0.354 168 144 111 0
47.5479 58.2157 -23.7615 0.036 -0.950 -0.310 50 48 48 0
-37.7541 2.7452 -23.6216 0.269 -0.892 -0.364 135 136 136 0
-37.5300 2.8101 -23.6153 0.269 -0.892 -0.364 68 63 56 0
-37.3874 2.9338 -23.6186 0.580 -0.666 -0.469 225 211 187 0
-37.5006 3.2431 -23.6524 0.394 -0.837 -0.379 228 214 188 0
-38.5135 4.2082 -23.7932 0.610 -0.569 -0.552 229 212 186 0
-23.2452 36.0359 -25.8109 -0.207 -0.909 0.361 227 221 199 0
-18.8998 34.6790 -25.4552 -0.053 -0.241 0.969 126 75 74 0
-14.3544 30.5909 -24.8447 -0.673 -0.737 0.058 118 61 61 0
-6.3811 28.4190 -24.2203 0.548 -0.551 0.630 125 50 47 0
-4.3560 28.8110 -24.1460 0.655 -0.750 0.093 121 41 42 0
-4.2262 28.9955 -24.1554 0.644 -0.722 0.253 120 40 40 0
-1.8765 31.1950 -24.2250 0.603 -0.777 -0.179 113 53 42 0
-1.7120 31.3315 -24.2283 0.597 -0.779 -0.191 112 52 41 0
-3.2920 39.4317 -25.0369 0.755 -0.654 -0.049 116 68 42 0
-3.1632 39.6590 -25.0502 0.712 -0.699 -0.068 118 71 43 0
-2.5433 44.5984 -25.4578 0.385 -0.884 0.264 151 90 61 0
-0.4327 45.5996 -25.4333 0.906 -0.376 -0.195 152 107 63 0
-0.3193 45.8830 -25.4524 0.906 -0.376 -0.195 155 107 61 0
0.0114 45.7562 -25.4233 0.679 -0.693 0.241 157 106 59 0
2.8293 44.8261 -25.1881 0.453 -0.611 0.649 147 70 54 0
3.9885 44.5472 -25.1006 0.281 -0.954 -0.107 142 71 56 0
4.8001 46.5167 -25.2326 0.794 -0.337 0.506 133 67 57 0
4.9648 52.7685 -25.7820 0.938 -0.038 0.344 112 80 69 0
5.1015 53.0434 -25.7992 0.894 -0.087 0.440 116 87 74 0
24.2412 41.8144 -23.7631 0.901 -0.285 -0.326 222 207 194 0
46.3923 48.3997 -23.1552 0.963 -0.232 -0.135 170 146 117 0
46.9796 49.5414 -23.2254 -0.015 -0.907 -0.422 168 145 113 0
47.1669 49.4608 -23.2081 0.162 -0.894 -0.418 166 142 111 0
-37.8635 2.8014 -23.8328 0.222 -0.907 -0.357 135 136 135 0
-37.6296 2.8597 -23.8253 0.243 -0.902 -0.356 69 63 56 0
-37.4945 2.9890 -23.8296 0.580 -0.666 -0.469 228 213 190 0
-37.5988 3.2920 -23.8629 0.394 -0.837 -0.379 231 216 191 0
-23.3703 35.8014 -26.0354 -0.064 -0.977 0.204 229 219 201 0
-23.0532 35.7847 -26.0165 -0.064 -0.977 0.204 227 218 198 0
