ply
format ascii 1.0
element vertex 839
property float x
property float y
property float z
property float nx
property float ny
property float nz
property uchar diffuse_red
property uchar diffuse_green
property uchar diffuse_blue
property uchar class
end_header
46.9927 46.5244 -30.1534 0.803 -0.590 -0.086 181 166 148 0
47.5641 59.5367 -32.1212 0.329 -0.867 -0.374 178 161 145 0
47.7664 59.4358 -32.0950 0.232 -0.917 -0.325 172 155 138 0
-25.0354 31.1574 -31.8725 0.491 -0.728 0.478 236 228 215 0
-24.0494 31.0140 -31.7968 0.576 -0.757 0.311 234 226 213 0
-23.7326 30.9792 -31.7742 0.578 -0.785 0.223 233 226 213 0
-14.0864 25.8064 -30.4482 0.247 -0.430 0.868 118 48 59 0
-14.0256 26.0888 -30.4887 0.157 -0.482 0.862 116 45 57 0
-11.6791 24.2378 -30.0741 0.451 -0.494 0.743 118 45 54 0
-11.3464 24.1270 -30.0389 0.758 -0.577 0.305 119 46 55 0
-11.1385 24.9279 -30.1520 0.526 -0.850 -0.029 123 44 55 0
-10.7861 25.1568 -30.1684 -0.052 -0.998 0.046 127 45 56 0
-3.5327 24.2443 -29.6334 0.720 -0.347 0.601 140 53 61 0
-0.2419 26.2857 -29.7718 0.478 -0.877 -0.053 139 58 69 0
4.2166 27.0036 -29.6415 0.317 -0.915 -0.251 102 32 40 0
4.0688 27.7304 -29.7623 0.167 -0.975 -0.147 101 31 39 0
3.6892 29.3655 -30.0367 0.353 -0.899 0.258 96 30 35 0
3.8340 29.5350 -30.0552 0.243 -0.953 0.178 96 28 35 0
4.3724 29.8400 -30.0733 0.368 -0.814 0.450 94 25 32 0
6.6626 31.7437 -30.2447 0.515 -0.851 0.105 98 34 35 0
6.8742 31.7797 -30.2388 0.262 -0.880 0.397 96 35 36 0
7.1188 31.7442 -30.2200 0.190 -0.891 0.412 98 39 41 0
8.7251 36.9024 -30.9336 0.974 -0.100 0.201 78 15 26 0
8.6874 37.5356 -31.0339 0.786 -0.554 0.275 77 15 26 0
8.5063 38.5131 -31.1955 0.563 -0.134 0.816 76 18 27 0
8.7223 38.5565 -31.1905 0.869 -0.155 0.470 73 18 25 0
8.8433 39.3879 -31.3130 0.872 -0.233 0.430 68 18 23 0
10.2440 39.3917 -31.2376 0.641 -0.767 -0.003 67 26 28 0
10.4027 39.5747 -31.2574 0.868 -0.492 0.074 67 28 30 0
10.7199 41.7211 -31.5734 0.852 -0.519 0.063 74 44 42 0
10.6718 42.4478 -31.6888 0.977 -0.187 0.099 77 49 46 0
11.0625 42.6561 -31.7000 0.985 -0.034 0.168 88 61 59 0
10.8221 44.5229 -32.0028 0.780 -0.514 0.358 95 71 71 0
10.0614 53.2022 -33.3913 0.389 -0.756 -0.527 210 203 186 0
10.3572 53.0789 -33.3561 0.799 -0.576 -0.171 211 204 187 0
10.7846 52.5832 -33.2560 0.507 -0.776 0.376 212 205 190 0
10.8535 53.0938 -33.3316 0.616 -0.725 0.309 214 206 193 0
11.5028 53.3805 -33.3408 0.465 -0.707 0.533 214 207 189 0
16.9269 45.0700 -31.7567 -0.109 -0.955 -0.277 215 207 193 0
17.4445 44.1748 -31.5897 -0.062 -0.985 -0.164 215 207 193 0
17.6428 44.2602 -31.5922 -0.136 -0.967 -0.214 215 209 193 0
18.0154 44.5062 -31.6101 -0.070 -0.984 0.164 212 209 192 0
28.5821 47.4000 -31.4864 0.522 -0.543 -0.658 203 193 182 0
32.7863 72.2283 -35.1124 0.811 -0.514 -0.280 197 185 171 0
37.7642 68.1011 -34.2018 0.289 -0.951 -0.111 191 179 167 0
38.0614 67.4938 -34.0914 0.277 -0.930 0.242 190 178 165 0
38.2288 67.9790 -34.1577 0.265 -0.931 0.251 189 177 163 0
39.3458 62.0869 -33.1825 0.222 -0.901 0.374 190 176 164 0
39.6024 61.7076 -33.1097 0.411 -0.910 0.051 188 175 163 0
39.8001 61.8479 -33.1208 0.357 -0.928 0.108 186 173 162 0
39.9546 62.3865 -33.1960 0.239 -0.970 0.040 186 171 161 0
40.1110 62.9216 -33.2706 -0.016 -0.988 0.153 189 172 162 0
47.0006 46.6235 -30.3670 0.783 -0.614 -0.103 180 164 149 0
46.4713 64.9810 -33.2453 0.066 -0.961 -0.270 178 164 148 0
-24.0606 30.2621 -31.9148 0.676 -0.383 0.630 235 227 214 0
-23.7010 30.9146 -31.9973 0.441 -0.821 0.363 234 226 213 0
-18.1176 26.9063 -31.0608 0.431 -0.683 0.590 145 104 102 0
-11.6012 24.1075 -30.2627 0.407 -0.504 0.762 120 47 57 0
-13.3202 26.9291 -30.8001 -0.389 -0.786 0.481 121 48 57 0
-11.0247 25.1141 -30.3888 0.462 -0.884 0.069 125 44 56 0
-10.1283 24.9192 -30.3089 -0.285 -0.905 0.317 123 41 51 0
-10.3462 25.6136 -30.4298 0.056 -0.998 0.030 124 41 51 0
-5.7554 24.3130 -29.9728 0.508 -0.809 0.297 139 46 56 0
-0.2410 25.0433 -29.7835 0.679 -0.732 -0.053 134 51 63 0
0.2836 25.3481 -29.8024 0.452 -0.870 0.196 138 60 70 0
0.4540 25.4576 -29.8102 0.509 -0.844 0.172 136 59 70 0
4.2183 29.6790 -30.2651 0.538 -0.708 0.458 93 27 32 0
4.3981 29.7800 -30.2710 0.549 -0.701 0.456 95 28 33 0
7.3476 31.7358 -30.4153 -0.129 -0.909 0.397 92 32 34 0
7.5165 31.8625 -30.4259 -0.000 -0.966 0.260 87 29 31 0
7.5889 32.2000 -30.4749 -0.025 -0.907 0.421 87 30 34 0
7.8490 32.1284 -30.4493 0.655 -0.658 0.372 87 30 36 0
8.6264 38.2269 -31.3632 0.564 -0.138 0.814 73 16 25 0
8.7455 38.4993 -31.3994 0.564 -0.138 0.814 72 18 25 0
10.2645 39.3407 -31.4477 0.649 -0.761 0.000 66 25 27 0
10.7212 41.7191 -31.7957 0.851 -0.522 0.055 74 44 44 0
10.3409 53.1306 -33.6069 0.799 -0.576 -0.171 212 205 188 0
10.7863 52.5849 -33.4968 0.567 -0.656 0.499 212 205 189 0
10.8666 53.0633 -33.5674 0.593 -0.628 0.504 213 206 190 0
11.4615 52.7917 -33.4920 0.472 -0.869 0.147 213 206 190 0
11.6135 53.0699 -33.5273 0.756 -0.652 -0.061 213 206 190 0
11.7906 53.2774 -33.5501 0.756 -0.652 -0.061 214 207 191 0
17.4953 44.0291 -31.7848 -0.212 -0.965 0.156 214 207 191 0
15.5321 52.3363 -33.1963 0.831 -0.557 0.013 212 208 191 0
15.6505 52.7240 -33.2506 0.803 -0.596 -0.006 211 208 192 0
16.3290 51.3297 -32.9944 0.686 -0.675 -0.271 214 206 195 0
21.5479 55.3765 -33.3417 -0.085 -0.818 -0.569 209 202 192 0
25.5783 55.9383 -33.2078 0.252 -0.874 -0.415 203 195 184 0
31.6880 59.2085 -33.3842 0.073 -0.424 0.903 199 190 173 0
33.0755 71.9848 -35.3121 0.580 -0.794 -0.181 196 184 171 0
37.4966 68.5632 -34.5317 0.052 -0.988 0.148 192 180 165 0
37.7684 68.1858 -34.4576 0.265 -0.959 -0.104 193 180 165 0
39.6161 61.7098 -33.3398 0.624 -0.780 0.052 189 175 164 0
39.8131 61.8578 -33.3521 0.344 -0.926 0.158 188 174 163 0
39.9690 62.3850 -33.4263 0.352 -0.909 0.222 186 172 161 0
40.1265 62.9103 -33.5000 0.057 -0.989 0.136 186 172 161 0
41.5811 63.2987 -33.4808 0.863 -0.446 0.236 188 173 162 0
43.9284 68.4547 -34.1603 -0.235 -0.947 0.220 183 169 157 0
46.5031 64.7185 -33.4323 0.049 -0.951 -0.305 177 164 149 0
-42.8269 6.7726 -29.4754 0.288 -0.891 -0.351 230 215 201 0
-24.0872 30.6424 -32.2108 0.473 -0.857 -0.205 235 227 213 0
-23.7418 30.5708 -32.1801 0.516 -0.835 -0.191 234 226 212 0
-22.7031 32.6158 -32.4462 0.530 -0.825 -0.196 162 127 123 0
-18.0812 26.8359 -31.2711 0.493 -0.583 0.646 144 103 101 0
-18.1578 27.3029 -31.3495 0.261 -0.704 0.661 140 95 95 0
-13.2185 26.7640 -30.9875 -0.389 -0.786 0.481 122 47 58 0
-10.8533 24.8466 -30.5512 0.498 -0.847 0.185 121 41 52 0
-10.6837 24.9703 -30.5613 0.481 -0.861 0.162 122 41 51 0
-10.4856 25.0525 -30.5632 0.694 -0.692 0.198 123 42 51 0
-10.2968 25.1483 -30.5678 0.277 -0.960 0.039 123 42 51 0
-8.1114 23.7672 -30.2265 0.211 -0.915 0.345 135 42 53 0
-5.4818 24.2490 -30.1557 0.302 -0.921 0.246 139 47 57 0
-5.2322 24.2380 -30.1400 0.260 -0.950 0.171 137 46 55 0
0.1155 25.2217 -29.9966 0.151 -0.959 0.238 142 63 76 0
0.2920 25.3207 -30.0025 0.509 -0.844 0.172 140 64 74 0
0.4658 25.4242 -30.0091 0.509 -0.844 0.172 139 65 74 0
0.5947 25.6077 -30.0310 0.421 -0.904 -0.076 140 69 77 0
4.2925 26.8377 -30.0190 -0.264 -0.953 -0.151 103 34 42 0
4.3507 27.1643 -30.0676 0.162 -0.966 0.201 100 32 39 0
5.9974 29.7790 -30.3899 0.527 -0.699 0.484 89 22 28 0
8.0660 32.1448 -30.6492 0.597 -0.575 0.560 78 25 29 0
8.7562 37.9177 -31.5258 0.855 -0.477 -0.202 71 16 25 0
10.2898 39.2777 -31.6556 0.667 -0.745 0.026 67 27 28 0
10.6730 41.8435 -32.0409 0.867 -0.496 -0.051 74 44 43 0
10.6736 43.0558 -32.2331 0.972 -0.232 0.026 84 56 53 0
10.8031 43.3343 -32.2700 0.955 -0.296 -0.007 88 60 57 0
10.8199 53.2022 -33.8335 0.726 -0.592 0.350 212 205 189 0
11.3149 53.2185 -33.8084 0.697 -0.632 -0.339 213 206 190 0
11.5470 53.2689 -33.8034 0.844 -0.529 -0.086 213 206 190 0
24.6243 37.4608 -30.5652 0.337 -0.835 0.436 210 205 193 0
27.3124 34.8789 -30.0053 -0.396 -0.916 0.061 208 201 193 0
24.7995 56.3645 -33.5524 0.463 -0.745 -0.480 204 194 184 0
25.0791 56.1523 -33.5031 0.423 -0.741 -0.522 204 194 184 0
31.9079 59.2888 -33.6181 0.857 -0.289 0.427 198 188 174 0
35.6639 62.1830 -33.8667 0.842 -0.422 -0.337 195 183 169 0
39.6013 74.4977 -35.5987 0.428 -0.025 0.904 186 172 160 0
46.7126 54.7586 -32.0712 0.934 -0.167 -0.316 178 165 150 0
-42.9347 6.8270 -29.7022 0.288 -0.891 -0.351 229 214 202 0
-42.8482 7.0029 -29.7255 0.215 -0.924 -0.317 229 216 206 0
-25.6181 32.9575 -32.9039 0.376 -0.670 -0.640 234 227 211 0
-22.7785 32.6928 -32.7000 0.394 -0.886 -0.245 160 125 121 0
-22.9617 33.3232 -32.8114 0.460 -0.864 -0.205 145 103 102 0
-10.8076 24.7614 -30.7488 0.541 -0.823 0.175 121 41 52 0
-8.2824 24.0057 -30.4842 0.181 -0.957 0.228 135 42 52 0
-5.9004 24.1262 -30.3681 0.827 -0.556 0.085 139 46 56 0
-2.7012 23.6184 -30.1049 0.788 -0.481 0.385 142 53 63 0
0.2393 24.9920 -30.1578 0.290 -0.884 0.367 143 67 79 0
0.6120 25.5645 -30.2283 0.442 -0.892 -0.100 147 77 85 0
4.1029 27.6354 -30.3616 -0.045 -0.876 -0.480 98 31 38 0
3.8159 29.0893 -30.6108 0.086 -0.983 -0.165 97 30 39 0
4.5824 29.3950 -30.6162 0.342 -0.753 0.562 91 25 33 0
4.8169 29.3852 -30.6013 0.351 -0.752 0.558 92 27 34 0
6.2964 30.0942 -30.6308 0.500 -0.713 0.492 88 21 28 0
8.1444 31.9671 -30.8257 0.680 -0.644 0.350 76 24 27 0
8.6201 32.4180 -30.8709 0.668 -0.718 0.196 74 20 26 0
9.8488 33.7378 -31.0125 0.859 -0.424 0.287 75 19 26 0
10.2072 33.4268 -30.9423 0.628 -0.760 -0.169 72 19 27 0
10.0761 42.7637 -32.4455 0.676 -0.686 -0.269 69 39 35 0
10.4577 42.3953 -32.3648 0.976 -0.218 -0.033 75 45 43 0
10.8111 43.3157 -32.4922 0.959 -0.281 0.032 86 58 57 0
10.2886 53.2890 -34.1196 0.801 -0.573 -0.172 209 202 184 0
11.5912 52.4355 -33.9088 0.245 -0.903 -0.354 212 205 189 0
11.0765 54.6302 -34.2897 0.395 -0.879 -0.269 213 206 190 0
11.3181 54.6610 -34.2809 0.543 -0.765 -0.347 213 206 190 0
12.1204 61.4704 -35.3261 0.583 -0.798 -0.156 213 205 192 0
12.1962 62.0465 -35.4141 0.552 -0.788 -0.271 213 205 192 0
20.8854 55.2641 -33.8336 0.794 -0.119 0.596 208 202 191 0
21.4501 54.0244 -33.6029 0.347 -0.414 0.841 209 201 191 0
23.7328 52.3051 -33.1977 0.672 -0.258 -0.695 210 198 193 0
24.4236 58.0065 -34.0717 -0.019 -0.876 -0.482 204 194 185 0
32.2841 58.4593 -33.6974 0.805 -0.002 0.593 197 187 175 0
32.4177 58.9718 -33.7719 0.832 -0.079 0.549 198 187 175 0
32.5691 59.3868 -33.8298 0.935 -0.347 0.077 199 186 174 0
40.0592 72.4003 -35.4887 0.796 -0.092 0.599 186 172 161 0
40.1792 73.4971 -35.6576 0.917 -0.032 0.397 186 172 162 0
41.8370 60.9279 -33.5498 0.875 -0.126 0.468 187 170 162 0
42.4579 76.2815 -35.9741 0.983 -0.135 -0.122 185 171 160 0
42.6251 77.0689 -36.0908 0.950 -0.235 -0.206 183 169 158 0
-21.0204 31.0907 -32.5768 0.276 -0.907 0.317 141 94 96 0
-16.4479 26.4155 -31.5561 -0.025 -0.975 0.219 128 69 76 0
-16.1540 26.3808 -31.5335 -0.171 -0.938 0.302 126 67 74 0
-13.9522 25.1733 -31.2110 0.859 -0.416 0.299 121 55 63 0
-13.5756 26.4858 -31.4017 -0.370 -0.685 0.628 117 46 54 0
-5.8970 24.1044 -30.5729 0.753 -0.627 0.198 141 46 57 0
-3.6669 23.6283 -30.3671 0.532 -0.846 -0.025 139 47 59 0
-3.5372 23.8040 -30.3881 0.503 -0.863 -0.048 140 48 60 0
-2.9927 23.6927 -30.3386 0.545 -0.835 -0.076 144 52 63 0
-2.0972 26.1649 -30.6871 -0.573 -0.766 -0.292 143 60 70 0
8.2079 31.8220 -31.0079 0.656 -0.576 0.488 74 24 27 0
8.5997 32.4592 -31.0884 0.671 -0.718 0.184 73 21 27 0
8.8449 33.9573 -31.3167 0.341 -0.937 -0.072 77 18 25 0
10.0923 33.6928 -31.2019 0.708 -0.673 -0.211 72 21 25 0
9.3596 37.0338 -31.7850 0.666 -0.607 0.433 70 18 25 0
10.0492 42.8331 -32.6838 0.674 -0.685 -0.276 70 40 37 0
10.7846 43.3864 -32.7309 0.956 -0.293 0.033 84 57 56 0
10.2928 53.2836 -34.3613 0.806 -0.565 -0.174 209 202 184 0
10.8808 52.3384 -34.1743 0.487 -0.847 0.211 208 201 183 0
10.0372 57.6283 -35.0793 0.213 -0.836 -0.506 212 205 189 0
14.9275 46.2593 -32.9568 0.999 -0.047 -0.020 212 206 190 0
24.8752 32.3564 -30.1322 -0.333 -0.938 0.096 212 206 193 0
21.6039 53.4702 -33.7385 0.445 -0.516 0.732 208 200 191 0
27.3361 35.5961 -30.5145 -0.355 -0.932 -0.065 208 201 190 0
21.6348 64.6865 -35.5522 -0.405 -0.914 0.012 206 196 189 0
32.9032 60.1170 -34.1621 0.255 -0.874 0.414 199 188 175 0
33.0901 66.0076 -35.1047 0.980 0.031 -0.195 199 187 173 0
39.7833 60.5871 -33.8410 0.565 0.157 0.810 189 176 161 0
40.2221 73.2222 -35.8608 0.934 -0.026 0.356 186 173 163 0
-23.0603 33.4079 -33.3088 0.361 -0.889 -0.283 147 103 104 0
-21.3016 31.4443 -32.8847 0.621 -0.780 0.078 141 93 96 0
-20.0083 30.0900 -32.5874 0.600 -0.786 0.146 134 85 88 0
-14.2835 25.9806 -31.5799 0.951 -0.306 0.052 123 53 66 0
-13.7685 25.6282 -31.4921 0.809 -0.328 0.488 121 49 63 0
-13.0100 25.2961 -31.3934 -0.233 -0.823 0.518 120 48 59 0
-4.3280 23.9048 -30.6570 0.052 -0.991 0.123 145 55 65 0
-3.5125 23.7490 -30.5838 0.527 -0.830 -0.182 139 49 60 0
-3.0435 23.7607 -30.5582 0.489 -0.858 -0.159 146 54 65 0
4.6795 25.6283 -30.4110 0.504 -0.785 -0.360 109 40 49 0
6.7679 30.0437 -31.0106 0.211 -0.766 0.607 84 21 26 0
8.1793 32.3808 -31.3101 0.443 -0.738 0.510 74 23 28 0
8.6045 32.4438 -31.2955 0.600 -0.769 0.220 72 21 28 0
8.6938 32.7514 -31.3405 0.483 -0.799 0.359 73 19 26 0
9.1078 32.3279 -31.2470 0.425 -0.892 0.153 72 15 22 0
8.6743 34.3426 -31.6019 0.268 -0.959 0.088 77 18 24 0
10.1098 42.6799 -32.8811 0.680 -0.669 -0.300 70 39 38 0
10.6833 43.0360 -32.9057 0.956 -0.293 0.033 78 52 51 0
10.8067 44.5761 -33.1503 0.535 -0.832 -0.144 94 70 70 0
8.5986 55.8604 -35.1249 0.973 0.227 0.032 202 195 177 0
10.8896 51.6215 -34.2975 -0.060 -0.986 0.158 208 201 183 0
11.1813 51.5002 -34.2606 -0.046 -0.979 0.198 208 201 182 0
11.6317 52.3345 -34.3706 0.372 -0.745 -0.554 209 202 186 0
11.8000 52.5645 -34.3983 -0.014 -0.887 -0.462 210 202 186 0
14.2117 46.9874 -33.3450 0.241 -0.854 0.460 212 204 188 0
15.2131 44.7458 -32.9198 0.990 -0.049 -0.135 212 205 189 0
26.0577 30.2682 -29.9168 0.141 -0.986 0.085 209 202 191 0
22.6656 50.3466 -33.3989 0.076 -0.088 0.993 209 200 192 0
22.3201 64.9627 -35.8092 -0.323 -0.946 0.009 204 195 186 0
24.9162 54.9936 -34.0269 -0.308 -0.948 0.083 204 195 185 0
24.3889 60.2582 -34.9186 0.119 -0.988 0.099 202 192 183 0
27.9322 57.8637 -34.3194 -0.292 -0.916 -0.277 196 190 178 0
43.2233 69.9597 -35.4013 0.767 -0.529 0.364 183 170 157 0
43.4087 70.4002 -35.4624 0.824 -0.484 0.294 182 169 156 0
46.7415 38.4197 -30.0376 0.091 -0.354 0.931 181 168 152 0
46.9203 55.2672 -32.7820 0.600 -0.664 -0.446 176 163 148 0
-22.7074 32.9142 -33.4457 0.554 -0.788 -0.269 146 102 103 0
-21.3086 31.4308 -33.1175 0.634 -0.762 -0.130 139 90 93 0
-19.7064 29.6622 -32.7300 0.185 -0.974 0.127 134 84 87 0
-19.2950 29.4845 -32.6762 0.150 -0.986 0.068 129 76 81 0
-15.6211 26.3420 -31.9386 -0.151 -0.906 -0.396 120 58 70 0
-4.7018 24.1008 -30.9188 0.371 -0.570 0.734 147 57 67 0
-4.2910 23.8301 -30.8497 0.051 -0.983 -0.174 141 52 62 0
-3.5300 23.7620 -30.7932 0.540 -0.824 -0.172 136 46 57 0
-3.0186 23.7052 -30.7534 0.460 -0.877 -0.138 150 59 70 0
-2.5540 26.1000 -31.1213 -0.086 -0.967 -0.241 143 60 68 0
-2.4915 26.8073 -31.2344 -0.586 -0.765 -0.269 145 66 73 0
7.0209 29.9809 -31.1928 0.621 -0.453 0.640 85 25 29 0
8.3909 31.4087 -31.3472 0.286 -0.953 -0.103 75 23 28 0
8.2237 32.2775 -31.5006 0.470 -0.735 0.489 73 20 28 0
8.6402 32.8675 -31.5733 0.664 -0.716 0.215 70 17 24 0
8.8562 32.8920 -31.5645 0.606 -0.727 0.324 71 15 21 0
8.9902 33.6183 -31.6765 -0.072 -0.734 0.675 75 16 22 0
10.8764 39.5527 -32.5446 0.761 -0.646 -0.056 68 30 37 0
11.2542 39.1835 -32.4611 0.517 -0.856 0.003 69 35 38 0
10.3233 42.7425 -33.1044 0.761 -0.557 0.332 71 43 41 0
10.6872 43.0274 -33.1298 0.935 -0.309 0.175 79 52 51 0
10.8014 43.3467 -33.1758 0.935 -0.309 0.175 88 62 62 0
10.7128 44.8255 -33.4253 0.825 -0.491 0.282 93 70 70 0
9.5638 51.1531 -34.5389 0.558 -0.801 -0.218 116 105 97 0
9.7810 51.2433 -34.5409 0.615 -0.772 -0.161 160 150 139 0
10.0060 51.3118 -34.5388 0.534 -0.824 -0.189 202 193 179 0
10.2225 51.4034 -34.5410 0.524 -0.838 -0.150 201 194 176 0
10.4203 51.5464 -34.5529 0.511 -0.837 -0.198 201 195 177 0
11.1029 50.3424 -34.3134 0.685 -0.651 -0.328 203 196 178 0
11.3042 50.4685 -34.3223 0.669 -0.677 -0.307 206 199 181 0
11.5342 50.5143 -34.3161 0.743 -0.577 -0.339 206 199 180 0
25.4328 31.8082 -30.3995 0.092 -0.972 0.218 208 202 190 0
27.8769 35.0586 -30.7910 -0.318 -0.947 0.037 205 200 188 0
22.3599 64.8316 -36.0372 -0.315 -0.949 0.009 204 195 187 0
24.3534 60.4502 -35.1949 0.038 -0.992 0.121 203 194 185 0
29.2824 59.1193 -34.6818 0.729 0.179 0.661 196 185 175 0
33.0063 59.6325 -34.5451 0.207 -0.755 0.622 196 186 174 0
43.2348 46.6872 -31.7983 0.617 -0.599 0.511 185 171 161 0
43.2469 69.8670 -35.6265 0.716 -0.548 0.432 181 170 155 0
47.8501 60.0322 -33.7282 0.225 -0.919 -0.323 176 157 142 0
-22.6236 32.7793 -33.6566 0.487 -0.828 -0.279 146 102 103 0
-21.2135 31.2809 -33.3215 0.517 -0.850 -0.101 137 90 92 0
-19.7342 29.6773 -32.9647 0.184 -0.975 0.121 135 84 87 0
-19.4082 29.6149 -32.9346 0.205 -0.978 0.024 129 76 81 0
-9.6091 25.9204 -31.7266 0.142 -0.835 -0.531 131 43 56 0
-2.0797 26.9107 -31.4374 -0.535 -0.813 -0.231 151 76 84 0
-1.6255 26.5417 -31.3484 0.484 -0.453 -0.749 150 75 85 0
4.3190 28.5167 -31.3191 -0.190 -0.929 -0.317 93 28 35 0
3.9536 29.6910 -31.5371 -0.349 -0.920 -0.177 94 25 35 0
5.6917 29.4330 -31.3891 0.715 -0.573 0.401 90 27 35 0
7.6292 30.1208 -31.3869 0.574 -0.815 0.078 83 26 30 0
8.1032 30.5549 -31.4307 0.454 -0.883 0.114 81 26 31 0
8.1883 30.8595 -31.4764 0.401 -0.892 0.210 78 24 29 0
8.3563 30.9845 -31.4872 0.429 -0.879 0.209 76 24 29 0
8.3911 31.4032 -31.5549 0.329 -0.941 -0.083 76 23 29 0
8.6169 31.4023 -31.5411 0.723 -0.664 0.190 73 20 28 0
8.7898 33.0376 -31.8035 0.552 -0.718 0.424 71 17 23 0
8.7433 37.9362 -32.6237 0.348 -0.871 -0.348 70 16 21 0
11.7061 36.8948 -32.2711 0.774 -0.541 0.330 67 28 36 0
11.4347 38.1481 -32.4966 0.820 -0.549 0.162 67 31 37 0
10.0431 42.8515 -33.3653 0.986 -0.165 0.012 69 38 39 0
10.5492 42.7732 -33.3217 0.800 -0.469 0.375 74 46 43 0
10.7085 42.9742 -33.3456 0.805 -0.456 0.380 79 52 50 0
10.8545 43.2108 -33.3763 0.819 -0.486 0.307 88 62 61 0
9.5431 50.5387 -34.6781 0.883 -0.442 -0.158 107 93 87 0
9.5683 51.1452 -34.7778 0.580 -0.782 -0.226 116 103 95 0
9.7777 51.2569 -34.7838 0.577 -0.785 -0.226 164 153 143 0
10.4902 51.3587 -34.7577 0.578 -0.798 -0.172 200 193 175 0
10.4455 54.2950 -35.2504 -0.130 -0.734 -0.666 205 199 181 0
10.7314 54.9249 -35.3382 0.568 -0.816 -0.107 207 199 181 0
11.1039 54.5830 -35.2587 0.611 -0.561 -0.558 208 200 183 0
11.2594 54.8637 -35.2961 0.626 -0.548 -0.555 208 200 184 0
25.4748 31.6771 -30.5694 -0.278 -0.946 -0.168 208 202 191 0
25.7364 31.4398 -30.5140 0.058 -0.993 0.098 208 202 190 0
25.9314 39.5567 -31.8565 0.436 -0.718 -0.542 208 198 193 0
27.5824 35.4727 -31.0755 -0.337 -0.940 -0.051 208 200 191 0
21.6907 63.5447 -36.1149 -0.246 -0.867 0.434 204 198 187 0
22.3468 64.9231 -36.3052 -0.079 -0.976 -0.205 204 194 187 0
35.8590 58.2046 -34.3686 0.834 0.098 0.543 197 185 173 0
36.0593 59.8309 -34.6279 0.655 -0.588 -0.474 197 183 172 0
36.4472 60.1618 -34.6597 0.596 -0.336 -0.730 197 183 170 0
36.6566 60.2157 -34.6560 0.983 -0.084 -0.164 196 184 170 0
36.9253 63.1174 -35.1240 0.895 -0.193 -0.401 191 179 163 0
43.2501 46.6635 -31.9969 0.524 -0.848 -0.075 184 171 161 0
46.4592 53.8784 -33.0070 0.928 -0.329 -0.173 178 165 149 0
-22.6247 32.3720 -33.8264 0.473 -0.874 -0.114 150 111 110 0
-22.5551 32.6648 -33.8715 0.448 -0.864 -0.230 145 101 102 0
-19.5451 29.7773 -33.2006 0.201 -0.970 0.134 129 76 81 0
-16.1009 26.2242 -32.3909 0.474 -0.880 -0.002 122 62 72 0
-7.7529 24.6196 -31.6093 0.166 -0.986 -0.026 135 43 56 0
-4.8267 23.5024 -31.2418 0.560 -0.617 0.553 136 46 56 0
-2.3734 23.7840 -31.1390 0.502 -0.849 -0.166 141 54 65 0
-2.4542 27.1258 -31.7071 -0.625 -0.768 0.141 149 72 80 0
0.0751 24.0009 -31.0256 0.360 -0.931 0.049 149 75 86 0
2.4842 26.7339 -31.3386 0.714 -0.679 0.171 124 61 69 0
2.5945 26.9589 -31.3698 0.742 -0.650 0.164 121 54 63 0
2.5163 27.5389 -31.4723 0.818 -0.505 0.276 116 49 58 0
1.8534 29.2265 -31.7973 0.955 -0.009 0.296 115 48 57 0
3.9520 29.6850 -31.7461 -0.456 -0.835 0.309 93 24 35 0
7.8919 31.9971 -31.8944 0.359 -0.880 0.312 73 21 26 0
8.4188 31.3371 -31.7509 0.367 -0.925 -0.093 74 21 27 0
8.9248 33.2421 -32.0409 0.207 -0.964 0.169 73 15 22 0
9.1354 33.2796 -32.0343 0.160 -0.969 0.185 73 13 21 0
9.3347 33.3421 -32.0327 0.164 -0.969 0.187 74 15 23 0
11.7271 36.8423 -32.4760 0.850 -0.476 0.224 66 28 33 0
10.7009 39.9951 -33.0701 0.927 -0.375 -0.007 67 31 35 0
10.0884 43.3455 -33.6722 0.932 -0.360 0.053 73 43 42 0
10.2086 43.6504 -33.7163 0.932 -0.360 0.053 75 47 44 0
10.8860 43.1308 -33.5872 0.819 -0.486 0.307 86 60 59 0
9.5619 51.1667 -35.0225 0.577 -0.785 -0.226 113 100 91 0
9.7580 51.3147 -35.0354 0.577 -0.785 -0.226 162 152 140 0
10.9003 55.1768 -35.6162 -0.651 -0.745 0.143 204 198 179 0
15.5318 60.4773 -36.2258 0.884 0.050 -0.465 206 202 190 0
27.4644 35.1892 -31.2336 -0.276 -0.935 0.225 207 198 191 0
25.0653 55.4388 -34.7929 -0.257 -0.964 0.069 201 193 184 0
25.2509 55.6267 -34.8132 0.035 -0.982 -0.183 201 192 183 0
33.0449 56.8927 -34.5492 0.253 -0.404 0.879 195 185 174 0
38.0788 34.3322 -30.4392 0.172 -0.974 -0.145 198 186 174 0
36.0259 57.1318 -34.4070 0.829 0.103 0.549 198 186 174 0
35.5707 63.3933 -35.4900 0.785 -0.268 -0.558 197 183 172 0
36.4163 60.4805 -34.9473 0.586 -0.720 -0.373 197 183 171 0
36.6393 60.4383 -34.9266 0.990 -0.074 -0.118 196 184 170 0
36.7019 61.5889 -35.1166 0.985 -0.076 -0.157 194 182 168 0
42.7212 48.3830 -32.5226 0.866 -0.185 0.465 185 173 161 0
43.3059 46.2130 -32.1211 0.706 -0.465 0.535 184 171 162 0
46.2558 54.2884 -33.3013 0.837 -0.262 -0.481 179 165 151 0
-43.5823 7.1525 -31.0744 0.291 -0.892 -0.346 232 216 204 0
-24.9494 31.9525 -34.1374 0.710 -0.626 -0.321 234 225 210 0
-23.0975 32.2064 -34.0656 0.437 -0.893 -0.105 167 142 137 0
-22.8763 32.2978 -34.0674 0.416 -0.901 -0.120 155 123 120 0
-22.4327 32.4786 -34.0706 0.400 -0.903 -0.154 143 98 100 0
-19.8663 29.8099 -33.4570 0.185 -0.957 0.225 135 84 87 0
-19.5679 29.7857 -33.4343 0.512 -0.778 0.363 130 76 82 0
-18.5924 29.2203 -33.2775 0.956 -0.274 0.109 125 65 75 0
-16.0594 26.1466 -32.5971 0.828 -0.418 0.373 122 62 72 0
-15.9447 26.3561 -32.6256 -0.073 -0.995 0.063 120 59 70 0
-15.6627 26.3367 -32.6048 -0.073 -0.995 0.063 119 57 68 0
-9.8030 25.7940 -32.1484 0.936 -0.341 -0.083 131 44 58 0
-9.9508 26.3955 -32.2600 0.431 -0.877 0.212 132 42 57 0
-2.5320 23.6408 -31.3303 0.465 -0.885 -0.014 133 47 60 0
-2.8681 27.8181 -32.0621 -0.529 -0.326 0.784 146 67 77 0
2.7218 28.4574 -31.8236 -0.481 -0.631 0.608 111 41 52 0
3.5335 27.3499 -31.5847 -0.265 -0.922 0.282 109 37 48 0
5.6834 28.9702 -31.7269 0.405 -0.788 0.464 91 28 36 0
5.9056 28.9809 -31.7149 0.559 -0.797 0.230 90 27 35 0
5.9149 29.4270 -31.7902 0.430 -0.853 0.297 87 24 32 0
7.6775 30.4887 -31.8614 0.341 -0.935 0.094 85 27 33 0
8.7655 31.5626 -31.9766 0.582 -0.799 0.148 73 20 26 0
8.8655 31.8422 -32.0180 0.699 -0.680 0.222 70 19 24 0
8.9141 33.2624 -32.2566 0.063 -0.997 0.044 69 12 21 0
9.1283 33.2919 -32.2484 0.144 -0.975 0.168 72 14 21 0
10.0857 42.7451 -33.7976 0.950 -0.235 0.205 69 37 38 0
10.1532 43.1812 -33.8677 0.913 -0.383 0.137 72 42 40 0
10.4709 43.5919 -33.9178 0.973 -0.209 0.094 79 52 49 0
10.8946 43.1106 -33.8096 0.822 -0.490 0.290 85 59 57 0
10.8460 43.8572 -33.9397 0.999 -0.025 0.043 89 64 65 0
9.7294 51.3970 -35.2922 0.551 -0.805 -0.220 162 154 140 0
10.4748 51.4123 -35.2485 0.267 -0.882 0.388 196 191 172 0
10.5667 55.4115 -35.9233 -0.190 -0.784 -0.591 194 196 177 0
10.9266 55.1090 -35.8495 -0.651 -0.745 0.143 196 196 177 0
23.8102 57.8365 -35.5133 0.194 -0.157 0.968 200 196 184 0
25.1199 55.2399 -34.9901 -0.315 -0.947 0.067 200 195 183 0
31.1286 39.7127 -31.9743 0.999 0.043 -0.020 200 192 181 0
30.8496 41.9767 -32.3770 0.990 0.124 0.070 199 190 181 0
32.2040 39.2346 -31.8262 -0.016 -0.601 0.799 195 185 176 0
36.1694 56.2197 -34.4704 0.833 0.101 0.544 197 185 173 0
36.2400 60.2745 -35.1560 0.404 -0.177 0.898 196 182 171 0
36.6376 60.5460 -35.1775 0.989 -0.082 -0.125 196 184 171 0
37.2522 65.9811 -36.0643 0.900 -0.196 -0.389 193 181 167 0
48.9150 59.3734 -34.2153 0.504 -0.739 -0.448 254 255 255 0
-43.6907 7.2068 -31.3051 0.291 -0.892 -0.346 235 217 206 0
-43.5712 7.3587 -31.3237 0.113 -0.938 -0.328 233 219 205 0
-24.8904 31.8526 -34.3560 0.761 -0.588 -0.275 234 225 210 0
-25.2291 32.6669 -34.5172 0.755 -0.580 -0.306 236 225 211 0
-24.7184 32.3890 -34.4373 0.485 -0.874 0.012 234 222 208 0
-22.8308 32.2142 -34.2884 0.245 -0.960 -0.132 155 123 120 0
-22.5928 32.2831 -34.2852 0.479 -0.853 -0.205 151 111 111 0
-22.3966 32.4072 -34.2942 0.495 -0.846 -0.199 149 104 105 0
-21.2925 31.3179 -34.0374 0.517 -0.850 -0.101 142 94 97 0
-19.7634 29.6494 -33.6543 0.181 -0.967 0.178 135 85 88 0
-19.4597 29.6178 -33.6298 0.460 -0.775 0.434 130 76 82 0
-18.5077 28.7086 -33.4136 0.810 -0.211 0.547 127 68 77 0
-18.2050 28.6728 -33.3883 0.849 0.025 0.528 126 66 76 0
-15.6432 26.2890 -32.8173 0.347 -0.626 0.698 119 57 68 0
-11.1363 24.0004 -32.1400 0.100 -0.991 -0.090 117 40 53 0
-9.8597 25.8603 -32.3792 0.870 -0.425 -0.251 130 43 57 0
-6.5898 23.5639 -31.7786 0.130 -0.885 0.447 133 41 54 0
-5.3968 23.6053 -31.7105 -0.320 -0.930 0.183 131 39 50 0
-1.6253 23.6881 -31.4871 0.081 -0.720 0.690 130 49 56 0
-2.5315 26.0051 -31.9424 -0.353 -0.414 0.839 132 51 60 0
-2.2875 26.8136 -32.0660 -0.525 -0.328 0.786 141 60 71 0
5.4959 27.5137 -31.6959 0.322 -0.920 -0.226 89 18 30 0
6.0753 29.5578 -32.0107 0.324 -0.862 0.390 84 20 28 0
6.4075 29.8123 -32.0335 0.237 -0.955 -0.177 80 17 25 0
7.4910 29.9158 -31.9830 0.521 -0.853 0.027 84 22 29 0
7.6778 29.9984 -31.9854 0.590 -0.806 0.052 82 22 28 0
7.6788 30.4799 -32.0681 0.346 -0.933 0.101 85 26 32 0
7.8556 30.5857 -32.0751 0.713 -0.699 0.057 78 21 27 0
8.9196 33.2460 -32.4653 0.108 -0.993 0.049 69 13 22 0
10.1333 42.6247 -34.0006 0.954 -0.152 0.260 70 38 38 0
10.0990 43.3209 -34.1224 0.928 -0.346 0.136 73 42 40 0
9.4876 51.3759 -35.5451 -0.105 -0.994 -0.030 109 101 88 0
9.7493 51.3475 -35.5238 -0.105 -0.994 -0.030 139 135 119 0
9.8629 51.7222 -35.5810 0.476 -0.804 -0.357 152 152 133 0
10.0683 51.8478 -35.5896 0.476 -0.804 -0.357 157 159 138 0
10.5086 51.3242 -35.4719 0.267 -0.882 0.388 160 162 140 0
10.9916 54.9299 -36.0611 -0.648 -0.747 0.145 185 194 172 0
30.8689 41.9238 -32.5737 0.988 0.126 0.088 198 189 180 0
31.7235 38.7787 -31.9794 0.330 -0.137 0.934 196 186 177 0
36.5429 49.5153 -33.5208 0.815 0.148 0.560 193 184 169 0
36.5480 61.3026 -35.5461 0.965 -0.099 -0.245 195 183 171 0
36.6028 62.5259 -35.7529 0.964 -0.093 -0.250 195 183 171 0
47.1916 51.9429 -33.2671 0.851 -0.080 0.519 176 162 151 0
-43.7836 7.2490 -31.5332 0.243 -0.905 -0.350 235 218 206 0
-43.6955 7.4258 -31.5583 0.113 -0.938 -0.328 234 220 206 0
-23.1621 32.2444 -34.5530 0.453 -0.857 -0.247 164 138 133 0
-22.8775 32.2525 -34.5362 0.235 -0.952 -0.197 155 121 119 0
-22.5917 32.2583 -34.5190 0.511 -0.780 -0.361 151 111 111 0
-22.4681 32.4792 -34.5494 0.293 -0.807 -0.513 152 108 109 0
-21.3133 31.3229 -34.2750 0.528 -0.843 -0.098 144 97 99 0
-19.7511 29.6106 -33.8781 0.181 -0.967 0.178 136 86 90 0
-18.6170 28.4608 -33.6061 0.921 -0.156 0.357 131 77 83 0
-18.3124 28.4227 -33.5800 0.903 -0.231 0.362 127 69 78 0
-15.8166 25.7738 -32.9610 0.428 -0.633 0.645 123 63 73 0
-9.7443 24.5430 -32.3595 0.591 -0.804 0.061 130 46 59 0
-9.5751 24.6666 -32.3701 0.591 -0.804 0.061 127 43 56 0
-9.9067 25.9120 -32.6074 0.867 -0.431 -0.252 127 39 53 0
-5.3747 23.9351 -31.9748 0.200 -0.962 -0.187 135 46 56 0
-5.1594 23.9786 -31.9686 0.200 -0.962 -0.187 139 51 63 0
-1.5895 27.2521 -32.3086 0.130 -0.953 -0.275 161 88 101 0
4.4186 27.3893 -31.9485 0.437 -0.768 -0.469 94 24 34 0
5.4427 27.6110 -31.9216 0.306 -0.913 -0.269 89 21 33 0
5.6675 27.6138 -31.9077 0.276 -0.916 -0.291 93 26 35 0
6.0898 29.0532 -32.1305 0.394 -0.919 0.013 86 21 29 0
6.3523 29.4482 -32.1823 0.354 -0.737 0.576 80 16 24 0
6.4061 29.8080 -32.2413 0.438 -0.868 0.233 79 16 24 0
7.4911 29.9092 -32.1895 0.521 -0.853 0.027 81 20 27 0
7.6438 30.5492 -32.2908 0.385 -0.919 0.087 79 19 27 0
8.0782 31.5726 -32.4406 0.423 -0.901 0.100 72 16 23 0
9.9924 43.5946 -34.4044 0.929 -0.247 0.274 74 44 42 0
10.1311 43.8542 -34.4406 0.927 -0.246 0.282 77 47 45 0
10.5046 51.3407 -35.7158 0.267 -0.878 0.397 118 128 103 0
9.5508 56.1236 -36.6066 -0.306 -0.797 -0.521 121 143 108 0
11.1116 54.5926 -36.2413 -0.653 -0.747 0.126 138 161 133 0
24.0147 54.1727 -35.3441 0.317 -0.471 0.823 205 196 187 0
31.1868 38.5928 -32.1825 0.996 0.032 -0.078 199 191 180 0
31.1471 39.7010 -32.3773 0.998 0.013 -0.065 200 190 180 0
38.2568 33.3746 -30.8254 -0.243 -0.970 0.017 196 185 173 0
36.6169 50.4588 -33.8946 0.830 0.149 0.538 194 185 168 0
36.5370 66.5065 -36.6843 0.960 -0.079 -0.267 195 183 169 0
46.8976 50.8436 -33.3046 0.720 -0.338 0.606 175 161 150 0
47.6155 58.4713 -34.5822 0.403 -0.910 0.100 178 159 144 0
-43.8199 7.4929 -31.7935 0.123 -0.939 -0.322 234 220 209 0
-30.3538 -1.3742 -29.3679 0.068 -0.871 0.487 237 227 219 0
-24.3757 30.7700 -34.6121 0.598 -0.758 -0.262 236 226 214 0
-22.6763 32.3471 -34.7783 0.501 -0.776 -0.383 151 111 110 0
-22.5827 32.6084 -34.8180 0.293 -0.807 -0.513 150 106 106 0
-19.6072 29.3953 -34.0624 0.205 -0.971 0.125 137 86 90 0
-9.7605 24.5486 -32.5756 0.423 -0.901 -0.098 126 42 57 0
-9.9447 25.9504 -32.8331 0.879 -0.419 -0.229 125 37 52 0
-9.5505 26.1238 -32.8379 -0.718 -0.690 0.088 129 40 53 0
-7.0776 24.2773 -32.3543 0.079 -0.511 0.856 132 40 52 0
-5.1921 24.0140 -32.1860 0.200 -0.962 -0.187 132 44 56 0
2.1016 27.8366 -32.3833 0.905 0.263 0.334 118 49 59 0
4.0697 28.0589 -32.2948 0.271 -0.806 -0.526 93 22 35 0
5.4268 27.6339 -32.1324 0.287 -0.916 -0.281 91 25 35 0
5.6286 27.6832 -32.1280 0.267 -0.917 -0.295 92 26 35 0
5.8265 27.7399 -32.1251 0.267 -0.917 -0.295 95 30 38 0
7.7481 28.8799 -32.2004 0.587 -0.722 0.367 77 15 22 0
7.4994 29.8851 -32.3926 0.574 -0.818 0.044 77 15 23 0
7.6495 30.5308 -32.4960 0.390 -0.916 0.089 77 17 26 0
8.1087 31.5006 -32.6362 0.423 -0.868 0.262 69 13 21 0
10.0888 51.8017 -36.0645 0.393 -0.918 0.056 102 118 91 0
10.5090 51.3340 -35.9553 0.251 -0.883 0.396 103 121 93 0
11.5264 54.1319 -36.3796 -0.633 -0.773 -0.035 104 137 103 0
27.1608 34.9345 -32.0038 -0.665 -0.619 0.418 205 197 191 0
31.1670 38.7229 -32.4080 0.996 0.032 -0.082 200 190 180 0
31.1284 39.8274 -32.6040 0.998 0.016 -0.061 200 190 179 0
31.0316 41.2271 -32.8555 0.996 0.078 -0.042 200 190 179 0
30.4498 45.9778 -33.7254 0.982 0.151 0.116 196 188 177 0
36.4298 57.6416 -35.3815 0.800 0.126 0.586 194 183 171 0
43.3345 40.8167 -31.9868 0.826 0.151 0.543 188 174 159 0
47.3972 59.1696 -34.9389 0.006 -0.934 -0.357 178 161 146 0
47.7337 56.5081 -34.4508 -0.208 -0.860 0.466 178 160 144 0
47.9236 60.5344 -35.1439 0.232 -0.919 -0.318 174 157 141 0
-43.9305 7.5490 -32.0265 0.116 -0.940 -0.321 231 218 208 0
-22.0998 31.5595 -34.8399 0.396 -0.805 -0.442 149 109 109 0
-22.5946 32.6010 -35.0566 0.359 -0.541 -0.761 146 102 103 0
-17.2589 26.5891 -33.6430 0.426 -0.704 0.569 132 79 85 0
-16.6658 27.2574 -33.7223 0.129 -0.551 0.824 123 63 73 0
-16.4385 27.3173 -33.7179 0.129 -0.551 0.824 120 58 68 0
-12.7154 23.6337 -32.8220 0.291 -0.941 0.174 118 46 60 0
-10.6973 24.0452 -32.7623 0.400 -0.806 -0.435 120 42 55 0
-9.3896 25.8642 -32.9982 -0.720 -0.612 0.327 126 38 50 0
-3.7012 22.7800 -32.0792 0.658 -0.751 0.062 138 48 58 0
-3.6355 23.0563 -32.1238 0.619 -0.774 0.130 136 45 55 0
-3.4634 23.1631 -32.1314 0.638 -0.752 0.165 135 45 56 0
4.4288 27.7966 -32.4327 0.321 -0.731 0.602 92 22 34 0
7.9013 29.0236 -32.4218 0.569 -0.696 0.438 76 13 22 0
7.7110 30.3925 -32.6764 0.484 -0.720 0.497 75 13 26 0
7.9517 30.3607 -32.6550 0.805 -0.549 0.227 73 13 23 0
8.1826 31.3333 -32.8118 0.484 -0.725 0.490 67 11 21 0
9.9472 33.4793 -33.0755 0.709 -0.578 0.405 70 17 22 0
9.8971 34.1245 -33.1929 0.732 -0.410 0.544 69 17 21 0
10.5206 51.3074 -36.1910 0.527 -0.767 0.367 91 117 86 0
10.0504 54.0168 -36.7011 0.176 -0.879 0.443 89 124 85 0
11.4590 54.3355 -36.6650 -0.628 -0.778 0.013 95 136 96 0
32.6770 30.8292 -31.1146 -0.169 -0.736 0.656 200 190 180 0
31.0740 40.1230 -32.8636 0.998 0.027 -0.053 199 190 179 0
41.9939 70.3160 -37.4867 -0.165 -0.857 0.488 182 172 156 0
46.4526 55.4256 -34.5604 0.513 -0.700 0.498 179 163 150 0
46.6106 59.2869 -35.2330 0.690 0.078 0.720 177 161 148 0
46.7220 60.8048 -35.4941 0.675 0.054 0.736 178 162 149 0
47.2076 59.3002 -35.1961 0.257 -0.964 -0.071 177 161 146 0
47.7545 56.4123 -34.6494 -0.172 -0.840 0.515 173 157 141 0
48.7690 59.7483 -35.1729 0.454 -0.772 -0.444 247 247 245 0
-42.8825 6.6940 -32.0204 0.875 -0.452 -0.176 228 215 205 0
-23.1436 32.5334 -35.3203 0.446 -0.840 -0.309 152 115 115 0
-22.1478 31.6000 -35.0874 0.810 -0.450 -0.376 148 107 108 0
-10.7211 23.6941 -32.9157 -0.335 -0.938 0.090 119 41 54 0
-10.2643 23.4017 -32.8330 -0.190 -0.943 0.272 119 41 54 0
-9.8135 25.3401 -33.1491 0.840 -0.542 -0.028 128 41 56 0
-4.6464 23.1223 -32.4094 0.002 -0.730 0.683 132 41 54 0
-3.5758 22.9452 -32.3065 0.609 -0.785 0.118 135 45 55 0
7.7754 30.2482 -32.8551 0.382 -0.827 0.411 72 10 22 0
10.6859 40.6265 -34.5144 0.965 -0.158 -0.210 72 35 37 0
9.6782 44.4020 -35.2555 0.971 -0.170 0.170 73 43 41 0
9.7613 44.8096 -35.3228 0.971 -0.170 0.170 76 47 44 0
8.9393 50.8357 -36.4533 0.645 -0.470 0.602 90 75 67 0
10.4290 52.2618 -36.6088 0.123 -0.832 0.540 83 119 81 0
10.1176 53.8353 -36.9105 -0.068 -0.986 -0.154 83 123 82 0
9.7548 55.5700 -37.2443 0.407 -0.902 0.147 83 126 82 0
9.9088 55.8615 -37.2861 0.345 -0.938 0.028 81 127 81 0
10.0224 56.2701 -37.3515 -0.012 -0.857 0.515 81 127 81 0
10.1021 56.7792 -37.4371 -0.523 -0.804 0.285 82 129 83 0
24.5912 55.7045 -36.2812 0.326 -0.837 0.439 201 193 182 0
32.5551 29.7570 -31.1187 -0.219 -0.975 0.028 200 190 180 0
32.5857 30.4463 -31.2398 -0.190 -0.699 0.689 198 190 179 0
38.5441 42.7314 -33.0367 0.395 0.112 0.912 190 181 170 0
44.8495 56.1313 -35.0095 0.558 -0.325 -0.763 181 168 153 0
45.3395 60.4842 -35.7541 0.904 -0.036 0.426 179 166 150 0
46.3075 54.8928 -34.6914 0.800 0.029 0.599 179 163 150 0
46.4755 55.3046 -34.7537 0.525 0.033 0.850 179 163 150 0
46.5897 56.6138 -34.9799 0.518 0.076 0.852 181 165 152 0
46.7031 57.9996 -35.2198 0.683 0.070 0.727 181 165 152 0
-22.4076 31.5383 -35.3312 0.832 -0.480 -0.279 151 114 114 0
-16.9897 28.0307 -34.3338 0.522 0.000 0.853 123 60 69 0
-11.6627 24.2904 -33.3006 0.681 -0.731 -0.052 117 40 52 0
-11.5756 24.5334 -33.3386 0.607 -0.795 -0.016 118 40 53 0
-9.6986 25.1515 -33.3234 0.542 -0.822 -0.175 130 44 57 0
-3.6052 22.9769 -32.5207 0.583 -0.805 0.109 133 40 52 0
-0.5142 26.1561 -32.8852 0.466 -0.851 -0.243 132 58 75 0
3.2688 27.3544 -32.8461 -0.446 -0.546 0.709 108 32 48 0
7.7990 30.1915 -33.0520 0.192 -0.921 0.339 71 9 22 0
8.0740 30.5730 -33.1022 0.247 -0.960 0.131 71 11 21 0
9.7658 44.7995 -35.5520 0.947 -0.238 0.216 75 47 43 0
8.9306 50.8620 -36.7008 0.534 -0.521 0.666 87 75 65 0
9.1650 50.9095 -36.6936 0.532 -0.271 0.802 85 81 66 0
8.7456 55.5098 -37.5509 0.852 0.102 0.514 82 113 76 0
11.2880 51.2640 -36.6143 0.842 -0.450 0.298 79 124 79 0
11.3699 51.7350 -36.6937 0.828 -0.432 0.356 77 124 78 0
28.3441 33.4231 -32.2492 -0.605 -0.533 0.592 204 195 186 0
24.7222 55.1857 -36.4153 0.250 -0.701 0.668 200 192 181 0
39.9055 73.5273 -38.6971 0.788 -0.217 -0.576 189 175 163 0
44.2691 58.6723 -35.7258 0.969 -0.195 -0.155 181 167 154 0
44.6073 59.5606 -35.8631 0.990 -0.111 -0.085 182 167 154 0
45.6541 62.1275 -36.2551 0.874 -0.024 0.485 177 164 148 0
47.4897 58.3380 -35.4484 0.472 -0.443 0.762 175 159 145 0
48.3547 60.9040 -35.8525 0.096 -0.941 -0.325 109 99 92 0
-22.5332 31.2994 -35.5341 0.829 -0.492 -0.264 157 128 123 0
-22.4556 31.5783 -35.5795 0.835 -0.484 -0.263 150 114 113 0
-22.0375 31.7901 -35.5895 0.804 -0.498 -0.324 145 98 104 0
-11.7985 24.0983 -33.4911 0.686 -0.286 0.669 118 42 52 0
-11.8193 24.8627 -33.6315 0.652 -0.758 0.020 120 43 53 0
-9.7877 25.2653 -33.5660 0.538 -0.816 -0.213 126 41 54 0
-7.2349 24.0708 -33.1743 0.682 -0.731 0.006 133 39 55 0
1.7485 24.6161 -32.6599 0.256 -0.662 0.705 125 55 66 0
5.9532 26.1056 -32.6436 0.532 -0.845 0.052 85 22 31 0
5.9157 27.5273 -32.9048 0.318 -0.917 0.242 81 18 26 0
6.3546 28.0101 -32.9626 0.023 -0.794 0.607 80 17 26 0
7.7355 30.3218 -33.2888 0.230 -0.972 0.053 72 11 23 0
8.0291 30.1759 -33.2422 0.095 -0.989 0.112 70 10 20 0
10.4474 35.5105 -34.0473 0.853 -0.493 -0.170 72 21 26 0
10.5346 40.4168 -34.9338 0.849 -0.353 0.393 74 34 34 0
9.7748 44.7779 -35.7789 0.917 -0.366 0.160 77 48 45 0
9.6522 47.6391 -36.3077 0.993 0.117 0.011 84 68 60 0
9.0270 50.6092 -36.8906 0.627 -0.529 0.572 84 74 63 0
9.2076 50.7991 -36.9128 0.627 -0.529 0.572 81 80 63 0
9.1864 51.5323 -37.0477 0.430 -0.330 0.841 77 82 60 0
9.3556 51.7579 -37.0771 0.469 -0.317 0.824 73 85 60 0
11.2319 52.8431 -37.1464 0.907 -0.278 0.315 75 121 75 0
11.4084 53.0556 -37.1730 0.922 -0.208 0.327 78 122 77 0
11.4603 55.8349 -37.6749 0.646 -0.540 0.540 80 126 81 0
11.4901 56.4978 -37.7935 0.699 -0.270 0.662 81 126 84 0
11.3424 57.6934 -38.0210 0.614 -0.320 0.722 81 127 87 0
11.4953 58.0053 -38.0673 0.492 -0.347 0.798 81 127 89 0
11.5338 59.4433 -38.3263 -0.252 -0.942 0.220 81 128 91 0
27.4737 56.2076 -36.6489 0.529 -0.790 0.311 196 188 177 0
39.3061 38.7454 -32.6645 0.479 0.072 0.875 189 180 168 0
39.7215 73.2164 -38.9061 0.728 -0.297 -0.619 191 174 165 0
39.9901 75.1723 -39.2435 0.780 -0.247 -0.575 188 172 162 0
42.7622 62.0905 -36.6747 0.420 -0.264 0.868 184 170 159 0
42.9136 62.7727 -36.7884 0.409 -0.283 0.867 185 169 159 0
47.3220 58.0901 -35.6356 0.791 -0.180 0.585 177 160 148 0
48.1685 60.9709 -36.1018 0.096 -0.941 -0.325 172 153 141 0
48.3675 60.9877 -36.0912 0.096 -0.941 -0.325 110 100 93 0
-22.5078 31.6238 -35.8295 0.835 -0.484 -0.263 150 114 112 0
-22.3590 31.8098 -35.8534 0.832 -0.491 -0.259 149 106 108 0
-22.1004 31.8506 -35.8430 0.836 -0.516 -0.187 145 98 104 0
-11.8735 24.5520 -33.7956 0.930 -0.351 0.112 118 42 52 0
-11.7656 24.7666 -33.8275 0.620 -0.784 0.033 119 43 53 0
-11.4219 25.0139 -33.8491 -0.110 -0.850 -0.515 120 43 53 0
-9.8237 25.3003 -33.7911 0.538 -0.816 -0.213 124 39 52 0
-1.0526 23.8122 -32.9111 0.499 -0.866 0.035 128 42 55 0
-0.8745 23.9082 -32.9164 0.276 -0.960 0.042 126 45 58 0
0.6871 24.0294 -32.8306 0.080 -0.988 0.130 123 44 58 0
5.8908 27.5690 -33.1203 0.283 -0.922 0.263 83 19 27 0
6.4260 27.8567 -33.1361 -0.016 -1.000 0.007 80 17 26 0
6.3391 28.4961 -33.2594 0.304 -0.890 -0.339 80 17 26 0
6.9651 27.6736 -33.0651 0.568 -0.765 -0.303 81 15 25 0
10.3552 35.7301 -34.3095 0.748 -0.660 -0.077 72 21 25 0
10.4992 35.9342 -34.3370 0.749 -0.659 -0.069 70 22 25 0
10.7072 35.9841 -34.3318 0.716 -0.575 0.397 70 24 26 0
10.5491 40.3808 -35.1498 0.889 -0.307 0.339 75 35 35 0
10.3524 42.0742 -35.4743 0.941 -0.119 0.318 71 38 37 0
9.5383 44.7635 -36.0243 0.953 -0.280 0.112 74 43 41 0
9.7712 44.7886 -36.0128 0.929 -0.340 0.144 77 48 45 0
9.6193 48.3802 -36.6826 0.993 0.118 0.027 82 69 58 0
9.1165 50.3746 -37.0835 0.799 -0.467 0.379 82 73 60 0
9.2471 50.6972 -37.1337 0.637 -0.495 0.591 79 79 61 0
9.1822 51.5476 -37.2943 0.585 -0.393 0.709 73 80 58 0
9.1220 54.4857 -37.8378 0.985 -0.163 -0.063 73 111 69 0
7.7654 58.9471 -38.7506 0.809 0.208 0.549 72 114 70 0
39.8146 56.3327 -36.0531 0.997 -0.080 -0.003 193 179 166 0
44.1470 58.0343 -36.0658 0.918 -0.384 -0.097 184 168 153 0
47.5934 56.9868 -35.6350 0.722 -0.291 0.627 174 158 149 0
-43.2648 6.8716 -32.9372 0.898 -0.439 -0.022 231 218 207 0
-22.5823 31.6986 -36.0870 0.840 -0.479 -0.254 151 116 114 0
-22.2167 31.9819 -36.1139 0.880 -0.450 -0.153 148 99 105 0
-14.4220 24.8104 -34.2391 0.540 -0.841 0.014 121 58 66 0
-10.4546 23.2357 -33.6694 -0.033 -0.973 -0.227 119 42 52 0
-11.3999 24.9632 -34.0556 -0.071 -0.884 -0.462 121 41 52 0
-10.2860 24.0925 -33.8163 0.879 -0.285 -0.382 120 40 51 0
-3.7136 23.1040 -33.1726 0.466 -0.875 0.131 137 46 58 0
0.4481 24.0288 -33.0523 0.115 -0.980 0.163 121 40 55 0
0.7081 23.9798 -33.0250 0.089 -0.986 0.143 120 41 54 0
0.9433 23.9732 -33.0073 0.098 -0.983 0.156 121 43 56 0
1.3251 23.7072 -32.9312 0.082 -0.801 0.593 124 47 60 0
5.1267 25.5082 -32.9984 -0.167 -0.952 -0.258 100 26 39 0
5.7554 27.3784 -33.3008 0.218 -0.924 0.314 85 22 29 0
5.8680 27.6063 -33.3352 0.145 -0.909 0.392 83 20 26 0
6.1972 27.8550 -33.3582 0.103 -0.990 0.101 80 17 25 0
6.7440 29.5275 -33.6297 0.880 -0.447 0.158 77 9 20 0
8.3752 31.8825 -33.9516 0.546 -0.659 0.518 64 9 15 0
10.2381 40.5710 -35.4306 0.585 -0.473 0.659 72 30 32 0
10.6267 40.1860 -35.3320 0.845 -0.381 0.376 73 33 36 0
10.1538 41.9754 -35.6967 0.811 -0.388 0.438 72 35 37 0
10.4106 41.9271 -35.6697 0.787 -0.326 0.524 72 39 39 0
9.5535 44.7257 -36.2482 0.953 -0.280 0.112 74 44 42 0
9.9386 45.6141 -36.3858 0.914 -0.374 0.157 81 62 54 0
9.0985 50.4257 -37.3360 0.712 -0.490 0.503 79 71 59 0
9.3727 51.7203 -37.5566 0.843 -0.401 0.359 72 85 60 0
9.0517 54.6841 -38.1282 0.984 -0.155 -0.083 72 108 66 0
14.2689 60.6104 -38.8604 0.933 0.271 0.235 83 131 90 0
28.2561 33.8461 -32.9221 -0.599 -0.604 0.525 203 196 186 0
26.9865 55.3932 -37.0027 0.322 -0.943 -0.080 199 189 179 0
39.7744 56.7997 -36.3671 0.995 -0.095 0.006 193 179 166 0
39.8154 58.2696 -36.6365 0.991 -0.120 0.052 193 179 165 0
43.0046 62.0683 -37.1167 0.302 -0.498 0.813 181 167 157 0
45.5110 65.0581 -37.4949 0.859 -0.235 0.454 178 164 151 0
46.8970 59.1654 -36.3062 0.949 0.053 0.310 176 162 149 0
47.5930 57.2943 -35.9108 0.746 -0.275 0.606 174 160 149 0
-43.8497 7.5471 -33.3204 0.893 -0.409 0.187 230 218 205 0
-22.7453 31.5077 -36.3017 0.955 -0.227 -0.191 156 128 122 0
-22.6332 31.7423 -36.3376 0.840 -0.479 -0.254 153 118 117 0
-17.4050 25.9264 -34.8794 0.639 -0.759 0.127 142 92 98 0
-14.4391 24.8133 -34.4608 0.572 -0.813 0.107 121 58 66 0
-11.4536 25.0214 -34.2878 0.003 -0.881 -0.474 121 41 52 0
-10.3292 24.1366 -34.0427 0.892 -0.291 -0.346 118 38 49 0
-3.7406 23.1316 -33.3872 0.486 -0.869 0.092 134 45 57 0
3.8154 25.8406 -33.3574 0.402 -0.896 0.187 112 32 44 0
4.0021 25.9189 -33.3588 0.405 -0.893 0.195 112 33 46 0
4.8106 26.9942 -33.5024 0.765 -0.629 -0.138 94 28 34 0
4.9837 27.1007 -33.5100 0.760 -0.648 -0.048 93 27 35 0
5.6116 27.6575 -33.5696 -0.078 -0.978 -0.195 89 27 32 0
6.1069 28.0302 -33.6041 -0.040 -0.935 -0.351 79 16 24 0
7.7582 28.3398 -33.5448 0.884 -0.341 0.319 77 12 24 0
7.8008 28.7227 -33.6133 0.769 -0.427 0.476 76 13 24 0
7.9302 28.9240 -33.6418 0.769 -0.427 0.476 73 12 21 0
7.8441 29.5870 -33.7718 0.703 -0.705 -0.096 70 8 19 0
7.4362 30.9465 -34.0549 0.219 -0.945 -0.244 69 8 19 0
8.4708 31.6661 -34.1160 0.549 -0.641 0.536 64 8 14 0
9.9870 40.0222 -35.5704 0.876 -0.454 -0.161 73 28 32 0
10.1449 40.2152 -35.5953 0.803 -0.536 -0.259 72 29 32 0
10.2021 40.6611 -35.6746 0.885 -0.456 -0.098 74 33 34 0
10.6719 40.0727 -35.5312 0.851 -0.378 0.363 74 35 35 0
10.2695 41.6835 -35.8609 0.183 -0.955 0.232 74 36 37 0
9.6251 44.5440 -36.4413 0.980 -0.197 -0.009 75 45 42 0
9.8270 44.6481 -36.4464 0.939 -0.344 0.016 76 48 44 0
9.1709 50.2367 -37.5377 0.843 -0.353 0.406 78 69 57 0
9.2937 52.6269 -37.9758 0.982 -0.160 0.105 73 98 64 0
9.3648 53.1278 -38.0644 0.981 -0.157 0.112 70 102 63 0
9.0927 54.5767 -38.3545 0.981 -0.175 -0.088 69 105 63 0
8.8426 58.1695 -39.0439 0.522 0.077 0.849 68 114 68 0
11.6207 55.3922 -38.3276 0.666 0.010 0.746 73 121 75 0
14.6045 59.5338 -38.8900 0.936 0.269 0.226 80 128 88 0
23.8661 47.8180 -36.0427 0.950 -0.130 -0.285 204 198 188 0
23.8699 48.6644 -36.2006 0.990 -0.018 -0.139 204 197 187 0
27.1811 53.5166 -36.8727 0.389 -0.807 -0.445 199 190 180 0
36.1075 51.7533 -35.9096 0.785 0.037 0.618 195 183 171 0
39.8557 31.2968 -31.8197 0.580 0.142 0.802 196 182 171 0
39.7068 57.5057 -36.7295 0.987 -0.147 0.071 192 178 165 0
39.8046 58.4858 -36.9057 0.988 -0.140 0.057 191 177 164 0
39.9257 59.2825 -37.0461 0.988 -0.140 0.057 189 177 161 0
43.3324 53.8098 -35.7813 -0.381 -0.456 0.804 181 169 157 0
43.6475 62.0798 -37.3048 0.599 -0.156 0.786 186 171 158 0
44.7449 61.3071 -37.0825 0.901 -0.169 0.401 182 167 154 0
46.9977 61.2216 -36.9067 0.883 -0.132 0.451 175 161 148 0
47.6237 57.0143 -36.0758 0.746 -0.275 0.606 175 161 149 0
-22.6842 31.7860 -36.5886 0.840 -0.479 -0.254 154 118 117 0
-17.8150 26.8172 -35.3015 0.634 -0.544 0.550 137 84 90 0
-14.4372 24.7901 -34.6765 0.413 -0.909 -0.052 122 58 66 0
-10.1454 23.8509 -34.1909 0.813 -0.484 -0.325 119 39 50 0
3.7456 25.5316 -33.5098 0.671 -0.739 0.056 114 32 44 0
4.0111 25.8915 -33.5586 0.401 -0.893 0.205 129 49 62 0
4.7652 27.0735 -33.7273 0.748 -0.647 -0.148 96 28 36 0
4.8192 27.4145 -33.7878 0.784 -0.619 -0.053 93 26 35 0
4.8978 27.7093 -33.8378 0.784 -0.617 -0.068 92 26 34 0
6.1098 28.0161 -33.8085 0.211 -0.940 -0.269 82 19 27 0
6.3837 28.3815 -33.8578 0.779 -0.600 0.182 81 18 27 0
7.8520 29.5640 -33.9753 0.807 -0.586 0.077 71 8 19 0
7.9594 29.8167 -34.0152 0.739 -0.629 0.240 69 7 18 0
8.6107 30.3583 -34.0706 0.841 -0.505 0.194 67 5 16 0
9.2796 33.9497 -34.6999 0.415 -0.910 -0.016 65 15 21 0
9.5157 33.9319 -34.6796 0.412 -0.886 -0.214 66 15 22 0
9.0527 35.5392 -35.0160 0.564 -0.795 -0.221 66 15 22 0
9.3878 35.2960 -34.9461 0.654 -0.680 -0.332 67 16 23 0
10.1785 36.1489 -35.0501 0.604 -0.753 -0.261 73 22 27 0
9.0994 53.1597 -38.3361 0.988 -0.116 -0.103 71 97 61 0
9.1409 53.7450 -38.4435 0.988 -0.119 -0.104 67 102 61 0
8.0889 58.0702 -39.3349 0.946 -0.320 -0.053 67 107 63 0
9.0335 57.6392 -39.1857 0.540 0.085 0.838 68 113 68 0
27.1194 53.8368 -37.1690 0.258 -0.831 -0.493 198 189 180 0
27.0300 55.2754 -37.4467 0.560 -0.567 -0.604 198 189 179 0
27.1186 55.9137 -37.5608 0.355 -0.928 -0.114 197 188 179 0
36.0470 50.8648 -35.9669 0.766 -0.010 0.643 194 182 170 0
39.6967 57.7128 -36.9963 0.988 -0.146 0.059 192 178 165 0
40.7199 54.0915 -36.2398 -0.270 -0.963 0.001 189 177 161 0
45.3839 50.1544 -35.1620 -0.355 -0.844 0.402 181 165 152 0
47.0335 60.8731 -37.0652 0.882 -0.120 0.456 175 161 148 0
48.2195 61.3052 -37.0615 0.095 -0.938 -0.333 172 158 142 0
-44.2459 7.7968 -33.8314 0.879 -0.387 0.279 230 217 207 0
-23.1579 32.3869 -36.9768 0.793 -0.609 -0.025 155 120 117 0
-22.6272 32.0713 -36.8781 0.970 -0.192 -0.152 152 108 111 0
-13.7876 23.8765 -34.6757 0.740 -0.672 0.027 122 58 66 0
-10.1956 23.5370 -34.3498 0.849 -0.447 -0.283 119 39 52 0
-10.3209 24.0870 -34.4635 0.778 -0.548 -0.306 120 40 51 0
-3.6252 23.2998 -33.8267 0.919 -0.393 0.035 131 41 55 0
2.9726 24.8351 -33.6389 0.585 -0.657 0.476 112 35 50 0
3.4333 25.2513 -33.6846 0.345 -0.932 -0.113 109 27 42 0
3.5932 25.3790 -33.6972 0.671 -0.739 0.056 114 32 44 0
4.8006 26.1109 -33.7487 -0.125 -0.992 -0.018 103 28 40 0
4.6629 26.8191 -33.8935 0.633 -0.766 -0.107 100 27 38 0
4.6901 27.6586 -34.0512 0.356 -0.829 -0.431 93 25 36 0
6.9885 26.6790 -33.6976 -0.058 -0.944 0.324 81 18 27 0
8.6291 30.3126 -34.2697 0.841 -0.505 0.194 67 6 17 0
10.2155 34.4244 -34.9368 0.310 -0.951 -0.006 70 18 26 0
9.5301 39.4055 -35.9345 -0.073 -0.703 -0.707 71 25 28 0
10.3378 40.3219 -36.0502 0.818 -0.570 -0.078 72 31 32 0
8.9324 53.6184 -38.6827 0.887 -0.160 -0.432 68 97 59 0
15.4319 49.1668 -37.3628 -0.209 -0.955 0.210 71 123 75 0
26.5904 55.2477 -37.7082 0.459 -0.627 -0.630 199 190 181 0
26.8302 55.1917 -37.6801 0.400 -0.618 -0.678 198 190 179 0
27.0278 55.3266 -37.6914 0.505 -0.513 -0.694 198 190 179 0
43.8266 38.7164 -33.3085 0.897 -0.322 0.303 185 173 159 0
42.5884 55.7159 -36.6336 0.360 -0.875 0.324 184 172 158 0
42.8397 55.1737 -36.5121 -0.188 -0.767 0.614 183 171 157 0
42.7591 76.3591 -40.5495 0.065 -0.992 -0.112 183 168 155 0
45.1254 51.2559 -35.6003 -0.534 -0.663 0.525 182 166 153 0
46.6814 50.6697 -35.3755 0.322 -0.881 -0.346 178 165 151 0
-49.6344 9.9361 -34.8573 -0.022 -0.978 -0.208 255 255 255 0
-44.2265 7.7504 -34.0394 0.877 -0.386 0.285 230 217 207 0
-23.4662 32.3836 -37.2399 0.835 -0.549 -0.026 160 135 126 0
-23.1706 32.3801 -37.2175 0.793 -0.609 -0.025 154 120 117 0
-23.1734 32.7704 -37.2926 0.743 -0.651 -0.157 149 105 107 0
-17.5043 25.9934 -35.5741 0.281 -0.838 0.467 143 93 97 0
-16.4507 25.6716 -35.4347 -0.013 -0.960 0.281 130 77 82 0
-16.2579 26.5092 -35.5814 0.705 -0.563 0.431 125 65 73 0
-11.8722 25.1932 -35.0058 0.171 -0.690 -0.704 117 38 52 0
-6.2769 23.2575 -34.2221 0.532 -0.512 0.675 127 39 52 0
-2.2528 23.7722 -34.0247 0.584 -0.800 0.140 128 42 53 0
-2.1044 23.9202 -34.0421 0.590 -0.796 0.135 127 42 53 0
-1.9348 24.0332 -34.0513 0.591 -0.791 0.161 132 45 57 0
-1.6804 24.0045 -34.0271 0.540 -0.808 0.235 128 42 55 0
-0.3901 23.4144 -33.8188 0.613 -0.789 0.041 113 36 47 0
0.9755 23.8660 -33.8049 0.341 -0.916 0.213 114 38 56 0
