ply
format ascii 1.0
element vertex 832
property float x
property float y
property float z
property float nx
property float ny
property float nz
property uchar diffuse_red
property uchar diffuse_green
property uchar diffuse_blue
property uchar class
end_header
-19.4156 31.0645 -28.5527 0.413 -0.551 0.725 124 77 77 0
-18.4405 30.4067 -28.4384 0.386 -0.490 0.781 123 68 71 0
-16.2229 28.2479 -28.0766 -0.177 -0.638 0.749 120 58 63 0
-15.4979 27.5372 -27.9576 -0.041 -0.791 0.610 117 55 60 0
-8.4054 24.9445 -27.4641 0.636 -0.748 0.191 129 49 56 0
-8.3130 25.1914 -27.5009 0.653 -0.718 0.242 132 50 58 0
-4.6320 25.3870 -27.4820 0.334 -0.926 0.178 135 48 56 0
-4.4503 25.4806 -27.4940 0.330 -0.925 0.187 139 52 60 0
-4.2143 25.4762 -27.4902 0.530 -0.765 0.366 141 56 63 0
4.2189 30.6700 -28.1773 0.560 -0.704 0.436 111 43 38 0
4.3599 30.8619 -28.2049 0.625 -0.522 0.581 111 45 38 0
4.4970 31.0637 -28.2342 0.679 -0.461 0.571 105 41 32 0
6.3574 34.7178 -28.7718 0.110 -0.985 -0.137 104 36 31 0
6.5608 34.7783 -28.7784 0.111 -0.985 -0.135 102 34 30 0
6.7099 34.9734 -28.8064 0.138 -0.972 -0.187 106 38 34 0
6.8706 35.1408 -28.8301 0.668 -0.629 -0.398 109 41 37 0
8.8318 44.8422 -30.2971 0.958 -0.284 0.040 72 42 40 0
9.0760 44.8256 -30.2913 0.600 -0.781 0.175 73 45 42 0
9.2963 44.8769 -30.2962 0.501 -0.832 0.238 78 50 47 0
9.5817 44.7383 -30.2711 -0.163 -0.987 -0.006 81 53 50 0
9.8694 48.1393 -30.7907 -0.084 -0.838 -0.539 129 113 105 0
9.8889 48.8124 -30.8940 -0.073 -0.952 -0.296 161 147 136 0
10.6587 48.6783 -30.8632 -0.102 -0.928 -0.358 216 205 191 0
11.2692 49.7908 -31.0263 0.457 -0.887 0.064 217 210 192 0
19.4370 34.5107 -28.5658 -0.094 -0.751 0.653 220 213 197 0
19.6491 34.4887 -28.5596 -0.104 -0.795 0.598 220 213 199 0
19.8600 34.4698 -28.5538 -0.067 -0.815 0.576 219 211 198 0
30.6491 38.9866 -29.1054 0.979 0.081 0.185 207 198 181 0
31.2075 43.9951 -29.8688 0.898 -0.398 -0.185 207 193 182 0
34.5429 47.4735 -30.3597 -0.078 -0.974 -0.214 202 189 176 0
34.7467 47.4559 -30.3543 -0.078 -0.974 -0.214 201 187 174 0
43.0513 31.1973 -27.7414 -0.406 -0.904 0.133 189 177 161 0
43.2110 31.2754 -27.7513 -0.395 -0.879 0.268 188 175 159 0
47.3958 48.4990 -30.3465 0.945 -0.239 -0.223 177 160 146 0
49.0217 52.7350 -30.9768 0.279 -0.851 -0.445 246 246 246 0
49.2097 52.8189 -30.9872 0.261 -0.858 -0.442 254 255 255 0
49.5857 53.0031 -31.0105 0.253 -0.858 -0.447 255 255 254 0
-24.1580 30.3907 -28.7428 -0.364 -0.898 -0.248 232 225 214 0
-23.8917 30.4054 -28.7413 0.015 -0.998 0.055 233 225 214 0
-23.5587 30.3264 -28.7243 -0.002 -0.996 0.090 233 225 214 0
-22.4552 29.9338 -28.6477 0.757 -0.580 -0.300 231 222 211 0
-22.1563 30.2845 -28.6980 0.426 -0.889 -0.170 228 222 207 0
-23.8071 33.0303 -29.1485 0.244 -0.925 -0.291 227 221 205 0
-16.4415 28.5465 -28.3470 -0.141 -0.824 0.549 118 56 61 0
-15.8862 28.0961 -28.2691 -0.240 -0.831 0.501 117 53 58 0
-13.4980 25.9924 -27.9080 0.392 -0.635 0.666 117 44 53 0
-12.9624 26.3303 -27.9531 0.467 -0.541 0.699 121 45 54 0
-8.4759 25.0319 -27.6877 0.741 -0.665 -0.094 130 49 56 0
-6.2904 24.9655 -27.6466 0.028 -0.783 0.622 133 45 59 0
4.1138 30.3747 -28.3414 0.645 -0.371 0.668 100 32 31 0
4.3029 30.4567 -28.3515 0.635 -0.401 0.660 106 40 37 0
4.5742 30.8642 -28.4111 0.670 -0.485 0.562 103 39 34 0
6.5730 34.7260 -28.9837 0.203 -0.647 0.735 97 29 30 0
6.6948 34.9889 -29.0229 0.399 -0.795 0.456 98 30 30 0
7.2836 35.2248 -29.0513 0.346 -0.885 -0.311 99 33 34 0
7.7410 35.7967 -29.1338 0.241 -0.954 -0.179 97 29 32 0
7.9809 35.7638 -29.1253 0.227 -0.953 -0.200 92 26 28 0
8.4527 35.1281 -29.0198 0.179 -0.808 0.561 91 25 29 0
8.6610 35.1716 -29.0236 0.179 -0.808 0.561 87 24 26 0
8.8775 35.1933 -29.0239 0.245 -0.785 0.568 86 24 27 0
9.0375 35.3630 -29.0481 0.665 -0.730 -0.158 89 27 30 0
10.3520 45.2431 -30.5667 0.961 -0.180 0.210 102 80 77 0
9.8684 48.8568 -31.1358 -0.201 -0.970 -0.138 146 134 122 0
10.1295 48.8009 -31.1234 -0.201 -0.970 -0.138 189 177 163 0
10.3845 48.7614 -31.1137 -0.202 -0.970 -0.135 213 202 188 0
11.0896 50.3429 -31.3498 0.266 -0.892 -0.366 217 210 192 0
11.6485 50.8869 -31.4266 0.028 -0.766 -0.643 219 212 196 0
18.6584 34.3334 -28.7521 0.229 -0.948 0.222 217 214 197 0
19.4907 34.3116 -28.7370 -0.091 -0.751 0.654 218 212 196 0
26.1093 26.8898 -27.4888 0.241 -0.873 -0.424 214 205 196 0
26.2815 26.9400 -27.4942 0.241 -0.873 -0.424 213 205 195 0
34.2551 48.1739 -30.6855 0.033 -0.950 -0.311 202 189 175 0
43.8794 47.9108 -30.5088 0.099 -0.835 -0.542 187 171 161 0
44.0682 47.9065 -30.5054 0.209 -0.810 -0.548 185 171 160 0
44.2517 48.0117 -30.5192 0.212 -0.812 -0.544 185 171 159 0
44.4368 48.0819 -30.5275 0.205 -0.797 -0.568 186 171 158 0
44.6290 47.9848 -30.5097 0.205 -0.807 -0.553 185 171 158 0
-41.5219 6.9551 -25.5467 0.087 -0.992 -0.088 228 214 196 0
-42.7420 8.2593 -25.7700 0.112 -0.766 -0.633 229 215 200 0
-42.9750 10.4996 -26.1258 0.245 -0.690 -0.681 231 218 199 0
-15.8696 28.0377 -28.4801 -0.269 -0.919 0.289 118 52 58 0
-14.9892 27.8721 -28.4409 -0.440 -0.788 0.431 118 45 52 0
-6.2512 24.8686 -27.8383 0.038 -0.780 0.625 131 43 57 0
-3.9739 24.9858 -27.8228 0.368 -0.842 0.396 134 47 56 0
-3.7562 25.0121 -27.8237 0.571 -0.697 0.434 137 51 61 0
0.8215 28.1625 -28.2509 0.374 -0.923 0.086 121 49 54 0
4.2470 30.5590 -28.5767 0.184 -0.547 0.816 102 37 36 0
4.5460 30.9047 -28.6267 0.445 -0.524 0.726 100 36 35 0
4.7611 30.9289 -28.6273 0.460 -0.518 0.721 96 32 33 0
7.4604 35.9106 -29.3705 0.267 -0.931 -0.249 95 28 30 0
8.3886 34.6911 -29.1649 0.399 -0.613 0.682 91 25 27 0
8.5508 34.8529 -29.1879 0.428 -0.612 0.665 90 24 28 0
10.3213 43.9202 -30.5876 0.995 -0.074 0.066 93 66 66 0
10.3742 45.1594 -30.7817 0.956 -0.195 0.220 102 80 78 0
8.6582 52.5062 -31.9627 0.966 0.142 0.217 138 127 115 0
8.4457 54.6919 -32.3096 0.968 0.136 0.212 209 200 185 0
12.3092 52.7026 -31.9391 0.392 -0.708 -0.588 221 212 197 0
19.0308 41.2838 -30.0431 0.436 -0.708 -0.556 214 210 195 0
17.5789 50.0786 -31.4479 0.522 -0.619 -0.587 216 209 198 0
25.0695 46.7799 -30.8175 0.535 -0.510 -0.674 209 201 189 0
42.9823 32.4613 -28.2986 -0.501 -0.822 -0.271 187 174 158 0
43.1523 32.4107 -28.2881 -0.521 -0.846 -0.114 188 175 159 0
43.8605 48.4641 -30.8023 0.182 -0.960 -0.213 185 171 161 0
44.6280 48.2054 -30.7502 0.210 -0.793 -0.572 185 171 158 0
47.7530 50.3779 -31.0453 0.198 -0.876 0.440 177 162 144 0
-41.4043 6.8158 -25.7282 -0.121 -0.973 -0.196 228 214 198 0
-43.4156 9.5649 -26.1967 -0.261 -0.844 -0.468 233 217 202 0
-31.8376 3.3658 -25.0296 -0.329 -0.914 -0.237 231 219 205 0
-31.4032 3.4431 -25.0350 0.212 -0.751 -0.625 231 219 205 0
-30.9641 3.2746 -25.0014 -0.259 -0.827 -0.500 234 218 205 0
-21.8471 29.3882 -29.0091 0.532 -0.828 0.178 230 222 209 0
-24.3780 33.3699 -29.6817 0.024 -0.995 -0.096 229 221 208 0
-10.0936 25.6388 -28.2286 0.365 -0.849 -0.383 126 43 53 0
-9.9024 25.7258 -28.2394 0.365 -0.849 -0.383 129 46 56 0
-9.6519 26.1174 -28.2977 0.778 -0.399 0.486 135 49 58 0
-9.2200 26.2106 -28.3057 0.787 -0.405 0.466 135 49 58 0
-6.3488 25.0083 -28.0695 -0.164 -0.888 0.429 131 43 55 0
-4.3448 24.7881 -28.0031 0.525 -0.844 0.107 137 50 59 0
-3.4158 26.9276 -28.3286 -0.405 -0.896 -0.182 139 53 62 0
1.1663 27.4312 -28.3367 0.469 -0.692 0.548 124 51 58 0
10.4629 44.8776 -30.9639 0.892 -0.304 0.333 101 79 77 0
8.7693 52.1514 -32.1467 0.968 0.133 0.211 132 121 109 0
8.6634 53.2350 -32.3206 0.968 0.140 0.209 157 148 133 0
8.5438 54.3730 -32.5034 0.967 0.140 0.211 202 193 178 0
11.5747 48.0195 -31.4459 -0.085 -0.996 -0.040 213 206 190 0
11.2154 50.6839 -31.8750 0.260 -0.912 -0.318 215 208 193 0
11.4575 50.6879 -31.8719 0.226 -0.839 -0.496 216 208 196 0
12.2643 52.8377 -32.2009 0.398 -0.721 -0.567 218 209 194 0
12.7189 52.9549 -32.2124 0.700 -0.440 -0.562 217 211 195 0
18.9726 34.6565 -29.2056 0.531 -0.688 0.494 215 212 196 0
17.2493 50.4357 -31.7408 0.403 -0.718 -0.568 216 208 197 0
24.1512 32.6230 -28.8010 0.956 0.146 0.255 215 205 196 0
23.8204 56.1519 -32.5463 0.957 0.185 0.225 207 199 188 0
29.9908 37.2415 -29.4435 0.310 -0.888 0.340 209 198 184 0
33.4790 52.6321 -31.8351 0.032 -0.930 -0.366 200 188 174 0
33.8718 52.8643 -31.8659 0.094 -0.905 -0.416 200 187 173 0
42.5531 33.9576 -28.7243 -0.466 -0.769 0.437 191 175 160 0
42.7292 33.8611 -28.7062 -0.466 -0.769 0.437 189 175 159 0
43.8659 48.5181 -31.0181 0.185 -0.960 -0.210 184 170 161 0
44.4452 48.2672 -30.9691 0.211 -0.796 -0.568 184 171 157 0
44.6372 63.1649 -33.3342 0.972 -0.176 0.155 184 169 156 0
46.2260 39.3248 -29.5197 0.990 -0.107 0.088 174 162 146 0
47.5833 49.9291 -31.1840 0.696 -0.533 0.480 176 161 144 0
49.0500 53.1849 -31.6785 0.296 -0.843 -0.448 247 247 245 0
-41.0003 4.5063 -25.5558 0.573 -0.752 -0.327 255 255 255 0
-42.1597 6.9377 -25.9655 0.334 -0.887 -0.320 229 212 197 0
-41.5584 6.9112 -25.9513 -0.089 -0.976 -0.198 229 215 198 0
-43.5506 9.3895 -26.3823 0.586 -0.477 0.655 232 215 200 0
-43.1374 9.7931 -26.4403 0.586 -0.451 0.673 232 213 199 0
-32.7138 4.3820 -25.3991 0.227 -0.869 0.440 231 219 205 0
-32.4413 4.3725 -25.3931 -0.402 -0.870 0.284 231 219 205 0
-23.2382 31.3211 -29.5703 0.641 -0.744 0.187 230 222 209 0
-24.3679 33.3188 -29.9098 0.013 -0.997 -0.074 230 220 208 0
-13.3167 25.2289 -28.4279 0.437 -0.779 0.449 120 49 55 0
-13.1299 25.3265 -28.4405 0.482 -0.762 0.432 123 50 57 0
-12.7113 25.0638 -28.3914 0.403 -0.905 0.139 127 52 59 0
-12.2322 25.8721 -28.5134 -0.030 -0.999 0.036 122 47 54 0
-12.0099 25.9138 -28.5164 -0.021 -0.999 0.026 122 46 53 0
-11.9784 26.2588 -28.5713 0.754 -0.546 0.364 123 45 53 0
-11.3480 26.0450 -28.5266 -0.335 -0.914 -0.229 121 42 48 0
-9.9208 25.7251 -28.4516 0.586 -0.806 -0.084 128 45 55 0
-9.8590 26.0251 -28.4988 0.594 -0.663 0.455 132 47 57 0
-9.6554 26.0926 -28.5063 0.750 -0.559 0.352 133 47 57 0
-8.6619 24.8506 -28.2904 0.708 -0.676 0.206 132 44 56 0
-4.6771 24.9362 -28.2384 0.314 -0.893 0.324 135 48 57 0
-4.3620 24.7905 -28.2098 0.177 -0.834 0.523 136 49 58 0
-3.5977 26.8024 -28.5204 -0.195 -0.980 0.036 139 53 61 0
-3.4456 26.9551 -28.5424 -0.433 -0.887 -0.159 141 55 64 0
0.4472 27.0206 -28.4887 0.375 -0.922 0.101 121 36 47 0
0.6389 27.0927 -28.4971 0.362 -0.928 0.087 129 47 57 0
8.6311 54.0871 -32.7016 0.969 0.142 0.204 195 186 169 0
8.5117 55.2355 -32.8881 0.969 0.139 0.202 210 201 185 0
11.1032 49.4858 -31.9217 0.235 -0.972 -0.014 212 205 189 0
11.2091 50.6880 -32.1130 0.264 -0.893 -0.365 215 207 195 0
9.6701 56.3992 -33.0559 0.969 -0.225 0.102 216 208 197 0
12.5872 50.1471 -32.0034 0.470 -0.831 -0.297 217 211 195 0
12.4801 52.9209 -32.4508 0.711 -0.493 -0.501 217 210 194 0
12.6434 53.1957 -32.4922 0.712 -0.496 -0.496 217 211 196 0
19.0864 34.2514 -29.3427 0.580 -0.693 0.428 216 210 196 0
12.4004 60.0899 -33.6037 0.578 -0.608 0.544 215 211 195 0
12.4558 60.8022 -33.7172 0.488 -0.615 0.619 215 212 195 0
12.8655 60.2526 -33.6222 0.442 -0.563 0.699 215 211 196 0
13.3010 59.6008 -33.5103 0.270 -0.534 0.801 215 209 195 0
23.5950 50.6609 -31.9044 0.852 -0.256 -0.457 211 202 192 0
22.1534 66.8803 -34.5336 0.965 0.173 0.197 207 199 188 0
30.1992 37.1691 -29.6281 0.241 -0.787 0.567 207 198 183 0
30.3524 37.3952 -29.6619 0.288 -0.777 0.559 206 197 182 0
35.9628 60.9884 -33.3593 -0.342 -0.937 -0.076 197 184 168 0
44.2865 61.6400 -33.3267 0.973 -0.201 0.117 184 170 157 0
47.5877 50.2248 -31.4385 0.755 -0.644 0.124 175 161 142 0
47.9424 51.5384 -31.6436 -0.041 -0.999 0.009 173 161 139 0
-42.2452 6.9732 -26.1790 0.322 -0.893 -0.316 229 213 199 0
-41.7987 7.0808 -26.1888 0.055 -0.971 -0.233 230 216 199 0
-43.3699 9.7027 -26.6415 0.629 -0.477 0.614 231 213 199 0
-23.3967 31.5092 -29.8358 -0.022 -0.999 0.034 230 222 209 0
-24.4404 33.3849 -30.1584 0.094 -0.995 -0.034 230 222 207 0
-19.4300 30.9120 -29.6703 -0.680 -0.556 0.479 121 73 76 0
-18.4592 29.8644 -29.4835 -0.680 -0.558 0.476 118 68 72 0
-15.9835 26.5525 -28.9030 -0.439 -0.878 0.189 117 64 68 0
-14.9505 26.9280 -28.9461 0.653 -0.407 0.639 118 50 55 0
-12.7572 25.4910 -28.6749 0.359 -0.931 0.067 129 53 61 0
-12.6087 25.6488 -28.6980 0.203 -0.974 0.102 123 47 55 0
-12.1472 25.7063 -28.6993 0.202 -0.954 0.221 119 44 52 0
-11.9865 26.2402 -28.7832 0.652 -0.586 0.481 125 46 55 0
-11.7082 26.1931 -28.7707 0.006 -0.959 0.283 123 44 52 0
-11.3240 25.9751 -28.7287 -0.049 -0.965 0.259 122 42 50 0
-10.0413 25.0947 -28.5636 0.046 -0.974 0.224 126 43 52 0
-5.0478 25.1500 -28.4862 0.344 -0.920 -0.187 138 51 60 0
-3.8687 24.7118 -28.3947 0.285 -0.857 0.429 143 56 65 0
-3.6588 26.8874 -28.7442 -0.549 -0.819 0.164 140 54 62 0
-3.4531 26.9411 -28.7494 -0.429 -0.895 -0.119 143 57 66 0
0.2975 26.8386 -28.6679 0.383 -0.913 -0.144 127 40 50 0
0.4326 27.0241 -28.6956 0.310 -0.946 0.095 129 46 56 0
8.5936 54.9649 -33.0900 0.971 0.139 0.197 209 200 183 0
11.0920 49.5046 -32.1605 0.370 -0.919 -0.134 212 205 190 0
10.4148 53.2005 -32.7721 -0.164 -0.984 0.074 214 206 194 0
9.5788 56.6750 -33.3506 0.977 -0.209 0.049 215 207 195 0
10.0093 56.1095 -33.2513 0.948 -0.319 -0.005 215 207 195 0
10.1884 57.1796 -33.4219 0.984 -0.001 0.179 216 209 192 0
19.8774 30.8054 -28.9731 0.540 -0.796 0.272 215 209 195 0
19.0889 34.2317 -29.5429 0.705 -0.643 0.299 216 210 196 0
19.7905 41.6596 -30.7366 0.558 -0.765 -0.321 216 207 197 0
19.8885 62.2810 -34.0823 0.922 0.196 0.333 209 203 192 0
35.5133 61.1206 -33.6236 -0.169 -0.976 -0.139 199 184 171 0
35.7407 61.0610 -33.6100 -0.156 -0.977 -0.143 197 183 170 0
35.9624 61.0522 -33.6048 -0.317 -0.946 -0.062 197 184 168 0
43.6775 32.2948 -28.8032 -0.274 -0.378 0.884 187 172 159 0
43.8295 32.5380 -28.8401 0.178 -0.497 0.849 190 173 161 0
48.6720 55.5042 -32.4844 0.054 -0.899 -0.435 108 100 89 0
-42.3331 7.0106 -26.3933 0.338 -0.889 -0.310 230 213 200 0
-41.6461 6.6660 -26.3244 -0.218 -0.971 -0.099 228 214 199 0
-42.0194 7.2334 -26.4242 0.192 -0.972 -0.133 228 214 198 0
-47.5883 13.6286 -27.5739 0.517 -0.788 -0.334 233 217 204 0
-15.9714 26.5011 -29.1130 -0.439 -0.878 0.189 115 62 66 0
-15.1225 26.7676 -29.1414 0.781 -0.391 0.487 116 49 56 0
-15.0216 27.0039 -29.1783 0.745 -0.376 0.552 119 50 55 0
-12.6695 25.7121 -28.9239 0.102 -0.922 0.374 120 43 54 0
-11.7075 26.1606 -28.9800 0.033 -0.960 0.279 122 41 51 0
-11.3847 26.0411 -28.9546 -0.069 -0.952 0.298 122 40 50 0
-10.9577 25.7522 -28.8995 -0.468 -0.867 0.171 123 40 50 0
-9.6599 24.4449 -28.6616 0.214 -0.973 0.084 127 44 52 0
-9.0229 24.5900 -28.6739 0.792 -0.594 0.138 136 49 59 0
-8.8875 24.7645 -28.7000 0.792 -0.594 0.138 137 50 59 0
-4.0709 24.6295 -28.5907 0.285 -0.873 0.395 142 54 65 0
-3.5877 24.5950 -28.5763 0.620 -0.593 0.513 141 52 64 0
-3.6252 26.7971 -28.9382 -0.564 -0.798 0.212 142 53 63 0
-3.1371 26.3258 -28.8521 -0.505 -0.736 0.450 141 53 62 0
9.3822 48.7646 -32.3058 0.996 0.090 -0.011 105 87 80 0
8.7910 53.5607 -33.1031 0.978 0.121 0.168 169 157 143 0
8.6860 54.6618 -33.2856 0.978 0.121 0.168 209 198 182 0
11.2278 49.8246 -32.4463 0.310 -0.930 -0.199 213 205 192 0
10.5180 52.8554 -32.9562 -0.035 -0.990 -0.134 214 207 193 0
9.5635 56.7076 -33.6053 0.973 -0.210 0.094 215 207 194 0
10.1319 55.6983 -33.4295 0.696 -0.629 0.348 215 208 194 0
13.4350 48.1092 -32.1250 0.954 -0.269 -0.131 216 209 193 0
13.2834 51.0086 -32.6032 0.984 -0.153 -0.085 216 209 196 0
18.4315 35.0523 -29.8930 0.001 -0.618 0.786 213 209 197 0
17.7555 39.5936 -30.6501 0.194 -0.091 0.977 214 209 195 0
18.1155 39.8518 -30.6859 0.284 -0.064 0.957 214 208 194 0
35.7327 61.1958 -33.8679 -0.181 -0.983 -0.033 196 184 170 0
36.0174 62.7392 -34.1159 -0.267 -0.917 -0.297 195 183 168 0
43.5248 32.1835 -28.9685 -0.281 -0.368 0.886 185 172 157 0
44.1289 60.8548 -33.6600 0.787 -0.199 0.584 182 168 157 0
44.3129 61.4516 -33.7546 0.631 -0.105 0.769 181 167 156 0
44.5069 61.8302 -33.8132 0.822 -0.127 0.556 182 166 155 0
44.6741 62.9492 -33.9937 0.976 -0.154 0.153 182 165 155 0
48.4876 55.6076 -32.7205 0.054 -0.899 -0.435 172 155 139 0
48.6815 55.6184 -32.7188 0.054 -0.899 -0.435 111 101 91 0
-14.9498 26.8614 -29.3722 0.745 -0.376 0.552 117 51 56 0
-13.4882 26.5664 -29.2957 -0.462 -0.880 0.106 119 43 55 0
-11.4966 25.7924 -29.1298 0.311 -0.935 0.169 121 39 51 0
-9.6890 24.4616 -28.8751 0.156 -0.988 -0.008 130 45 54 0
-9.0355 24.5803 -28.8825 0.669 -0.706 0.235 149 62 72 0
-8.8242 24.6298 -28.8867 0.354 -0.935 0.034 152 64 74 0
-8.5535 24.9805 -28.9397 0.652 -0.711 0.265 135 45 58 0
-7.2642 25.2362 -28.9577 0.319 -0.848 0.424 132 45 54 0
-3.8018 24.5351 -28.7761 0.194 -0.901 0.387 143 53 65 0
-3.5571 24.5115 -28.7675 0.314 -0.879 0.359 143 53 65 0
9.3398 44.6190 -31.8558 -0.424 -0.826 0.371 74 44 42 0
9.5115 44.8115 -31.8844 -0.295 -0.908 0.298 77 47 45 0
10.2278 44.1045 -31.7537 0.813 -0.513 0.274 91 64 61 0
10.5249 43.9232 -31.7181 0.968 -0.220 0.123 98 73 71 0
11.0557 43.0435 -31.5623 0.775 -0.618 -0.135 101 80 77 0
9.3810 48.7498 -32.5395 0.996 0.090 -0.011 105 87 81 0
8.8766 53.2803 -33.2997 0.970 0.122 0.208 158 146 134 0
8.8472 54.1467 -33.4438 0.974 0.118 0.194 207 196 182 0
8.7653 55.1857 -33.6175 0.977 0.118 0.180 210 201 184 0
11.2387 49.7738 -32.6740 -0.204 -0.966 -0.156 213 206 189 0
10.5055 52.8787 -33.2024 -0.030 -0.992 -0.125 214 207 190 0
13.6756 50.4810 -32.7452 0.916 -0.361 -0.173 212 208 196 0
13.7489 51.0491 -32.8379 0.906 -0.394 -0.156 212 208 196 0
18.5420 39.0936 -30.7663 0.319 0.023 0.948 215 207 194 0
42.4502 33.3513 -29.3631 -0.335 -0.356 0.872 189 177 163 0
43.5339 32.1405 -29.1419 -0.187 -0.310 0.932 185 172 156 0
44.3529 60.6940 -33.8579 0.634 -0.101 0.766 182 167 156 0
44.5412 61.1899 -33.9365 0.634 -0.094 0.768 183 166 156 0
44.7315 61.6677 -34.0121 0.825 -0.079 0.560 183 166 156 0
47.4968 46.5991 -31.4629 0.515 0.081 0.853 176 163 148 0
48.6909 55.7382 -32.9547 0.035 -0.901 -0.433 111 102 92 0
-43.1316 9.1234 -27.1767 -0.443 -0.893 0.076 231 219 205 0
-18.9863 28.5756 -29.9573 -0.227 -0.693 0.685 132 89 88 0
-14.9963 26.5099 -29.5330 0.765 -0.354 0.538 117 51 58 0
-12.0520 25.8541 -29.3652 -0.106 -0.934 0.342 120 40 53 0
-9.0368 24.5521 -29.0879 0.171 -0.919 0.354 160 73 83 0
-8.8243 24.5997 -29.0917 0.165 -0.924 0.346 157 70 79 0
-8.6036 24.6334 -29.0930 0.153 -0.931 0.333 138 50 60 0
-8.4774 24.8238 -29.1224 0.280 -0.733 0.621 134 44 55 0
3.1081 28.9370 -29.5827 0.328 -0.915 -0.233 100 31 36 0
3.3618 28.8764 -29.5676 0.691 -0.718 -0.083 96 30 34 0
9.9873 44.7926 -32.1014 0.381 -0.634 0.673 91 64 61 0
10.4685 44.0718 -31.9712 0.680 -0.483 0.552 97 73 71 0
10.5740 44.4579 -32.0338 0.872 -0.456 0.177 102 80 77 0
8.9116 53.9303 -33.6522 0.977 0.111 0.182 207 196 183 0
10.5520 52.7144 -33.4163 -0.055 -0.955 -0.292 213 206 188 0
10.7362 52.9188 -33.4469 0.003 -0.947 -0.320 214 207 190 0
11.9139 51.4991 -33.1861 -0.335 -0.942 -0.013 214 206 193 0
13.9399 46.4111 -32.2945 0.664 -0.409 0.626 214 206 193 0
14.0581 46.7935 -32.3561 0.650 -0.449 0.613 215 207 194 0
14.0913 47.4651 -32.4679 0.607 -0.274 0.746 215 208 195 0
14.4718 46.9723 -32.3779 0.375 -0.694 0.615 214 208 196 0
14.6733 47.0796 -32.3919 0.691 -0.622 0.368 211 208 196 0
15.0436 46.6103 -32.3061 0.632 -0.703 0.325 211 207 195 0
15.2235 46.7883 -32.3323 0.662 -0.570 0.487 211 207 195 0
24.7391 56.2103 -33.7221 0.810 -0.151 -0.567 206 196 186 0
25.1648 55.2002 -33.5446 0.670 -0.307 -0.676 206 196 186 0
42.3788 34.4777 -29.7368 0.032 -0.856 0.516 188 176 162 0
48.7004 55.8519 -33.1902 0.035 -0.901 -0.433 111 102 91 0
-47.8419 14.2694 -28.3548 0.612 -0.788 0.071 232 218 204 0
-47.4321 14.1779 -28.3309 0.717 -0.688 0.116 233 218 204 0
-46.4669 13.5915 -28.2120 0.458 -0.827 -0.326 233 219 205 0
-18.6811 28.4829 -30.1604 -0.249 -0.725 0.643 130 83 83 0
-19.3591 29.8721 -30.4092 0.048 -0.688 0.724 124 75 77 0
-18.9159 29.6130 -30.3563 -0.025 -0.888 0.459 121 72 75 0
-14.9255 26.3695 -29.7261 0.765 -0.354 0.538 117 51 57 0
-11.8346 25.4784 -29.5121 0.096 -0.885 0.456 121 41 54 0
-8.5834 24.5698 -29.2918 0.188 -0.961 0.203 137 47 55 0
-8.4341 24.7217 -29.3145 0.299 -0.731 0.613 132 41 50 0
-6.6618 24.5554 -29.2500 0.459 -0.693 0.556 137 47 56 0
0.5647 26.2006 -29.3801 -0.289 -0.948 0.134 139 59 68 0
3.5539 30.4195 -30.0322 0.527 -0.798 -0.290 89 22 29 0
8.1188 31.8308 -30.1773 0.369 -0.798 0.477 80 26 29 0
9.8299 45.2366 -32.4090 0.627 -0.472 0.620 91 64 61 0
8.9863 53.6821 -33.8543 0.989 0.122 0.082 204 192 180 0
8.8603 54.8552 -34.0552 0.988 0.122 0.092 210 200 184 0
10.4657 52.9727 -33.7040 0.016 -0.999 0.044 212 205 187 0
12.9104 49.8015 -33.1177 -0.493 -0.866 -0.082 214 207 193 0
14.0772 46.7162 -32.5721 0.673 -0.409 0.616 214 206 193 0
14.1619 47.2148 -32.6547 0.660 -0.549 0.514 214 206 193 0
14.3402 47.4029 -32.6828 0.660 -0.549 0.514 213 206 194 0
14.7864 46.6827 -32.5519 0.675 -0.578 0.458 213 206 194 0
14.9853 46.7966 -32.5671 0.616 -0.720 0.319 213 206 195 0
24.0928 58.3285 -34.3303 0.670 -0.477 -0.569 206 196 186 0
24.6730 57.7537 -34.2212 0.817 -0.156 -0.556 205 195 185 0
32.0454 53.9383 -33.4250 0.446 -0.685 0.576 202 191 174 0
38.8299 48.9906 -32.4494 0.231 -0.558 0.797 194 181 167 0
39.0284 48.9889 -32.4450 0.280 -0.715 0.641 194 180 168 0
37.7696 71.1683 -36.2210 0.814 -0.544 -0.205 191 179 163 0
48.7099 55.9627 -33.4258 0.054 -0.899 -0.435 110 101 91 0
-44.1029 9.3823 -27.6646 -0.568 -0.821 -0.049 231 218 202 0
-47.6008 14.2866 -28.5767 0.723 -0.691 0.015 234 218 203 0
-23.5320 31.5186 -31.0070 0.700 -0.710 0.073 232 223 206 0
-19.1797 29.5731 -30.5821 -0.063 -0.987 0.145 123 75 77 0
-14.8287 25.8033 -29.8456 0.189 -0.588 0.787 118 55 60 0
-14.8798 26.2672 -29.9259 0.759 -0.362 0.541 116 49 56 0
-6.6005 24.4211 -29.4343 0.460 -0.700 0.546 140 50 59 0
-4.0346 25.2912 -29.5283 0.610 -0.696 0.379 141 52 61 0
-1.4314 26.0574 -29.6037 -0.017 -0.982 -0.190 141 49 60 0
0.8665 25.5723 -29.4719 0.603 -0.596 0.530 135 58 66 0
0.8296 26.0977 -29.5624 0.728 -0.513 0.455 133 58 64 0
4.0701 30.2569 -30.2037 0.058 -0.915 0.399 89 22 30 0
9.6243 33.6358 -30.6625 0.729 -0.684 0.041 79 18 27 0
9.0443 53.4855 -34.0648 0.994 0.108 -0.019 195 182 170 0
10.4903 52.8779 -33.9302 -0.015 -0.999 0.031 211 204 188 0
14.1423 46.4856 -32.7608 0.469 -0.511 0.721 213 205 192 0
14.2503 46.9050 -32.8301 0.563 -0.469 0.680 213 204 192 0
14.3148 47.4750 -32.9261 0.677 -0.504 0.536 213 204 192 0
15.1005 45.6032 -32.5897 0.628 -0.754 0.192 213 204 193 0
15.0361 46.6104 -32.7630 0.598 -0.736 0.316 213 204 193 0
22.8762 27.7407 -29.3735 -0.295 -0.902 0.315 213 205 194 0
24.6377 28.2871 -29.4293 -0.140 -0.670 0.729 213 204 193 0
20.5976 54.8655 -34.0544 0.183 -0.231 0.956 210 201 192 0
22.9312 61.7821 -35.1859 0.704 -0.710 0.022 206 196 186 0
24.6064 58.1063 -34.5225 0.512 -0.465 -0.722 204 194 184 0
24.2840 62.2722 -35.2408 0.845 -0.009 -0.535 202 194 183 0
31.6386 53.7843 -33.6346 -0.299 -0.664 0.686 199 190 175 0
32.0216 54.1373 -33.6868 0.478 -0.691 0.542 200 191 174 0
37.2245 49.1252 -32.7200 0.953 -0.172 0.247 196 184 168 0
38.5535 52.1324 -33.2053 0.898 0.085 0.432 195 181 167 0
39.0428 48.8976 -32.6424 0.305 -0.716 0.629 194 180 167 0
39.1473 49.9750 -32.8242 0.542 -0.533 0.650 194 181 166 0
44.0272 42.5805 -31.4574 0.991 -0.096 -0.096 184 172 155 0
44.1313 48.1200 -32.4013 0.989 -0.053 -0.141 181 169 153 0
44.2835 53.3323 -33.2882 0.999 -0.036 -0.011 181 168 153 0
44.8322 65.5118 -35.3565 -0.671 -0.479 0.566 182 166 154 0
45.9958 62.1186 -34.7522 -0.653 -0.450 0.609 180 164 150 0
46.0376 77.2516 -37.3358 0.161 -0.342 0.926 181 163 152 0
48.9270 54.0266 -33.3079 -0.222 -0.854 -0.471 50 50 50 0
-41.3343 4.5266 -26.9790 0.623 -0.733 -0.271 255 255 255 0
-4.1824 25.5300 -29.7806 0.573 -0.760 -0.306 142 56 65 0
-3.9155 25.4707 -29.7645 0.346 -0.938 0.027 145 58 67 0
-2.7627 24.2143 -29.5223 0.223 -0.826 0.517 142 55 66 0
0.6996 25.8793 -29.7330 0.493 -0.824 0.278 139 64 71 0
4.4268 29.4347 -30.2638 0.508 -0.440 0.740 89 21 30 0
10.3367 32.8992 -30.7308 0.288 -0.952 -0.106 73 18 24 0
10.0054 53.6069 -34.3096 -0.008 -0.953 -0.302 208 202 186 0
12.4409 50.5244 -33.7242 -0.511 -0.828 -0.232 212 204 191 0
12.9096 49.7750 -33.5846 -0.526 -0.843 -0.115 212 204 191 0
15.0387 45.8002 -32.8520 0.720 -0.694 0.022 212 204 193 0
15.2429 45.8908 -32.8631 0.803 -0.513 0.303 212 204 193 0
22.7292 31.2109 -30.1657 0.893 -0.278 0.355 213 204 193 0
22.6841 61.8111 -35.4445 0.257 -0.916 -0.309 208 198 188 0
22.9037 61.9252 -35.4593 0.253 -0.910 -0.328 208 198 188 0
35.3552 37.0616 -30.8958 0.903 0.004 0.430 197 188 173 0
37.2716 50.6983 -33.2055 0.156 -0.886 0.437 197 185 171 0
38.4222 47.1270 -32.5641 0.527 0.068 0.847 197 183 170 0
38.6726 50.8791 -33.2057 0.898 0.085 0.431 195 181 168 0
39.0399 49.0021 -32.8738 0.136 -0.526 0.839 193 179 166 0
38.5037 70.9242 -36.6667 0.914 -0.096 -0.394 192 176 163 0
40.1940 60.3124 -34.7991 0.237 -0.302 0.924 190 173 161 0
40.4398 59.8540 -34.7146 0.462 -0.186 0.867 190 174 162 0
44.0385 46.2758 -32.2932 0.989 -0.057 -0.139 181 172 153 0
44.4809 69.4630 -36.2826 0.117 -0.039 0.992 182 168 155 0
44.8193 66.1553 -35.7046 -0.409 -0.517 0.752 182 167 153 0
-35.8704 3.5865 -26.8929 -0.558 -0.811 0.175 233 221 205 0
-18.4284 29.1820 -30.9515 -0.559 -0.816 0.148 120 63 68 0
-11.1458 25.4703 -30.1382 -0.134 -0.991 -0.003 126 43 53 0
-8.6715 24.6249 -29.9343 -0.171 -0.984 0.045 135 44 51 0
-4.6066 24.1689 -29.7618 0.313 -0.766 0.561 140 48 60 0
-4.4058 24.2264 -29.7672 0.264 -0.809 0.526 138 46 59 0
-3.8733 24.1060 -29.7341 0.225 -0.910 0.348 140 53 62 0
-4.1301 24.9852 -29.8931 0.636 -0.768 -0.072 142 55 64 0
-3.9706 25.1190 -29.9127 0.636 -0.768 -0.072 143 57 66 0
-3.8264 25.2808 -29.9376 0.380 -0.924 -0.045 145 58 67 0
-2.4094 26.1042 -30.0486 0.990 0.089 -0.111 148 62 71 0
-2.5412 26.7912 -30.1712 0.791 -0.192 -0.581 146 59 68 0
-1.9046 26.4659 -30.1000 -0.326 -0.859 -0.395 144 59 68 0
-1.2056 28.2624 -30.3969 0.905 0.033 0.425 136 63 70 0
-1.0006 28.7792 -30.4822 0.629 -0.303 -0.716 137 64 73 0
5.2173 31.2042 -30.7622 0.993 -0.112 -0.047 83 20 24 0
5.9724 31.5497 -30.8051 0.444 -0.894 0.056 81 19 24 0
6.1783 31.5952 -30.8083 0.460 -0.885 0.075 80 19 24 0
6.3515 31.7185 -30.8258 0.501 -0.863 0.069 83 23 27 0
7.6531 35.2056 -31.4033 0.466 -0.683 -0.563 75 20 28 0
7.6960 36.2658 -31.5870 0.963 -0.048 -0.265 75 20 26 0
8.1750 36.8072 -31.6703 0.711 -0.371 -0.597 76 18 26 0
8.6784 36.6858 -31.6377 0.930 -0.356 -0.096 75 20 26 0
10.3709 33.9686 -31.1256 -0.084 -0.920 0.383 72 19 25 0
9.3017 38.0813 -31.8664 0.013 -0.930 0.367 70 21 26 0
9.5079 48.2794 -33.6379 0.766 -0.470 -0.439 105 84 80 0
10.2497 48.9844 -33.7438 -0.170 -0.985 0.002 136 122 110 0
10.5365 48.8507 -33.7139 -0.062 -0.987 -0.147 192 180 166 0
9.8624 54.0422 -34.6335 0.160 -0.887 -0.433 209 201 186 0
15.1145 45.5298 -33.0306 0.685 -0.718 0.123 212 204 191 0
22.4229 61.9061 -35.7156 0.438 -0.863 0.251 206 197 187 0
22.6807 61.8329 -35.6969 0.261 -0.905 -0.336 205 196 186 0
24.5621 60.8227 -35.4779 0.726 -0.591 -0.353 203 194 184 0
31.6153 55.5288 -34.3943 -0.427 -0.893 0.143 197 188 173 0
31.7763 55.9445 -34.4630 -0.386 -0.902 0.194 197 188 173 0
32.2022 54.4561 -34.1940 0.893 -0.430 -0.132 197 188 173 0
37.3629 49.8560 -33.2747 0.971 -0.085 0.224 196 183 170 0
40.7534 37.7930 -31.0960 0.332 -0.533 0.778 193 178 165 0
40.4822 59.3621 -34.8589 0.448 -0.221 0.867 190 174 161 0
49.5171 56.5464 -34.1616 0.091 -0.917 -0.388 254 255 255 0
-40.2738 3.7972 -27.2313 0.639 -0.686 -0.348 255 255 255 0
-39.7428 4.2931 -27.3059 0.645 -0.669 -0.370 224 213 199 0
-39.6034 4.4120 -27.3235 0.642 -0.670 -0.373 230 215 203 0
-36.8889 4.2087 -27.2234 -0.504 -0.820 0.270 233 220 206 0
-35.8140 3.5009 -27.0734 -0.532 -0.829 0.174 232 220 204 0
-35.1929 3.1896 -27.0040 -0.493 -0.856 0.157 230 218 203 0
-17.6955 28.4521 -31.0321 -0.561 -0.814 0.151 122 60 67 0
-8.7836 24.7799 -30.1750 -0.123 -0.990 -0.063 135 42 52 0
-6.4585 24.0903 -29.9986 0.463 -0.694 0.551 139 41 54 0
-4.5574 24.0533 -29.9471 0.313 -0.766 0.561 141 47 63 0
-4.2967 26.1061 -30.3019 0.820 0.017 0.572 146 58 67 0
-2.5571 26.3543 -30.3043 0.993 0.093 -0.078 150 67 75 0
-2.6513 26.9714 -30.4151 0.793 -0.197 -0.576 149 65 74 0
-1.8176 26.2728 -30.2725 -0.398 -0.889 -0.224 145 64 71 0
-1.6817 26.4553 -30.3014 -0.308 -0.888 -0.341 148 67 74 0
-1.0198 29.2559 -30.7782 0.722 -0.200 -0.662 143 71 82 0
-0.2101 28.1027 -30.5562 0.492 -0.315 -0.811 146 73 83 0
-0.0793 28.3042 -30.5885 0.511 -0.304 -0.804 147 74 83 0
0.2028 28.2010 -30.5637 0.570 -0.312 -0.760 149 75 82 0
0.3272 28.4163 -30.5986 0.125 -0.517 -0.847 149 74 79 0
0.6767 28.6440 -30.6304 0.102 -0.531 -0.841 144 69 73 0
0.9845 28.4842 -30.5950 0.111 -0.531 -0.840 140 65 70 0
3.0814 27.4203 -30.3582 0.436 -0.899 0.039 109 42 50 0
7.5756 35.3815 -31.6518 0.463 -0.685 -0.563 74 19 26 0
8.4731 37.2086 -31.9518 0.976 -0.136 0.167 73 19 25 0
8.1832 38.5897 -32.2016 0.935 -0.217 0.280 71 19 25 0
8.4237 38.5660 -32.1917 0.351 -0.388 0.852 72 20 28 0
10.2820 34.1884 -31.3778 0.230 -0.966 -0.115 71 20 26 0
9.3157 38.0233 -32.0751 -0.003 -0.935 0.355 70 21 25 0
11.3762 39.9541 -32.3658 0.938 -0.116 0.327 82 54 51 0
9.4767 48.3544 -33.8882 0.736 -0.483 -0.474 104 83 78 0
10.0052 48.9688 -33.9838 -0.182 -0.978 0.100 124 110 99 0
9.6730 54.6238 -34.9862 0.255 -0.773 -0.581 207 200 185 0
15.6025 43.8607 -32.9527 0.272 -0.932 -0.241 210 204 190 0
22.3178 62.4257 -36.0586 0.503 -0.853 0.138 204 195 186 0
22.5442 62.5135 -36.0686 0.554 -0.820 0.147 205 196 187 0
23.5470 64.8912 -36.4630 0.784 -0.049 -0.618 202 194 184 0
31.7666 56.0430 -34.7121 -0.247 -0.852 0.462 197 188 173 0
36.2982 50.3605 -33.6053 0.833 0.050 0.550 197 185 171 0
38.4296 43.1593 -32.2883 0.529 0.077 0.845 194 182 166 0
38.7866 47.5652 -33.0547 0.856 -0.082 0.510 192 181 163 0
38.8965 48.5293 -33.2216 0.879 -0.084 0.470 192 180 164 0
40.7784 37.5608 -31.2480 0.348 -0.509 0.788 193 176 163 0
-40.3491 3.8236 -27.4388 0.618 -0.707 -0.343 255 255 255 0
-39.9428 4.4265 -27.5359 0.670 -0.628 -0.396 224 212 200 0
-39.6882 4.4476 -27.5334 0.642 -0.670 -0.373 229 213 204 0
-37.4525 4.4271 -27.4750 -0.497 -0.832 0.246 228 216 204 0
-14.0676 25.2870 -30.6059 -0.296 -0.887 0.355 116 47 55 0
-11.0944 25.3256 -30.5399 -0.068 -0.887 0.458 122 40 52 0
-8.7876 24.7563 -30.3823 -0.134 -0.990 -0.042 136 43 55 0
-5.5001 24.0356 -30.1737 0.156 -0.823 0.546 140 43 56 0
-2.6363 26.4756 -30.5368 0.983 0.016 -0.186 148 68 75 0
-2.8366 27.2936 -30.6870 0.796 -0.198 -0.572 150 70 77 0
-1.8525 26.3119 -30.4886 -0.383 -0.892 -0.241 148 69 75 0
-0.0953 28.3100 -30.8003 0.572 -0.341 -0.746 148 77 86 0
3.5056 26.9678 -30.4737 -0.190 -0.887 -0.421 108 40 51 0
2.5438 30.0082 -31.0372 0.315 -0.384 -0.868 100 34 43 0
7.4984 34.4029 -31.6961 0.694 -0.357 0.625 74 23 28 0
7.4562 35.0839 -31.8181 0.896 -0.241 0.372 73 22 27 0
8.7425 36.4753 -32.0336 0.801 -0.266 0.537 72 19 25 0
9.9598 39.3955 -32.5223 0.993 0.107 -0.052 67 27 28 0
9.5526 48.8413 -34.2095 0.940 -0.180 -0.290 106 88 81 0
10.0811 48.7202 -34.1751 0.048 -0.993 -0.112 122 108 97 0
10.2799 48.8572 -34.1945 -0.153 -0.988 0.002 133 119 108 0
10.5202 48.8667 -34.1903 -0.198 -0.979 0.049 190 177 163 0
10.7798 48.8150 -34.1748 -0.198 -0.979 0.049 205 194 178 0
15.3519 45.4803 -33.4706 0.984 0.078 0.160 206 203 186 0
17.1170 47.3791 -33.7645 0.559 -0.154 -0.815 207 204 187 0
23.0616 67.4375 -37.1806 0.774 -0.062 -0.631 201 192 183 0
38.9230 48.3041 -33.3944 0.884 -0.094 0.457 193 181 165 0
40.5300 34.2907 -30.8666 0.307 -0.462 -0.832 193 181 165 0
40.6624 36.8782 -31.3229 0.793 -0.601 0.104 194 177 163 0
40.8360 36.9291 -31.3276 0.763 -0.646 0.016 194 176 164 0
44.8801 65.2784 -36.2625 -0.022 -0.058 0.998 182 166 153 0
45.1556 63.4644 -35.9336 -0.012 -0.102 0.995 182 166 153 0
45.3848 62.9068 -35.8290 -0.039 -0.116 0.992 182 165 155 0
49.1488 56.5503 -34.6080 0.030 -0.900 -0.435 247 247 244 0
-40.4298 3.8544 -27.6476 0.618 -0.707 -0.343 255 255 255 0
-40.1733 4.1103 -27.6870 0.585 -0.731 -0.351 135 135 136 0
-40.0401 4.2345 -27.7059 0.597 -0.727 -0.338 68 63 59 0
-40.0315 4.4649 -27.7470 0.670 -0.628 -0.396 226 213 201 0
-39.9074 4.5977 -27.7676 0.669 -0.626 -0.401 232 216 207 0
-40.4545 6.0338 -28.0390 0.864 0.006 0.503 230 218 206 0
-10.5617 25.2310 -30.7238 -0.244 -0.963 -0.115 123 38 52 0
-10.2683 25.1540 -30.7025 -0.244 -0.963 -0.115 125 38 52 0
-4.4768 24.6831 -30.4715 0.359 -0.933 -0.012 141 49 64 0
-3.5792 26.0268 -30.6897 0.840 -0.057 -0.539 149 62 72 0
-3.0632 27.2499 -30.8959 0.235 -0.497 -0.835 146 67 76 0
-3.1463 27.8502 -31.0056 -0.083 -0.619 -0.781 148 71 78 0
-2.3256 27.1855 -30.8657 -0.540 -0.816 -0.205 145 68 75 0
-1.8587 26.7394 -30.7739 -0.356 -0.867 -0.349 144 69 77 0
3.5736 27.2764 -30.7327 -0.132 -0.979 0.157 102 35 46 0
3.9813 26.8782 -30.6509 0.261 -0.948 0.181 99 33 42 0
3.8659 27.6107 -30.7852 0.415 -0.615 0.671 99 33 40 0
3.5610 28.7628 -30.9994 0.250 -0.408 0.878 97 31 39 0
4.5260 27.6298 -30.7719 0.301 -0.945 -0.126 94 27 36 0
7.5604 34.2252 -31.8774 0.698 -0.348 0.626 73 22 27 0
7.6379 34.6026 -31.9431 0.720 -0.190 0.668 74 23 27 0
7.6728 35.0914 -32.0299 0.721 -0.191 0.666 71 19 23 0
7.7909 35.3717 -32.0771 0.721 -0.191 0.666 72 20 24 0
10.1557 35.0911 -31.9670 0.332 -0.928 0.171 70 20 27 0
9.3207 37.9701 -32.5042 -0.044 -0.948 0.316 71 22 27 0
9.5110 48.9483 -34.4675 0.944 -0.173 -0.279 106 88 81 0
9.9633 49.0611 -34.4762 -0.274 -0.920 0.279 119 105 96 0
16.4257 40.2932 -32.7408 0.940 -0.264 0.218 207 201 185 0
41.2528 38.5109 -31.7929 0.503 -0.853 -0.136 191 174 164 0
42.4682 54.5574 -34.6388 -0.091 -0.902 -0.421 184 170 157 0
42.5271 57.1231 -35.0973 0.005 -0.831 -0.556 184 170 157 0
46.0065 56.2810 -34.8582 -0.488 -0.757 -0.435 180 163 153 0
46.1075 59.8692 -35.4989 -0.565 -0.395 0.725 179 162 152 0
-40.6538 3.7700 -27.8398 0.567 -0.739 -0.364 255 255 255 0
-40.5063 3.8817 -27.8561 0.612 -0.703 -0.362 255 255 255 0
-40.2579 4.1448 -27.8973 0.597 -0.727 -0.338 135 135 136 0
-40.1273 4.2714 -27.9168 0.605 -0.726 -0.328 68 63 59 0
-40.0955 4.4823 -27.9541 0.602 -0.720 -0.345 226 212 201 0
-39.9635 4.6085 -27.9735 0.597 -0.726 -0.341 229 215 204 0
-39.8295 4.7333 -27.9926 0.598 -0.722 -0.348 229 217 206 0
-40.3473 5.6603 -28.1739 0.870 -0.054 0.490 230 218 207 0
-40.2737 6.5756 -28.3376 0.941 -0.002 0.338 231 219 207 0
-15.2535 25.8625 -31.1745 -0.543 -0.827 0.147 118 54 62 0
-10.5284 25.1461 -30.9214 -0.026 -0.978 -0.206 122 39 53 0
-5.1952 23.8556 -30.5486 0.526 -0.522 0.671 144 52 65 0
-4.9625 23.8583 -30.5430 0.217 -0.755 0.618 143 51 64 0
-4.4416 25.4318 -30.8142 0.207 -0.283 0.937 142 52 66 0
-3.2415 28.0018 -31.2479 -0.528 -0.777 -0.343 149 72 80 0
-3.0592 28.1046 -31.2618 -0.765 -0.641 0.063 147 70 78 0
-2.7338 27.9350 -31.2226 -0.727 -0.687 0.006 145 70 77 0
3.6002 26.7166 -30.8366 -0.475 -0.866 -0.156 105 35 48 0
3.8449 27.6321 -30.9959 0.600 -0.787 -0.145 98 31 38 0
3.8827 28.0370 -31.0682 0.207 -0.977 0.051 98 31 38 0
4.7538 28.5843 -31.1445 0.601 -0.757 0.257 85 20 28 0
7.8804 35.1214 -32.2459 0.721 -0.191 0.666 72 22 25 0
10.2003 34.9510 -32.1545 0.515 -0.855 -0.063 71 20 27 0
11.5112 40.1750 -33.0656 0.870 -0.492 -0.033 89 61 58 0
17.4030 48.0048 -34.3287 0.795 0.047 -0.605 204 203 185 0
22.7322 66.5653 -37.5484 0.771 -0.075 -0.632 203 197 185 0
41.3028 63.6790 -36.5411 -0.144 -0.738 0.659 188 174 161 0
42.4339 55.2988 -34.9950 0.039 -0.854 -0.519 184 170 156 0
42.7199 57.5154 -35.3886 -0.027 -0.854 -0.520 183 170 157 0
46.1457 58.8322 -35.5375 -0.676 -0.445 0.588 180 163 153 0
49.3648 56.7532 -35.0772 0.039 -0.897 -0.440 255 255 255 0
-40.8195 3.8716 -28.0646 0.567 -0.746 -0.349 255 255 255 0
-40.5386 3.8717 -28.0570 0.612 -0.707 -0.355 255 255 255 0
-40.5374 4.1068 -28.0999 0.613 -0.685 -0.394 255 255 255 0
-40.3430 4.1796 -28.1080 0.597 -0.723 -0.349 135 135 136 0
-40.2016 4.2973 -28.1257 0.597 -0.727 -0.338 69 63 61 0
-40.1821 4.5188 -28.1656 0.597 -0.726 -0.341 227 211 202 0
-40.1573 6.1907 -28.4704 0.874 -0.067 0.481 231 219 207 0
-40.1931 6.4677 -28.5219 0.944 -0.012 0.330 231 219 207 0
-10.6391 25.2934 -31.1652 0.041 -0.970 -0.242 121 39 53 0
-10.0940 25.2073 -31.1348 -0.037 -0.958 -0.283 124 39 52 0
-6.2787 23.6661 -30.7506 0.663 -0.737 0.132 143 47 59 0
-3.1667 28.2803 -31.5097 -0.763 -0.641 0.078 151 75 83 0
-2.7777 27.9908 -31.4463 -0.730 -0.684 0.009 151 76 83 0
-0.5338 27.2617 -31.2527 0.723 0.191 0.664 151 83 93 0
3.8975 27.9803 -31.2647 -0.164 -0.760 -0.629 94 27 35 0
6.1441 29.4575 -31.4740 0.696 -0.716 0.050 79 16 25 0
7.8392 31.8018 -31.8567 0.510 -0.849 0.138 72 19 25 0
9.2280 36.3337 -32.6471 0.870 -0.397 0.291 70 19 26 0
11.0248 38.9182 -33.0709 0.861 -0.424 0.280 70 38 39 0
11.2294 38.9851 -33.0776 0.571 -0.810 0.132 72 42 42 0
11.3389 39.3270 -33.1371 0.772 -0.625 0.110 74 44 42 0
11.4949 40.2051 -33.2933 0.827 -0.545 -0.140 87 60 57 0
30.3484 64.6021 -37.2424 -0.396 -0.519 0.758 199 186 172 0
41.0616 64.1799 -36.8769 -0.286 -0.475 0.832 188 174 163 0
41.3298 63.3801 -36.7235 -0.149 -0.730 0.667 186 172 160 0
42.5221 57.5141 -35.6199 -0.017 -0.858 -0.513 184 171 158 0
45.4805 60.8384 -36.1475 -0.553 -0.462 0.693 182 166 153 0
47.8284 55.0477 -35.0265 0.679 -0.351 -0.645 177 161 147 0
-40.9637 3.9551 -28.2862 0.602 -0.722 -0.341 255 255 255 0
-40.7329 3.9977 -28.2876 0.626 -0.683 -0.377 255 255 255 0
-40.6487 4.1634 -28.3159 0.595 -0.695 -0.404 255 255 255 0
-40.4262 4.2128 -28.3188 0.597 -0.723 -0.349 135 136 136 0
-40.2895 4.3347 -28.3375 0.597 -0.723 -0.349 69 63 60 0
-11.0278 25.8880 -31.5001 0.287 -0.077 0.955 122 40 54 0
-10.0817 25.1565 -31.3390 -0.010 -0.976 -0.217 125 39 52 0
-9.3760 25.6058 -31.4022 0.053 -0.517 0.854 125 36 50 0
-9.1157 25.5796 -31.3902 0.463 -0.159 0.872 130 40 53 0
-7.5026 24.9067 -31.2214 0.672 -0.232 0.704 141 44 56 0
-6.4105 24.2673 -31.0732 -0.053 -0.967 0.250 140 45 57 0
-5.9494 23.8820 -30.9894 0.230 -0.712 0.663 137 43 57 0
-5.4216 23.7837 -30.9566 0.380 -0.735 0.561 137 45 57 0
-5.2738 23.9351 -30.9804 0.535 -0.774 0.337 138 46 58 0
-4.6905 23.7340 -30.9272 0.651 -0.744 -0.152 150 59 71 0
-2.8103 28.0250 -31.6662 -0.723 -0.561 0.402 161 84 92 0
-2.3736 27.6414 -31.5834 -0.667 -0.671 0.323 164 89 96 0
-2.0780 27.5244 -31.5536 0.005 -0.976 -0.219 161 89 97 0
3.3744 27.6309 -31.4221 -0.401 -0.629 -0.665 104 34 44 0
4.4677 28.6754 -31.5843 0.615 -0.767 -0.185 87 20 31 0
4.7047 28.6465 -31.5724 0.554 -0.792 0.257 85 20 29 0
6.2394 29.7317 -31.7299 0.581 -0.795 0.177 81 18 27 0
9.3219 36.0627 -32.8118 0.780 -0.626 -0.010 70 18 25 0
10.1116 39.5396 -33.4310 1.000 0.019 -0.006 69 30 33 0
11.2036 39.0410 -33.3087 0.593 -0.805 0.006 73 43 43 0
11.3538 39.2661 -33.3461 0.644 -0.758 -0.101 74 44 42 0
11.4231 40.3980 -33.5529 0.826 -0.535 -0.180 86 59 55 0
9.3726 47.8457 -34.9829 0.863 -0.425 -0.274 95 74 69 0
9.8466 47.1583 -34.8430 0.972 -0.222 0.071 98 80 74 0
16.6825 44.7853 -34.2159 0.831 -0.105 -0.547 195 196 175 0
16.6603 49.8701 -35.1541 0.794 0.047 -0.606 196 198 179 0
40.4412 37.6677 -32.2448 0.510 -0.224 -0.830 196 180 167 0
47.8294 55.6575 -35.3569 0.679 -0.351 -0.645 177 161 146 0
48.0258 55.6273 -35.3458 0.072 -0.699 -0.711 175 160 145 0
-41.0741 4.0102 -28.5023 0.603 -0.722 -0.339 255 255 255 0
-40.7965 4.0138 -28.4950 0.610 -0.714 -0.344 255 255 255 0
-40.7349 4.1987 -28.5277 0.576 -0.695 -0.431 255 255 255 0
-40.5095 4.2460 -28.5301 0.597 -0.723 -0.349 135 136 136 0
-40.3728 4.3681 -28.5489 0.597 -0.723 -0.349 69 63 60 0
-15.7293 26.0923 -31.8882 -0.293 -0.900 -0.322 117 55 63 0
-15.1706 25.6389 -31.7879 -0.362 -0.888 -0.284 119 55 63 0
-13.7055 24.5736 -31.5478 0.082 -0.875 0.478 119 49 59 0
-13.6130 24.8160 -31.5903 0.062 -0.863 0.502 118 49 59 0
-13.3902 24.8600 -31.5921 -0.481 -0.833 0.274 121 49 60 0
-9.6367 24.8000 -31.4738 -0.121 -0.684 0.719 128 42 53 0
-4.8204 23.9336 -31.1752 0.436 -0.849 0.299 149 59 69 0
-4.5960 23.9505 -31.1719 0.307 -0.854 0.419 148 59 70 0
-4.3702 23.9642 -31.1680 0.214 -0.626 0.750 149 59 71 0
-2.6918 27.7718 -31.8287 -0.723 -0.564 0.400 162 84 93 0
-2.2882 27.4506 -31.7574 -0.685 -0.644 0.341 167 91 99 0
-2.1294 27.5955 -31.7798 -0.017 -0.975 -0.220 164 91 99 0
-0.1687 26.4881 -31.5178 0.968 -0.215 -0.129 147 84 92 0
4.4408 28.7114 -31.8000 0.614 -0.770 -0.173 86 20 29 0
4.7275 28.5719 -31.7658 0.548 -0.795 0.260 82 17 25 0
5.9040 27.9236 -31.6116 0.526 -0.524 0.670 88 26 33 0
6.2735 29.6291 -31.9184 0.591 -0.796 0.127 81 18 26 0
9.7273 36.7854 -33.1516 0.824 -0.518 -0.229 72 19 25 0
9.9621 36.7641 -33.1409 0.708 -0.645 -0.287 72 21 26 0
10.9960 38.9640 -33.5208 0.641 -0.766 -0.048 73 39 40 0
11.1627 39.1407 -33.5489 0.427 -0.899 -0.094 74 42 43 0
11.3410 39.2852 -33.5707 0.644 -0.758 -0.101 73 43 41 0
9.3325 47.9462 -35.2397 0.836 -0.545 0.063 93 73 68 0
10.1602 46.2037 -34.8918 0.954 -0.271 0.130 96 79 72 0
38.3617 54.9258 -35.7101 0.934 -0.278 -0.224 195 181 168 0
38.6745 56.1371 -35.9266 0.942 -0.324 -0.091 194 180 167 0
41.4239 62.1331 -36.9639 0.005 -0.354 0.935 184 172 159 0
48.0324 55.9027 -35.6159 0.072 -0.699 -0.711 172 158 143 0
-41.0049 4.1514 -28.7298 0.594 -0.713 -0.372 255 255 255 0
-40.8266 4.2386 -28.7409 0.558 -0.699 -0.446 255 255 255 0
-13.6624 24.8593 -31.8162 -0.297 -0.938 0.177 119 49 59 0
-12.1262 25.5905 -31.9085 -0.560 -0.747 0.359 121 43 56 0
-5.4218 23.7262 -31.3616 0.409 -0.757 0.510 134 42 55 0
-5.0696 23.9309 -31.3897 0.195 -0.877 0.440 138 48 59 0
-4.8135 23.8929 -31.3751 0.324 -0.859 0.396 148 60 70 0
-2.5295 27.8839 -32.0576 -0.606 -0.360 0.709 168 90 99 0
-2.2198 27.7414 -32.0217 -0.137 -0.979 -0.151 168 93 102 0
0.0579 26.0148 -31.6306 0.902 -0.431 -0.029 143 82 89 0
3.2079 26.0321 -31.5414 -0.158 -0.902 0.401 107 38 48 0
4.4433 28.6818 -32.0028 0.656 -0.751 -0.073 83 17 26 0
4.7223 28.5598 -31.9717 0.489 -0.845 0.217 81 15 24 0
6.1404 29.3976 -32.0874 0.662 -0.747 -0.062 82 17 25 0
9.8790 33.3494 -32.7198 0.045 -0.857 0.514 68 15 22 0
10.9681 39.0255 -33.7538 0.663 -0.743 -0.093 73 39 40 0
11.1266 39.2267 -33.7869 0.412 -0.909 -0.069 74 42 43 0
11.2786 39.4478 -33.8240 0.632 -0.764 -0.127 73 44 41 0
37.4079 51.9117 -35.3979 0.612 -0.302 0.731 196 181 168 0
37.7479 52.6535 -35.5272 0.590 -0.323 0.740 195 181 168 0
38.3461 55.1737 -35.9829 0.930 -0.304 -0.206 196 182 169 0
38.5085 55.7087 -36.0786 0.941 -0.326 -0.093 192 178 165 0
38.6754 56.2069 -36.1673 0.942 -0.324 -0.091 193 179 166 0
38.8208 56.9761 -36.3075 0.940 -0.322 -0.113 194 179 166 0
47.6321 56.9704 -36.0478 -0.410 -0.886 -0.216 174 161 145 0
-42.0539 4.7542 -29.0791 0.592 -0.739 -0.322 255 255 255 0
-40.8828 4.0117 -28.9030 0.564 -0.742 -0.363 255 255 255 0
-40.9247 4.2838 -28.9559 0.619 -0.688 -0.380 255 255 255 0
-40.6787 4.3142 -28.9542 0.634 -0.703 -0.321 135 136 136 0
-40.5570 4.4495 -28.9762 0.621 -0.722 -0.305 69 63 60 0
-11.7526 24.5793 -31.9223 0.191 -0.722 -0.665 119 43 55 0
-12.1872 25.6548 -32.1392 -0.662 -0.728 0.180 120 42 55 0
-8.9261 24.7720 -31.8736 -0.013 -0.951 -0.310 135 43 58 0
-8.4378 25.1706 -31.9344 0.086 -0.827 -0.555 135 43 56 0
-7.1541 25.4522 -31.9490 0.438 -0.887 -0.147 136 42 54 0
-5.3208 23.1166 -31.4511 0.241 -0.945 0.220 135 43 56 0
-5.3800 23.6248 -31.5492 0.323 -0.853 0.410 133 41 54 0
-5.0757 23.9127 -31.5946 0.329 -0.875 0.356 141 51 63 0
-4.9010 24.0179 -31.6093 0.388 -0.853 0.350 147 59 69 0
-3.6759 23.4994 -31.4741 0.238 -0.880 0.412 141 53 63 0
-3.6009 23.7801 -31.5250 0.225 -0.967 0.121 142 54 65 0
-2.7034 25.1046 -31.7490 0.588 -0.549 0.593 138 54 68 0
0.0389 26.0257 -31.8408 0.634 -0.245 0.734 136 75 82 0
3.6819 30.3493 -32.5503 0.345 -0.785 0.514 82 18 27 0
5.5376 27.7057 -31.9934 0.003 -0.843 0.538 87 22 28 0
6.1012 31.0400 -32.6082 0.454 -0.865 0.213 77 16 24 0
9.9139 33.2374 -32.9097 0.045 -0.857 0.514 69 16 23 0
10.8978 39.2084 -34.0116 0.654 -0.753 -0.075 75 40 42 0
11.0848 39.3289 -34.0287 0.430 -0.900 -0.077 76 43 44 0
11.2088 39.6320 -34.0824 0.617 -0.780 -0.103 73 44 42 0
10.4579 46.7191 -35.4481 -0.245 -0.882 0.403 98 91 75 0
13.8827 52.9155 -36.5191 0.625 -0.180 -0.759 99 140 100 0
24.6629 54.3424 -36.4644 0.087 -0.592 0.801 202 191 185 0
24.9489 55.2246 -36.6230 0.355 -0.918 0.178 200 190 182 0
38.3193 55.5485 -36.2812 0.911 -0.308 -0.276 195 179 168 0
38.4796 56.1151 -36.3837 0.911 -0.308 -0.276 192 178 165 0
38.6876 56.1456 -36.3832 -0.008 -0.935 -0.354 194 180 167 0
39.1019 56.2188 -36.3846 -0.007 -0.934 -0.356 193 179 166 0
41.4358 58.8057 -36.8045 -0.334 -0.939 0.077 183 172 161 0
41.6894 58.1046 -36.6640 -0.372 -0.928 -0.019 183 172 161 0
47.4028 59.2801 -36.7144 -0.093 -0.930 0.356 174 162 147 0
-42.9364 5.4534 -29.4455 0.301 -0.926 -0.227 255 255 255 0
-41.0540 4.1179 -29.1319 0.632 -0.701 -0.330 255 255 255 0
-40.9560 4.2728 -29.1585 0.674 -0.641 -0.367 255 255 255 0
-40.7661 4.3507 -29.1675 0.458 -0.846 -0.275 135 136 135 0
-40.6311 4.4749 -29.1870 0.621 -0.722 -0.305 69 64 61 0
-26.0050 34.1528 -34.4090 -0.668 -0.697 0.262 232 223 209 0
-10.5487 24.2044 -32.0282 0.543 -0.816 0.198 127 47 61 0
-8.2020 25.1515 -32.1366 0.284 0.046 0.958 134 42 56 0
-7.1840 25.4735 -32.1666 0.438 -0.887 -0.147 135 42 53 0
-5.3826 23.6003 -31.7527 0.335 -0.857 0.391 135 43 55 0
-5.4886 24.1936 -31.8694 -0.134 -0.891 0.434 138 46 58 0
-5.2435 24.1773 -31.8587 -0.113 -0.896 0.429 142 52 63 0
-2.7854 23.9511 -31.7393 0.266 -0.962 0.060 138 52 62 0
-2.6644 25.0047 -31.9371 0.573 -0.575 0.583 136 52 65 0
-2.6505 27.1634 -32.3494 -0.719 -0.429 0.547 136 53 66 0
-2.1852 26.7255 -32.2513 -0.622 -0.345 0.702 140 57 69 0
-2.1107 27.4772 -32.3927 -0.612 -0.487 0.623 144 67 77 0
-1.7283 27.6433 -32.4126 -0.386 -0.910 -0.152 148 78 87 0
-0.2593 26.1355 -32.0788 -0.235 -0.779 -0.581 137 75 82 0
-0.1046 26.2823 -32.1021 0.760 -0.633 0.147 135 72 80 0
0.9488 26.4593 -32.1033 0.756 -0.558 0.342 138 74 80 0
3.9816 27.1898 -32.1491 0.084 -0.985 0.148 93 23 35 0
4.1301 27.3524 -32.1756 0.174 -0.984 -0.048 90 21 34 0
3.5910 29.5184 -32.6065 0.884 -0.377 0.278 86 17 31 0
5.5697 27.6100 -32.1803 0.013 -0.843 0.538 85 21 29 0
5.7876 27.6169 -32.1748 0.013 -0.843 0.538 90 27 36 0
6.1157 27.3723 -32.1179 0.545 -0.501 0.672 82 20 28 0
9.3309 33.5789 -33.2051 0.953 -0.302 -0.008 64 14 21 0
9.4150 33.9445 -33.2725 0.249 -0.866 -0.434 64 14 21 0
9.5382 34.2098 -33.3194 0.646 -0.374 0.665 67 17 25 0
10.9189 39.7881 -34.3433 0.224 -0.819 0.528 75 43 43 0
11.0895 39.9596 -34.3708 0.980 -0.055 0.189 73 44 42 0
10.4454 46.7393 -35.6871 -0.193 -0.936 0.295 96 89 73 0
12.9229 53.6692 -36.9355 0.480 -0.378 -0.792 87 136 94 0
14.4748 51.6831 -36.5077 0.528 -0.197 -0.826 91 135 95 0
14.5950 52.1113 -36.5858 0.554 -0.180 -0.813 94 135 94 0
38.3349 55.4488 -36.4889 0.885 -0.410 -0.222 193 178 167 0
41.2564 55.2854 -36.3672 -0.141 -0.970 -0.199 187 174 164 0
41.4621 58.5191 -36.9792 -0.433 -0.899 0.062 183 172 162 0
41.8751 55.2260 -36.3367 -0.097 -0.995 -0.014 184 172 161 0
44.9440 49.2473 -35.0985 -0.155 -0.152 0.976 182 168 155 0
46.6714 65.2637 -38.1076 -0.102 -0.993 -0.053 176 164 151 0
49.2310 57.4473 -36.5337 -0.033 -0.911 -0.412 247 246 245 0
49.4278 57.4927 -36.5363 0.015 -0.910 -0.413 254 255 255 0
-41.0710 4.0947 -29.3317 0.627 -0.700 -0.343 255 255 255 0
-41.0879 4.3462 -29.3807 0.612 -0.738 -0.284 255 255 255 0
-40.8429 4.3780 -29.3791 0.458 -0.846 -0.275 135 135 135 0
-40.6957 4.4922 -29.3964 0.503 -0.825 -0.258 69 64 61 0
-25.2963 32.3275 -34.2773 0.457 -0.651 -0.606 235 226 211 0
-28.6502 37.8190 -35.4433 -0.708 -0.624 0.331 232 223 209 0
-21.8294 30.9924 -33.9096 -0.164 -0.686 0.709 152 110 109 0
-14.8477 26.1795 -32.7592 -0.438 -0.813 0.384 120 50 60 0
-14.7684 26.4492 -32.8087 -0.421 -0.856 0.300 120 50 60 0
-12.2415 23.7328 -32.2043 0.143 -0.806 -0.575 121 48 58 0
-10.5405 24.1602 -32.2328 0.543 -0.816 0.198 129 48 62 0
-10.3677 24.2761 -32.2496 0.474 -0.851 0.226 123 40 56 0
-10.1937 24.3902 -32.2661 0.495 -0.833 0.248 120 37 53 0
-10.0381 24.5343 -32.2890 0.562 -0.767 0.308 124 40 55 0
-7.2139 25.4949 -32.3846 0.438 -0.887 -0.147 134 41 52 0
-5.3337 23.4866 -31.9374 0.357 -0.747 0.561 136 42 54 0
-5.3745 23.9661 -32.0312 0.399 -0.730 0.555 136 43 54 0
-1.9274 24.0384 -31.9356 0.596 -0.570 0.565 133 49 60 0
-1.7785 24.1882 -31.9598 0.458 -0.648 0.608 136 50 62 0
-2.3958 26.2129 -32.3700 -0.714 -0.391 0.580 133 50 62 0
-1.7562 25.8830 -32.2860 -0.622 -0.344 0.703 138 54 67 0
-1.4919 27.1586 -32.5237 -0.596 -0.633 0.494 137 66 77 0
3.5927 29.9923 -32.9089 -0.491 -0.856 0.162 84 15 27 0
5.9961 27.1216 -32.2787 0.557 -0.491 0.670 84 20 30 0
6.5746 30.9383 -32.9966 -0.002 -0.523 0.852 73 12 20 0
9.3941 34.5701 -33.6077 0.565 -0.789 0.242 65 17 25 0
10.9074 39.1442 -34.4421 0.826 -0.369 0.427 76 39 41 0
10.9530 39.6718 -34.5424 0.208 -0.815 0.540 74 43 43 0
