ply
format ascii 1.0
element vertex 833
property float x
property float y
property float z
property float nx
property float ny
property float nz
property uchar diffuse_red
property uchar diffuse_green
property uchar diffuse_blue
property uchar class
end_header
-1.6838 23.7952 -41.0177 0.509 -0.804 0.307 100 27 42 0
-1.5005 23.8848 -41.0369 0.520 -0.799 0.301 100 28 41 0
1.4515 23.7492 -40.9105 -0.425 -0.903 0.067 85 21 35 0
0.9668 25.3813 -41.3757 -0.179 -0.970 -0.165 85 21 35 0
1.0166 25.7848 -41.4856 -0.126 -0.771 0.625 84 22 35 0
1.2523 25.7566 -41.4707 0.021 -0.879 0.477 84 22 35 0
1.5164 25.6606 -41.4362 0.004 -0.869 0.494 83 20 34 0
7.0029 37.7601 -44.6112 -0.189 -0.887 -0.421 65 33 21 0
7.1330 38.0747 -44.6942 0.135 -0.985 0.110 62 32 20 0
7.4627 37.7802 -44.6029 0.159 -0.987 0.028 60 33 18 0
17.4203 44.3889 -46.1273 0.844 -0.279 -0.458 184 171 74 0
31.5907 33.6859 -42.7453 0.826 -0.433 0.362 190 181 172 0
44.5763 41.3298 -44.4642 0.924 -0.061 0.377 180 171 162 0
44.7690 42.3572 -44.7420 0.942 -0.068 0.328 180 171 162 0
45.1558 43.6183 -45.0785 0.815 -0.190 0.547 181 171 162 0
48.4458 57.9972 -48.9490 0.031 -0.901 -0.433 176 163 154 0
48.6524 57.9647 -48.9338 0.027 -0.904 -0.427 175 162 153 0
48.7769 55.7034 -48.3057 0.098 -0.872 -0.480 175 161 152 0
49.1787 55.5739 -48.2579 0.144 -0.875 -0.462 171 157 150 0
49.3832 55.6126 -48.2624 0.137 -0.877 -0.461 169 157 149 0
49.5874 55.6462 -48.2655 0.137 -0.877 -0.461 109 102 97 0
50.2275 52.2236 -47.3013 -0.059 -0.966 -0.250 254 254 253 0
50.5706 55.1204 -48.0907 -0.254 -0.943 -0.214 255 255 255 0
-56.8721 17.0443 -41.0589 -0.300 -0.952 -0.058 255 255 255 0
-56.7913 17.2541 -41.1147 0.609 -0.723 -0.325 135 135 135 0
-56.6383 17.3990 -41.1503 0.609 -0.723 -0.325 68 66 64 0
-21.3542 33.2047 -44.4526 -0.581 -0.720 -0.380 157 105 114 0
-17.9468 29.7512 -43.3877 -0.458 -0.781 -0.424 143 83 91 0
-15.2025 26.4089 -42.3741 0.443 -0.881 -0.163 135 73 84 0
-15.0316 26.5453 -42.4067 -0.382 -0.877 0.293 136 73 83 0
-14.8242 26.6196 -42.4210 -0.362 -0.898 0.251 135 70 81 0
-14.5061 26.5030 -42.3787 -0.362 -0.898 0.251 135 69 81 0
-14.1603 26.3367 -42.3218 -0.370 -0.868 0.330 134 67 78 0
-10.4827 23.7241 -41.4822 0.764 -0.258 0.591 124 53 63 0
-9.9172 23.5643 -41.4203 -0.324 -0.777 0.541 125 51 62 0
-10.0321 24.6448 -41.7241 0.685 -0.660 -0.310 123 47 59 0
-3.8543 22.6287 -40.9731 0.030 -0.791 0.610 109 39 51 0
-3.4677 22.3028 -40.8706 0.882 -0.446 -0.154 110 40 51 0
-3.0295 22.3280 -40.8640 0.455 -0.890 -0.003 107 37 48 0
-2.8255 22.3710 -40.8697 0.226 -0.952 0.207 107 37 47 0
-2.5669 22.3001 -40.8420 0.294 -0.934 0.205 109 38 49 0
-1.4891 23.8191 -41.2308 0.520 -0.799 0.301 101 30 42 0
-1.2846 23.8627 -41.2366 0.800 -0.534 0.273 113 43 54 0
1.2064 25.8231 -41.7044 -0.173 -0.964 0.202 85 23 36 0
1.4954 25.6691 -41.6527 -0.238 -0.965 0.111 83 21 34 0
2.4370 26.6167 -41.8870 0.899 -0.332 0.287 79 17 31 0
7.0766 36.7927 -44.5715 0.434 -0.862 0.263 70 33 20 0
6.3303 39.7547 -45.4177 0.157 -0.915 0.371 66 33 20 0
8.7635 47.5434 -47.5069 0.916 -0.178 0.359 139 136 49 0
16.7326 39.5374 -45.0360 0.500 -0.547 0.672 203 186 57 0
16.9972 39.3576 -44.9778 0.455 -0.571 0.683 201 185 60 0
17.8675 37.5253 -44.4417 0.113 -0.993 -0.024 198 181 59 0
17.0524 43.9550 -46.2537 0.842 -0.279 -0.462 194 178 64 0
17.5015 45.0144 -46.5342 0.805 -0.539 -0.250 188 170 72 0
17.0199 63.7694 -51.7610 0.977 0.070 0.199 175 178 161 0
43.3206 33.4112 -42.5122 0.457 -0.338 0.823 179 170 160 0
45.1549 43.1746 -45.1687 0.815 -0.171 0.554 178 168 160 0
46.9189 64.7129 -51.0996 0.856 -0.203 0.476 182 170 159 0
47.1572 65.4910 -51.3085 0.798 -0.181 0.574 182 170 159 0
47.3996 66.3511 -51.5400 0.850 -0.142 0.508 177 167 157 0
47.7487 55.3324 -48.4672 0.678 -0.529 -0.510 173 163 155 0
48.6190 56.8685 -48.8672 0.131 -0.985 -0.113 175 161 152 0
49.1907 55.7392 -48.5357 0.142 -0.879 -0.455 173 159 151 0
49.3947 55.7574 -48.5345 0.137 -0.877 -0.461 170 158 150 0
50.2360 52.2820 -47.5427 -0.069 -0.964 -0.259 254 254 253 0
-56.8048 16.9323 -41.2671 -0.196 -0.965 -0.172 255 255 255 0
-56.8870 17.2899 -41.3697 0.624 -0.709 -0.328 135 135 135 0
-56.2632 17.0061 -41.2706 -0.232 -0.965 -0.119 68 65 64 0
-56.5583 17.5596 -41.4347 0.601 -0.736 -0.311 228 220 213 0
-56.3689 17.6719 -41.4602 0.593 -0.743 -0.311 231 221 212 0
-20.3278 30.1624 -43.8137 0.998 -0.005 -0.065 195 162 164 0
-21.6505 33.6428 -44.8290 -0.581 -0.720 -0.380 157 107 116 0
-18.0081 30.2463 -43.7637 -0.473 -0.819 -0.323 141 81 90 0
-13.8624 27.9578 -42.9925 0.507 -0.861 0.048 129 59 69 0
-13.3208 27.8865 -42.9554 0.603 -0.795 0.073 126 56 66 0
-12.3722 26.6355 -42.5755 0.747 -0.663 0.051 124 55 65 0
-9.8322 23.7993 -41.7018 0.465 -0.696 -0.548 123 50 61 0
-5.3256 24.6274 -41.7908 -0.462 -0.883 -0.079 110 38 52 0
-1.4777 23.7534 -41.4246 0.520 -0.799 0.301 98 30 42 0
7.1481 36.5361 -44.7272 0.601 -0.799 -0.007 69 33 18 0
6.5919 39.6389 -45.6127 0.489 -0.829 0.273 63 34 18 0
8.6405 47.0750 -47.6278 0.890 -0.180 0.419 154 143 43 0
8.7714 47.4727 -47.7349 0.890 -0.180 0.419 160 147 44 0
16.5042 38.6115 -45.0117 0.158 -0.536 0.829 206 190 57 0
16.3221 63.3030 -51.9240 0.942 0.231 0.244 164 171 145 0
25.6734 29.4004 -42.1452 -0.168 -0.947 -0.273 185 185 173 0
39.3885 48.4359 -47.0357 0.831 -0.239 0.503 181 174 164 0
39.4855 51.4264 -47.8691 0.378 -0.563 0.735 181 174 164 0
46.9148 64.2921 -51.2328 0.825 -0.209 0.525 182 169 158 0
47.1486 64.9003 -51.3955 0.827 -0.211 0.521 180 168 157 0
47.3857 65.5725 -51.5760 0.828 -0.228 0.513 176 166 155 0
47.6255 66.2800 -51.7663 0.834 -0.224 0.504 174 164 155 0
48.2279 57.3782 -49.2573 0.625 -0.672 -0.396 172 161 154 0
48.6255 56.9047 -49.1123 0.130 -0.984 -0.124 174 161 152 0
48.8791 58.2019 -49.4671 0.638 -0.694 -0.333 174 159 151 0
49.2017 55.8810 -48.8077 0.135 -0.883 -0.450 173 158 151 0
49.4064 55.9097 -48.8093 0.135 -0.880 -0.456 170 157 149 0
50.2441 52.3313 -47.7818 -0.071 -0.964 -0.257 254 254 253 0
50.5791 55.0572 -48.5337 -0.109 -0.971 -0.211 255 255 255 0
-57.2704 17.3025 -41.6280 -0.190 -0.979 -0.079 255 255 255 0
-56.9816 17.3246 -41.6248 0.624 -0.709 -0.328 136 136 136 0
-56.3804 17.0618 -41.5314 -0.244 -0.963 -0.114 67 64 63 0
-56.6500 17.5922 -41.6894 0.601 -0.736 -0.311 229 221 214 0
-56.4107 17.9456 -41.7812 0.489 -0.790 -0.371 230 220 212 0
-56.2921 18.1241 -41.8276 0.523 -0.751 -0.402 230 221 214 0
-26.5721 34.3614 -45.4364 0.972 -0.181 -0.150 228 219 212 0
-26.6035 35.2846 -45.6973 0.975 -0.211 -0.075 226 215 210 0
-20.2626 30.4403 -44.1282 0.938 0.043 0.345 179 146 149 0
-18.9573 29.1667 -43.7273 -0.575 -0.817 -0.035 160 113 121 0
-14.2249 28.5526 -43.4011 0.622 -0.767 0.160 128 60 69 0
-14.0417 28.6757 -43.4299 0.275 -0.961 -0.022 127 59 68 0
-13.6309 28.3936 -43.3372 0.411 -0.857 -0.311 126 58 67 0
-13.2892 28.2320 -43.2806 0.412 -0.820 -0.397 123 56 65 0
-12.3899 27.0657 -42.9231 0.287 -0.799 -0.528 122 55 64 0
-11.3459 26.0687 -42.6086 -0.258 -0.752 0.607 123 52 62 0
-4.5409 24.8739 -42.0519 0.657 -0.500 -0.564 105 37 47 0
-3.5606 24.7546 -41.9865 0.021 -0.830 0.558 103 32 42 0
-1.4648 23.6843 -41.6173 0.550 -0.778 0.305 95 29 41 0
1.3764 24.8251 -41.8465 -0.591 -0.804 0.059 82 20 33 0
6.6724 39.3510 -45.7645 0.607 -0.776 0.172 63 35 17 0
7.1063 38.7467 -45.5803 -0.074 -0.974 0.214 62 39 21 0
5.4828 44.4785 -47.2466 0.719 -0.136 0.681 58 37 19 0
8.6391 47.0363 -47.8645 0.920 -0.180 0.348 169 151 43 0
8.8086 47.3005 -47.9333 0.620 -0.221 0.753 175 156 45 0
8.9975 47.4996 -47.9833 0.629 -0.205 0.750 178 159 46 0
9.3537 47.9788 -48.1067 0.660 -0.058 0.749 186 168 50 0
9.5704 48.0845 -48.1294 0.688 -0.046 0.724 192 172 53 0
9.9059 47.7648 -48.0285 0.772 -0.127 0.623 193 174 51 0
14.9604 40.2889 -45.7601 0.203 -0.927 -0.317 211 196 55 0
15.3165 39.7710 -45.6028 -0.006 -0.958 -0.288 211 195 56 0
17.6502 39.3253 -45.4017 0.171 -0.561 0.810 200 187 59 0
17.8625 39.3603 -45.4047 0.182 -0.633 0.753 198 184 60 0
18.6165 37.0189 -44.7211 0.715 -0.671 0.194 197 182 61 0
19.3648 41.5583 -45.9749 0.306 -0.816 0.491 175 165 74 0
39.2644 21.7836 -39.7632 0.812 -0.192 -0.551 184 174 165 0
46.6813 63.3815 -51.2342 0.716 -0.122 0.687 180 167 158 0
46.9116 63.9205 -51.3784 0.716 -0.122 0.687 178 165 156 0
47.1435 64.4630 -51.5237 0.716 -0.122 0.687 179 166 157 0
48.4231 56.8678 -49.3439 0.112 -0.941 -0.319 173 160 151 0
48.5658 55.0660 -48.8320 0.534 -0.795 -0.286 173 160 151 0
49.0141 56.1663 -49.1273 0.167 -0.891 -0.422 171 157 148 0
49.2126 56.0216 -49.0801 0.135 -0.883 -0.450 170 156 148 0
49.4178 56.0528 -49.0823 0.135 -0.880 -0.456 168 156 148 0
49.6228 56.0855 -49.0848 0.135 -0.880 -0.456 109 102 97 0
50.5743 54.8481 -48.7056 -0.149 -0.958 -0.243 255 255 255 0
-57.3719 17.3430 -41.8856 -0.190 -0.979 -0.079 255 255 255 0
-57.0764 17.3593 -41.8804 0.624 -0.709 -0.328 135 135 136 0
-56.5066 17.1256 -41.7953 -0.249 -0.961 -0.118 67 64 63 0
-56.7420 17.6248 -41.9446 0.601 -0.736 -0.311 231 223 216 0
-56.5852 17.7676 -41.9798 0.601 -0.736 -0.311 234 224 215 0
-25.0007 33.6123 -45.4230 0.892 -0.333 -0.305 222 212 205 0
-19.1114 29.3726 -44.0265 -0.533 -0.834 -0.145 165 121 127 0
-18.0612 28.5002 -43.7445 -0.315 -0.821 -0.476 158 103 111 0
-17.6908 28.3148 -43.6797 0.044 -0.725 -0.687 160 102 109 0
-16.1806 27.9341 -43.5218 -0.490 -0.840 0.232 135 78 85 0
-16.4290 28.7930 -43.7734 -0.377 -0.697 0.610 137 77 85 0
-14.2546 28.1139 -43.5089 0.846 -0.474 0.246 130 65 73 0
-14.3226 28.6791 -43.6713 0.643 -0.745 0.180 128 62 71 0
-14.1484 28.8189 -43.7051 0.293 -0.955 -0.038 127 60 69 0
-13.8462 28.7314 -43.6703 0.335 -0.941 -0.057 125 60 68 0
-13.6058 28.7528 -43.6684 0.298 -0.955 -0.009 123 58 66 0
-11.8052 26.4118 -42.9454 0.182 -0.974 -0.132 120 55 63 0
-9.8239 24.1328 -42.2340 0.750 -0.582 -0.314 122 50 62 0
-8.8377 24.9606 -42.4359 0.345 -0.936 -0.068 120 43 58 0
-8.5471 24.8621 -42.3984 0.212 -0.628 0.749 118 41 58 0
-4.5282 23.8676 -41.9834 0.369 -0.927 -0.070 103 36 45 0
-4.3101 23.8913 -41.9829 0.161 -0.980 0.120 103 36 45 0
-4.5363 24.8221 -42.2541 0.526 -0.763 -0.377 103 36 45 0
0.4439 24.8785 -42.1051 0.837 -0.547 0.001 82 20 34 0
4.2597 36.6853 -45.3242 0.971 0.238 -0.032 70 32 19 0
5.7969 36.3224 -45.1704 0.917 -0.015 0.399 72 34 21 0
4.8459 46.3974 -48.0567 0.749 -0.375 0.546 54 35 17 0
5.0234 46.6246 -48.1152 0.965 -0.189 0.182 50 37 19 0
4.9188 50.1455 -49.1164 0.696 0.172 0.697 48 54 21 0
8.5748 47.2135 -48.1644 0.919 -0.142 0.368 176 157 44 0
8.8837 46.9974 -48.0930 0.619 -0.179 0.765 181 160 46 0
9.8943 46.8900 -48.0290 0.827 -0.178 0.533 195 175 51 0
15.1578 40.3634 -46.0053 0.166 -0.928 -0.334 213 198 55 0
19.4198 41.2638 -46.1192 0.467 -0.821 0.328 180 165 70 0
46.1737 58.9019 -50.2306 0.890 -0.087 0.447 181 168 160 0
47.1238 63.3789 -51.4677 0.641 -0.078 0.764 175 165 155 0
48.4820 58.4656 -50.0305 -0.162 -0.987 -0.025 173 163 152 0
49.2237 56.1637 -49.3536 0.135 -0.880 -0.456 172 159 150 0
49.4292 56.1964 -49.3561 0.135 -0.880 -0.456 169 157 149 0
49.6345 56.2291 -49.3586 0.135 -0.880 -0.456 109 102 97 0
50.6003 55.2453 -49.0478 -0.151 -0.974 -0.168 255 255 255 0
-57.4965 17.4043 -42.1504 -0.192 -0.977 -0.087 255 255 255 0
-57.0698 17.3021 -42.1068 -0.256 -0.962 -0.090 136 136 136 0
-56.6427 17.1983 -42.0627 -0.250 -0.962 -0.113 66 63 61 0
-56.8965 17.7144 -42.2185 0.565 -0.752 -0.340 228 220 214 0
-57.4158 19.6408 -42.7855 0.068 -0.876 -0.478 232 223 215 0
-26.5989 34.7368 -46.0464 0.940 -0.277 -0.201 226 217 209 0
-27.0059 35.8065 -46.3652 0.938 -0.285 -0.199 226 217 209 0
-26.3908 35.7355 -46.3241 0.829 -0.547 0.116 223 213 206 0
-26.8268 37.3169 -46.7899 0.849 -0.232 0.475 223 211 204 0
-18.3572 28.9434 -44.1149 -0.298 -0.826 -0.478 159 105 112 0
-15.4445 26.2110 -43.2370 0.425 -0.860 -0.284 141 84 92 0
-16.2212 28.3920 -43.8853 -0.341 -0.739 0.582 138 79 86 0
-13.6792 26.6190 -43.2936 0.320 -0.947 -0.014 134 70 78 0
-14.0712 27.7457 -43.6281 0.871 -0.443 0.212 133 68 76 0
-14.2004 28.4173 -43.8241 0.653 -0.717 -0.246 131 66 73 0
-14.0880 28.6658 -43.8911 0.673 -0.724 0.150 128 63 71 0
-13.7178 28.4568 -43.8190 0.666 -0.701 -0.254 126 60 69 0
-13.4856 28.4919 -43.8211 0.827 -0.549 -0.119 124 58 67 0
-11.8201 26.3940 -43.1664 0.180 -0.972 -0.153 121 55 64 0
-11.0238 25.3960 -42.8548 -0.055 -0.657 0.752 121 54 63 0
-10.2603 24.4481 -42.5586 0.688 -0.599 -0.410 123 53 63 0
-10.0155 24.4395 -42.5479 0.773 -0.357 0.525 123 52 63 0
-9.8487 24.5732 -42.5803 0.874 -0.230 0.428 129 55 66 0
-8.5821 24.8847 -42.6263 0.178 -0.640 0.748 119 42 58 0
-7.6690 23.6054 -42.2305 0.356 -0.597 0.719 119 42 58 0
-6.1273 24.7030 -42.4913 -0.093 -0.994 -0.058 113 40 51 0
-5.9108 24.7374 -42.4937 0.116 -0.969 0.217 110 38 50 0
-5.5307 24.4450 -42.3975 0.405 -0.914 0.037 109 38 49 0
-5.4709 24.7909 -42.4941 0.230 -0.963 0.139 106 38 47 0
-5.0480 24.8767 -42.5042 0.540 -0.821 0.184 102 37 45 0
-4.8862 25.0200 -42.5396 0.535 -0.823 0.191 102 37 45 0
-2.1326 24.5510 -42.3125 0.161 -0.923 0.349 94 27 40 0
4.2172 36.7611 -45.5795 0.971 0.238 -0.036 70 32 17 0
5.5524 48.0825 -48.7628 -0.250 -0.187 0.950 50 58 25 0
10.0549 46.2766 -48.0953 0.305 -0.855 -0.419 198 181 51 0
14.1366 39.8932 -46.1366 -0.272 -0.954 -0.124 213 199 52 0
13.8419 42.7959 -46.9744 0.245 -0.896 -0.370 214 200 52 0
14.0941 42.7156 -46.9429 0.101 -0.985 -0.143 214 200 51 0
18.2514 42.5020 -46.7411 0.056 -0.933 0.355 195 179 64 0
28.8175 46.4542 -47.5102 0.336 -0.940 0.052 190 183 175 0
29.0625 46.2212 -47.4354 -0.391 -0.700 0.598 188 182 174 0
47.3572 63.7920 -51.8264 0.777 -0.053 0.627 176 167 156 0
47.5976 64.6182 -52.0538 0.793 -0.071 0.604 176 167 156 0
47.8452 57.9966 -50.1571 0.985 -0.166 -0.039 174 166 153 0
48.5423 60.0991 -50.7331 0.066 -0.719 0.692 173 163 152 0
49.2490 56.6618 -49.7289 -0.360 -0.837 -0.413 173 160 151 0
49.4503 56.5736 -49.6969 -0.336 -0.837 -0.432 170 158 149 0
50.5754 54.6394 -49.1072 -0.096 -0.986 -0.134 255 255 255 0
-57.2193 17.3862 -42.3792 -0.282 -0.956 -0.075 135 135 135 0
-57.0761 17.8268 -42.5007 0.504 -0.787 -0.357 223 214 210 0
-56.7290 18.0836 -42.5623 0.487 -0.793 -0.367 232 223 217 0
-56.7082 19.5191 -42.9736 0.046 -0.520 0.853 232 225 215 0
-60.6470 23.4953 -44.2512 -0.548 -0.754 0.362 233 226 216 0
-27.2572 37.4892 -47.1111 0.803 -0.104 0.587 224 213 207 0
-25.8971 37.6104 -47.0988 -0.015 -0.794 -0.607 213 202 196 0
-18.5752 29.2570 -44.4478 -0.308 -0.769 -0.560 160 108 114 0
-15.4654 26.2006 -43.4629 0.486 -0.797 -0.360 145 88 97 0
-15.5701 27.2356 -43.7635 0.642 -0.688 -0.337 138 81 88 0
-13.7365 28.4441 -44.0469 0.477 -0.719 -0.506 128 62 71 0
-12.7907 27.2038 -43.6581 0.502 -0.623 -0.599 125 59 69 0
-12.5816 27.2747 -43.6712 0.434 -0.630 -0.644 124 57 67 0
-11.8883 26.4722 -43.4169 0.120 -0.985 -0.121 123 56 66 0
-10.3173 24.5081 -42.7988 0.660 -0.627 -0.414 122 53 63 0
-9.9965 24.3611 -42.7455 0.782 -0.343 0.520 122 52 62 0
-7.6414 23.5102 -42.4197 0.346 -0.589 0.731 115 41 54 0
-6.6067 26.0751 -43.1200 0.785 -0.265 -0.560 110 39 51 0
-4.9308 23.2069 -42.2388 0.253 -0.928 -0.274 108 38 49 0
-4.8566 23.5182 -42.3255 0.230 -0.898 -0.375 105 36 47 0
-5.0468 24.8315 -42.7091 0.540 -0.821 0.184 103 36 45 0
-2.4374 21.8269 -41.7563 0.155 -0.567 0.809 103 36 46 0
-2.9332 23.3231 -42.2030 0.445 -0.862 -0.242 102 34 45 0
-2.5579 23.9637 -42.3738 0.039 -0.972 0.231 99 29 43 0
-2.4342 24.1829 -42.4324 0.015 -0.983 0.185 97 29 44 0
-1.9406 24.5849 -42.5307 0.105 -0.981 -0.162 93 28 43 0
-1.1265 24.2920 -42.4184 -0.288 -0.809 0.512 86 25 39 0
-0.6720 24.2823 -42.3999 0.039 -0.719 0.694 86 26 38 0
5.4786 33.8408 -44.9302 -0.260 -0.523 0.811 72 34 19 0
6.6960 37.0264 -45.8023 0.184 -0.494 0.850 63 31 18 0
5.0245 47.3141 -48.8129 0.264 -0.565 0.782 54 53 25 0
14.8493 37.9819 -45.7942 -0.053 -0.775 -0.629 216 202 54 0
13.8264 42.8160 -47.2170 0.289 -0.852 -0.435 216 202 54 0
18.6202 39.7945 -46.1838 0.438 -0.794 0.421 199 183 63 0
29.0094 46.6243 -47.7842 0.363 -0.920 0.148 188 181 173 0
46.2385 62.3429 -51.6988 0.080 -0.825 0.559 178 168 159 0
46.4562 62.3133 -51.6828 0.144 -0.804 0.577 179 168 159 0
48.5434 59.9778 -50.9402 -0.218 -0.753 0.621 174 164 154 0
50.5808 54.6319 -49.3353 -0.087 -0.988 -0.130 255 255 255 0
-57.3407 17.4448 -42.6439 -0.254 -0.962 -0.101 135 135 135 0
-56.8893 17.3200 -42.5919 -0.254 -0.962 -0.101 66 63 61 0
-57.1860 17.8754 -42.7628 0.504 -0.787 -0.357 223 214 210 0
-60.2910 23.1087 -44.3842 -0.602 -0.723 0.339 234 225 216 0
-25.7105 37.2600 -47.2479 0.201 -0.742 -0.640 214 203 197 0
-24.2875 35.8839 -46.8001 0.700 -0.698 0.152 213 199 191 0
-19.1564 29.7362 -44.8429 -0.154 -0.814 -0.560 166 128 129 0
-18.9238 29.7865 -44.8492 -0.117 -0.783 -0.611 162 116 119 0
-18.5718 29.6381 -44.7939 -0.095 -0.773 -0.627 160 110 116 0
-15.6870 27.3887 -44.0421 0.648 -0.681 -0.341 138 83 88 0
-12.7776 27.1351 -43.8659 0.340 -0.834 -0.435 127 61 71 0
-11.9130 26.4718 -43.6438 0.200 -0.978 0.051 123 58 66 0
-10.3985 24.6118 -43.0529 0.677 -0.600 -0.427 121 54 63 0
-10.2620 24.8023 -43.1031 -0.199 -0.980 0.000 121 54 63 0
-7.5952 23.3799 -42.5979 0.383 -0.800 0.463 114 45 54 0
-7.3686 25.2028 -43.1164 0.025 -0.999 -0.043 111 41 53 0
-5.2086 25.1159 -43.0149 0.342 -0.928 0.146 105 37 48 0
-2.8761 24.1128 -42.6426 0.184 -0.818 0.544 101 30 44 0
-2.5358 24.3565 -42.7010 -0.130 -0.833 0.537 96 28 43 0
-2.3803 24.5104 -42.7399 0.034 -0.989 -0.142 93 27 41 0
-2.1935 24.5980 -42.7586 0.123 -0.887 -0.445 94 28 42 0
-1.9800 24.6282 -42.7598 0.123 -0.887 -0.445 93 29 43 0
-1.7589 24.6415 -42.7558 0.122 -0.891 -0.437 90 27 41 0
-1.1017 27.7462 -43.6293 0.066 -0.839 -0.541 84 25 36 0
3.6208 25.6447 -42.8552 0.217 -0.573 0.790 75 22 30 0
5.8943 33.2750 -44.9786 -0.259 -0.787 0.559 74 37 23 0
6.5542 34.0054 -45.1662 0.862 -0.371 0.347 69 35 22 0
6.1712 35.7856 -45.6940 0.652 -0.357 0.669 70 34 24 0
6.8259 36.5967 -45.9051 0.176 -0.582 0.794 62 33 21 0
8.3268 45.4249 -48.4018 0.995 -0.083 0.056 178 158 43 0
11.0226 37.9127 -46.1367 -0.315 -0.834 0.452 188 169 48 0
10.6604 42.3682 -47.4364 -0.027 -0.838 -0.545 199 184 50 0
13.0193 38.9017 -46.3517 -0.405 -0.906 0.124 211 196 52 0
13.8084 38.4924 -46.2055 -0.131 -0.978 0.161 213 200 51 0
14.1559 38.0318 -46.0602 0.061 -0.913 0.402 215 201 52 0
14.3793 38.0334 -46.0527 -0.045 -0.961 0.273 216 203 53 0
14.7238 41.0658 -46.9164 0.350 -0.914 -0.206 218 204 53 0
14.8741 41.3736 -47.0000 0.527 -0.842 0.115 217 203 52 0
15.1062 41.3579 -46.9872 -0.028 -0.988 -0.149 216 202 54 0
18.3507 43.0019 -47.3473 0.005 -0.949 0.316 196 180 58 0
18.4298 43.6777 -47.5397 0.245 -0.916 0.317 194 178 60 0
22.8844 46.2818 -48.1342 0.772 -0.106 0.627 187 186 173 0
46.2406 62.2025 -51.9061 0.080 -0.825 0.559 178 169 160 0
46.4582 62.1782 -51.8914 0.031 -0.685 0.727 179 169 161 0
48.2955 58.6946 -50.8202 0.585 -0.758 -0.288 177 168 157 0
50.6760 56.3810 -50.0678 0.490 -0.770 -0.409 255 255 255 0
-57.4801 17.5196 -42.9146 -0.284 -0.955 -0.082 135 135 135 0
-57.0044 17.3732 -42.8549 -0.284 -0.955 -0.082 66 63 62 0
-57.2859 17.9148 -43.0225 0.511 -0.785 -0.349 223 214 208 0
-57.1200 18.0507 -43.0560 0.504 -0.787 -0.357 229 217 211 0
-60.7183 23.4536 -44.7564 -0.564 -0.675 0.476 234 225 216 0
-20.8279 25.6824 -43.9627 -0.127 -0.946 0.299 225 220 214 0
-25.2577 35.1355 -46.8704 -0.117 -0.942 0.316 220 211 206 0
-15.7518 27.4530 -44.2939 0.648 -0.681 -0.341 141 87 93 0
-14.2032 28.2841 -44.4796 0.473 -0.877 0.085 131 70 77 0
-12.4627 26.9708 -44.0349 0.656 -0.618 0.433 125 59 69 0
-11.9533 26.4996 -43.8796 0.058 -0.948 0.314 123 58 67 0
-10.9994 25.2191 -43.4729 -0.382 -0.788 0.483 122 57 65 0
-10.5628 24.8666 -43.3547 0.486 -0.840 -0.240 123 57 65 0
-10.2773 24.7863 -43.3210 -0.208 -0.978 0.006 123 56 65 0
-7.5038 23.1640 -42.7493 0.411 -0.764 0.498 115 48 57 0
-7.6833 23.9501 -42.9842 0.281 -0.615 0.736 115 46 56 0
-7.5184 24.9911 -43.2809 0.184 -0.897 0.402 112 41 54 0
-7.3331 25.0909 -43.3032 0.231 -0.892 0.389 110 41 54 0
-2.8422 23.9999 -42.8238 0.184 -0.818 0.544 100 29 45 0
-2.3173 23.3730 -42.6226 -0.199 -0.864 0.462 100 30 45 0
-2.0701 23.3278 -42.6005 -0.199 -0.864 0.462 97 29 45 0
-2.9381 25.6567 -43.3088 0.706 -0.643 0.297 94 28 42 0
-3.3188 26.9647 -43.7027 0.575 -0.791 -0.209 94 29 43 0
-1.4285 28.4430 -44.0641 0.177 -0.825 -0.536 82 25 34 0
0.6154 27.9840 -43.8568 0.691 -0.114 -0.714 79 22 31 0
3.4631 27.6593 -43.6596 0.571 -0.800 -0.185 72 21 29 0
6.5891 33.8630 -45.3498 0.865 -0.372 0.336 68 34 22 0
6.9982 33.3377 -45.1823 0.649 -0.499 0.575 69 35 25 0
6.4154 35.7086 -45.8925 0.393 -0.875 -0.283 68 35 24 0
6.2685 36.8240 -46.2220 0.034 -0.909 -0.416 66 33 24 0
4.3960 46.8248 -49.1965 0.148 -0.674 -0.724 55 45 27 0
13.4794 38.8375 -46.5467 -0.457 -0.889 -0.028 214 201 53 0
13.7874 38.5318 -46.4467 0.023 -0.964 0.265 215 204 54 0
14.4540 37.7111 -46.1840 0.086 -0.947 0.309 217 206 53 0
14.4862 38.4397 -46.3947 -0.037 -0.799 0.600 217 205 52 0
14.7151 38.4210 -46.3810 -0.223 -0.972 0.077 217 205 53 0
18.3409 44.0507 -47.8862 0.622 -0.602 0.501 195 180 59 0
19.0437 41.8384 -47.2178 0.182 -0.972 0.148 191 177 61 0
22.8742 46.3062 -48.3780 0.703 -0.070 0.708 185 186 172 0
39.3223 45.0838 -47.4284 0.970 -0.157 -0.186 182 173 164 0
46.8836 61.4926 -51.9245 -0.219 -0.451 0.865 179 167 160 0
48.4456 70.2552 -54.4150 -0.150 -0.305 0.940 175 165 155 0
-57.6026 17.5789 -43.1808 -0.284 -0.955 -0.082 135 135 135 0
-57.1278 17.4338 -43.1209 -0.293 -0.953 -0.073 66 63 61 0
-57.0586 17.6563 -43.1834 -0.118 -0.977 -0.176 221 211 205 0
-56.3558 17.3014 -43.0537 -0.224 -0.968 -0.114 227 215 207 0
-21.2486 23.9084 -43.6911 0.652 -0.659 -0.375 230 225 219 0
-20.6930 25.8289 -44.2324 0.004 -0.918 0.396 225 220 214 0
-25.9680 36.2067 -47.4623 -0.222 -0.961 0.165 222 211 207 0
-24.7225 34.6825 -46.9706 0.408 -0.771 -0.489 221 209 205 0
-19.3637 30.8575 -45.6541 0.850 -0.021 0.526 164 122 126 0
-19.2163 31.4980 -45.8360 0.718 -0.042 0.695 156 107 113 0
-15.8043 27.0646 -44.4134 0.113 -0.858 -0.502 146 93 99 0
-15.5830 27.1195 -44.4213 0.814 -0.581 -0.006 142 88 95 0
-13.5726 27.1271 -44.3494 0.774 -0.632 0.041 133 72 79 0
-12.6440 26.8061 -44.2213 0.060 -0.970 -0.236 125 62 71 0
-12.4204 26.8498 -44.2258 0.898 -0.361 0.250 126 61 71 0
-12.0001 26.5389 -44.1194 0.033 -0.978 0.208 125 59 69 0
-10.4566 24.6295 -43.5039 0.525 -0.851 -0.004 124 56 67 0
-10.2595 24.7098 -43.5202 -0.208 -0.978 0.033 125 57 68 0
-9.1549 25.7894 -43.7952 0.792 -0.611 0.019 116 47 57 0
-7.5184 23.1488 -42.9625 0.357 -0.772 0.526 117 48 58 0
-7.6507 23.8451 -43.1710 0.301 -0.617 0.728 116 46 56 0
-7.1813 23.8465 -43.1541 0.570 -0.491 0.659 114 43 54 0
-7.5105 24.9326 -43.4839 0.176 -0.893 0.415 113 42 54 0
-7.4190 25.2139 -43.5628 -0.097 -0.889 0.448 112 41 55 0
-5.6909 25.5303 -43.5916 0.085 -0.584 0.807 112 38 53 0
-2.8801 25.4910 -43.4764 0.823 -0.568 -0.003 93 28 42 0
1.6077 28.8511 -44.2937 -0.465 -0.867 -0.179 74 23 29 0
3.0788 27.4595 -43.8324 0.376 -0.926 -0.027 75 24 31 0
3.2493 27.5932 -43.8652 0.472 -0.875 -0.111 75 24 31 0
3.4362 27.6862 -43.8855 0.416 -0.909 0.027 74 23 30 0
3.9833 27.4319 -43.7909 0.404 -0.775 0.485 71 21 31 0
4.6434 30.3852 -44.6304 0.496 -0.327 0.804 73 27 29 0
6.3371 35.8958 -46.1797 0.428 -0.867 -0.256 68 36 25 0
6.3038 37.3697 -46.6121 0.072 -0.907 -0.416 63 36 27 0
4.1714 46.6935 -49.4178 -0.533 -0.759 -0.373 56 44 28 0
4.2711 47.1613 -49.5510 0.394 -0.580 -0.713 58 51 30 0
14.9923 38.1753 -46.5272 -0.394 -0.917 0.063 219 208 56 0
18.1663 34.1498 -45.2327 0.602 -0.483 -0.635 212 200 54 0
18.9964 42.0219 -47.5046 0.054 -0.988 0.146 193 179 62 0
47.5379 70.3973 -54.7512 -0.641 -0.768 -0.006 177 164 158 0
48.6644 56.9817 -50.7857 0.854 -0.499 -0.148 174 164 154 0
49.0747 56.9127 -50.7504 0.392 -0.840 -0.375 171 161 151 0
-57.7254 17.6383 -43.4477 -0.284 -0.955 -0.082 136 135 135 0
-57.2473 17.4907 -43.3863 -0.293 -0.953 -0.073 66 62 61 0
-57.1848 17.7197 -43.4513 -0.118 -0.977 -0.176 219 209 203 0
-56.4754 17.3593 -43.3186 -0.220 -0.969 -0.116 224 212 204 0
-19.1977 30.5339 -45.7930 0.848 -0.023 0.530 169 130 133 0
-19.1687 30.9265 -45.9074 0.717 -0.049 0.695 159 117 121 0
-19.0587 31.1861 -45.9797 0.717 -0.049 0.695 159 112 117 0
-12.4342 24.6462 -43.8055 0.428 -0.888 0.169 139 78 85 0
-12.9607 26.0039 -44.2249 0.046 -0.842 0.538 137 75 83 0
-11.1972 24.1793 -43.6215 0.329 -0.815 -0.477 132 67 77 0
-11.9010 26.3155 -44.2767 0.708 -0.696 0.121 125 59 71 0
-10.5228 24.7059 -43.7511 0.472 -0.881 -0.034 125 57 69 0
-9.3740 25.2537 -43.8691 0.592 -0.700 -0.399 120 52 61 0
-9.9778 27.2943 -44.4924 0.810 -0.143 -0.569 117 50 59 0
-9.8163 27.4512 -44.5325 0.816 -0.152 -0.558 115 48 57 0
-9.9411 28.1528 -44.7437 0.846 -0.313 -0.431 113 47 55 0
-8.9467 26.7242 -44.2858 -0.102 -0.861 -0.498 112 46 56 0
-7.4882 24.8464 -43.6782 0.214 -0.908 0.361 113 44 55 0
-2.7113 23.6417 -43.1439 0.149 -0.867 0.476 100 29 43 0
3.0625 27.4591 -44.0501 0.376 -0.926 -0.027 73 23 31 0
3.2551 27.5377 -44.0660 0.376 -0.926 -0.027 74 23 30 0
3.4477 27.6162 -44.0818 0.376 -0.926 -0.027 73 22 30 0
4.7418 30.0825 -44.7590 0.304 -0.537 0.787 73 29 30 0
4.3316 33.6490 -45.8241 -0.219 -0.785 -0.580 73 32 25 0
5.6882 33.0864 -45.6075 0.458 -0.829 -0.322 73 35 24 0
6.1204 32.5130 -45.4225 0.385 -0.706 0.594 73 35 24 0
6.3272 34.5370 -46.0104 0.946 -0.252 0.205 71 35 23 0
6.1511 35.7180 -46.3646 0.455 -0.856 -0.245 69 35 23 0
6.3034 35.9524 -46.4278 0.428 -0.867 -0.256 69 37 24 0
4.8668 46.8392 -49.6861 -0.773 -0.495 0.397 74 78 44 0
12.4331 36.0464 -46.2248 0.078 -0.671 0.737 209 196 53 0
14.6578 38.5640 -46.8820 -0.030 -0.999 0.039 219 208 56 0
14.5059 40.9079 -47.5776 0.938 -0.242 0.250 219 209 58 0
17.9395 34.1748 -45.4667 0.602 -0.483 -0.635 216 202 56 0
18.1027 40.9705 -47.4607 0.002 -0.948 -0.318 208 192 53 0
19.6520 39.9567 -47.1039 0.388 -0.869 0.307 192 180 62 0
39.3297 56.0838 -51.1098 0.945 -0.162 -0.283 182 173 166 0
47.5430 70.3999 -55.0142 -0.458 -0.878 0.137 179 164 160 0
-57.8661 17.7138 -43.7206 -0.340 -0.940 -0.039 136 135 136 0
-57.3669 17.5476 -43.6523 -0.293 -0.953 -0.073 66 63 62 0
-57.3284 17.7986 -43.7251 -0.131 -0.978 -0.164 221 213 208 0
-56.6092 17.4300 -43.5884 -0.223 -0.970 -0.096 227 215 210 0
-54.3227 15.6248 -42.9660 0.007 -0.994 -0.113 230 219 215 0
-21.7325 24.5435 -44.3560 0.720 -0.369 -0.587 231 227 220 0
-24.3652 34.9047 -47.5256 0.673 -0.738 -0.051 222 207 202 0
-24.8097 36.9798 -48.1572 0.554 -0.828 0.082 217 201 194 0
-24.0189 36.1564 -47.8830 0.627 -0.777 0.056 213 198 192 0
-13.3480 26.6408 -44.6552 -0.192 -0.975 0.111 141 78 87 0
-9.8665 23.9053 -43.7114 0.461 -0.863 0.205 127 59 71 0
-9.8499 27.4702 -44.7665 0.773 -0.267 -0.575 115 49 58 0
-9.9369 28.1000 -44.9564 0.848 -0.257 -0.464 114 47 57 0
-9.0376 26.8533 -44.5527 -0.085 -0.859 -0.504 112 46 56 0
-7.6992 25.2093 -44.0144 0.100 -0.907 0.410 111 44 56 0
-5.3748 25.2803 -43.9461 0.114 -0.993 -0.034 112 39 51 0
-4.8543 26.1305 -44.1780 0.164 -0.933 0.321 102 32 43 0
-4.2669 25.4014 -43.9395 0.671 -0.735 0.099 102 32 44 0
-2.3154 23.7230 -43.3675 0.642 -0.761 -0.094 97 31 44 0
3.0442 27.4635 -44.2695 0.392 -0.920 -0.016 83 32 41 0
3.2327 27.5527 -44.2887 0.389 -0.921 -0.014 83 32 40 0
3.4244 27.6339 -44.3053 0.389 -0.921 -0.014 76 25 34 0
4.5283 30.0083 -44.9662 -0.067 -0.457 0.887 72 29 32 0
5.6375 28.2500 -44.4028 0.280 -0.250 0.927 74 34 30 0
5.8690 35.8187 -46.6354 0.529 -0.781 0.332 68 37 22 0
5.3164 38.1016 -47.3328 0.315 -0.877 -0.364 66 37 22 0
3.7647 46.3025 -49.8211 -0.682 -0.682 0.265 60 47 32 0
4.5451 47.0068 -49.9997 -0.770 -0.499 0.399 83 78 49 0
7.0170 43.1596 -48.7654 0.366 -0.286 0.885 122 113 47 0
15.8642 41.8266 -48.0309 0.552 -0.521 0.651 221 206 60 0
16.0238 42.1102 -48.1088 0.554 -0.536 0.637 218 203 58 0
16.9152 40.2665 -47.5286 0.837 -0.381 0.392 217 202 57 0
18.2840 39.1480 -47.1448 0.484 -0.741 -0.466 209 195 54 0
23.1657 40.8568 -47.4634 0.305 -0.326 0.895 184 182 167 0
39.1195 40.5136 -46.7493 0.977 0.012 0.215 185 174 170 0
46.6263 58.7312 -51.8562 0.721 -0.377 0.582 179 167 163 0
47.5663 71.1430 -55.4959 -0.133 -0.937 -0.323 180 166 161 0
47.9834 69.5156 -54.9980 -0.318 -0.586 0.745 177 164 157 0
48.6853 57.2762 -51.3463 0.850 -0.510 -0.131 176 163 157 0
-57.9820 17.7667 -43.9866 -0.340 -0.940 -0.039 136 135 136 0
-57.4655 17.5854 -43.9123 -0.309 -0.950 -0.048 67 64 62 0
-57.5734 17.9696 -44.0311 -0.021 -0.997 -0.070 225 216 212 0
-57.2535 17.9658 -44.0174 -0.033 -0.997 -0.067 230 219 214 0
-41.8231 19.0996 -43.7512 0.607 -0.721 -0.334 233 224 215 0
-23.6341 33.6865 -47.3859 0.425 -0.900 0.094 221 207 200 0
-23.7704 35.7022 -47.9918 0.576 -0.817 -0.005 214 200 193 0
-14.0897 27.0179 -45.0251 0.156 -0.986 0.059 143 82 93 0
-14.0032 27.3060 -45.1075 0.331 -0.943 0.013 143 81 93 0
-9.9371 24.8706 -44.2226 0.072 -0.851 0.520 124 57 70 0
-7.7072 22.0592 -43.2976 0.129 -0.940 -0.315 120 53 64 0
-7.4852 22.0797 -43.2950 0.273 -0.927 -0.258 119 52 62 0
-7.1805 22.3821 -43.3731 0.731 -0.679 -0.060 116 48 58 0
-6.9979 22.4769 -43.3943 0.765 -0.643 0.022 116 49 60 0
-8.2292 25.7248 -44.4103 0.706 -0.698 -0.123 112 46 58 0
-7.6799 25.1287 -44.2112 0.085 -0.924 0.374 111 45 57 0
-7.1380 24.9985 -44.1512 -0.317 -0.867 0.385 111 43 56 0
-5.3886 25.2652 -44.1621 0.117 -0.993 -0.025 111 40 51 0
-4.8580 26.0949 -44.3886 0.316 -0.901 0.297 103 33 44 0
-4.2618 25.3483 -44.1428 0.652 -0.608 0.453 102 32 44 0
-2.6978 26.4593 -44.4126 0.369 -0.700 0.612 91 30 44 0
-2.1409 25.7541 -44.1807 -0.022 -0.754 0.657 88 28 42 0
-0.4120 28.0686 -44.8027 0.649 -0.259 -0.715 80 26 37 0
-0.2346 28.1919 -44.8325 0.665 -0.428 0.611 80 25 38 0
-0.0988 28.4125 -44.8929 0.038 -0.592 0.805 80 23 37 0
0.1504 28.3693 -44.8703 0.045 -0.588 0.808 78 21 35 0
1.1259 28.2333 -44.7916 0.082 -0.494 0.865 75 24 36 0
1.4790 28.4836 -44.8523 -0.004 -0.923 -0.386 76 26 35 0
1.6897 28.5263 -44.8568 0.001 -0.924 -0.383 77 26 34 0
4.5753 29.8431 -45.1362 0.112 -0.515 0.850 74 30 32 0
4.8611 29.6831 -45.0774 0.682 -0.410 0.605 73 32 30 0
5.8896 33.7296 -46.2429 0.836 -0.425 -0.347 70 36 26 0
6.1058 33.7683 -46.2460 0.099 -0.866 -0.491 69 37 27 0
6.2258 34.0827 -46.3350 0.205 -0.836 -0.509 67 37 27 0
5.1651 37.8084 -47.4867 0.512 -0.816 -0.268 65 37 26 0
4.7455 46.3455 -50.0471 -0.742 -0.457 0.491 88 80 51 0
7.0424 43.0352 -48.9708 0.017 -0.831 0.556 143 132 55 0
11.9676 40.0187 -47.8790 0.574 -0.666 0.477 220 207 56 0
13.7858 39.2277 -47.5722 -0.103 -0.994 -0.025 222 213 55 0
14.9674 39.9114 -47.7296 0.779 -0.627 0.008 221 213 58 0
15.8650 41.7842 -48.2526 0.548 -0.593 0.591 223 208 62 0
16.0476 41.9724 -48.3015 0.561 -0.591 0.579 221 206 61 0
16.2797 41.9545 -48.2871 0.551 -0.538 0.638 221 206 61 0
16.3403 42.6598 -48.4949 0.734 -0.392 0.554 220 206 60 0
18.9649 41.0262 -47.9053 0.722 -0.570 -0.393 201 187 60 0
29.9767 35.4999 -45.8275 0.280 -0.951 -0.133 188 182 173 0
30.1012 39.3157 -46.9597 0.738 -0.428 -0.522 190 183 174 0
30.2486 39.7800 -47.0922 0.730 -0.440 -0.523 191 184 175 0
36.0102 56.3873 -51.8155 0.867 -0.047 0.497 185 175 166 0
38.9176 36.5092 -45.7782 0.947 0.025 0.320 185 174 166 0
45.7635 57.6179 -51.8004 0.117 -0.929 0.351 178 167 161 0
46.1871 57.6407 -51.7906 0.366 -0.930 -0.048 177 166 161 0
48.2199 69.6218 -55.2812 -0.340 -0.930 0.137 176 164 156 0
48.6823 57.0454 -51.5155 0.925 -0.276 0.260 175 162 156 0
-58.0755 17.7993 -44.2461 -0.309 -0.950 -0.050 136 135 136 0
-57.5777 17.6353 -44.1771 -0.309 -0.950 -0.048 68 64 63 0
-57.6520 17.9893 -44.2862 -0.021 -0.997 -0.070 225 215 211 0
-54.5908 15.7691 -43.4984 -0.094 -0.983 -0.157 228 219 213 0
-25.6456 38.2277 -49.0770 0.927 -0.355 -0.121 217 204 196 0
-25.5941 39.0797 -49.3304 0.694 -0.485 -0.531 213 199 192 0
-18.1421 30.3911 -46.4280 -0.278 -0.868 -0.413 165 118 123 0
-13.9160 26.6693 -45.1435 0.475 -0.874 -0.102 142 83 95 0
-7.5495 22.1575 -43.5367 0.299 -0.930 -0.214 120 53 65 0
-7.3751 22.2674 -43.5627 0.658 -0.746 -0.108 116 48 59 0
-7.2293 22.4318 -43.6062 0.771 -0.603 0.207 116 48 59 0
-7.0094 22.4563 -43.6047 0.739 -0.600 0.306 116 50 60 0
-8.2111 25.6465 -44.6092 -0.205 -0.941 0.269 112 46 58 0
-7.6618 25.0505 -44.4086 0.085 -0.924 0.374 111 45 58 0
-7.0288 24.7433 -44.2912 -0.341 -0.856 0.389 110 43 57 0
-6.7034 24.5690 -44.2260 -0.111 -0.870 0.480 110 43 57 0
-5.3892 25.2235 -44.3698 0.121 -0.992 -0.026 112 44 54 0
-4.0710 25.8763 -44.5129 -0.346 -0.886 0.309 100 32 45 0
-2.6103 26.2281 -44.5601 0.553 -0.688 0.470 89 30 42 0
-2.1745 25.7849 -44.4098 0.011 -0.755 0.656 88 29 41 0
-0.0363 28.2247 -45.0560 -0.246 -0.462 0.852 79 24 39 0
1.1433 28.6988 -45.1511 0.475 -0.349 0.808 75 25 36 0
1.2142 29.0817 -45.2631 0.053 -0.843 0.535 76 26 36 0
3.9677 29.6161 -45.3134 0.115 -0.451 0.885 73 28 31 0
5.6822 34.2756 -46.6420 0.764 -0.491 -0.419 70 36 28 0
6.1239 34.3334 -46.6417 0.835 -0.504 -0.219 66 38 29 0
4.6310 39.3069 -48.1925 -0.079 -0.486 -0.870 64 39 29 0
3.1839 47.1857 -50.6125 -0.665 -0.725 -0.180 61 49 32 0
4.4962 45.5260 -50.0625 -0.803 -0.543 0.247 87 79 52 0
4.8952 45.0738 -49.9110 -0.798 -0.546 0.254 90 81 55 0
5.6813 43.4249 -49.3852 -0.127 -0.541 0.831 90 80 51 0
6.8888 42.7090 -49.1224 -0.204 -0.808 0.552 128 116 42 0
14.9016 39.2453 -47.7642 0.868 -0.474 -0.149 221 215 57 0
14.9142 40.0817 -48.0145 0.530 -0.741 -0.412 221 215 57 0
15.8637 41.7508 -48.4770 0.599 -0.581 0.551 223 209 61 0
16.1499 41.5081 -48.3928 0.562 -0.509 0.652 222 207 62 0
16.3034 41.8165 -48.4792 0.550 -0.538 0.639 222 207 62 0
17.0645 40.5083 -48.0566 0.838 -0.457 0.298 217 206 57 0
17.7532 41.4148 -48.3009 0.164 -0.984 -0.066 211 199 55 0
19.1886 40.9820 -48.1138 0.427 -0.743 -0.516 200 186 58 0
22.6959 43.3857 -48.6946 0.337 -0.510 0.791 184 181 164 0
22.3073 48.0641 -50.1128 0.443 -0.308 0.842 185 182 167 0
30.0711 39.5379 -47.2466 0.285 -0.945 -0.162 190 183 173 0
46.5777 55.8227 -51.4705 0.110 -0.946 0.304 179 166 160 0
-58.1916 17.8522 -44.5131 -0.309 -0.950 -0.048 136 135 135 0
-57.6901 17.6853 -44.4424 -0.309 -0.950 -0.048 68 64 63 0
-18.3050 30.6177 -46.7423 -0.315 -0.846 -0.430 167 125 127 0
-12.8931 27.0238 -45.4381 -0.306 -0.949 -0.072 140 78 87 0
-7.5881 22.1872 -43.7635 0.254 -0.781 0.571 123 57 67 0
-7.4112 22.2928 -43.7881 0.260 -0.770 0.582 119 53 64 0
-7.1394 22.2195 -43.7549 0.266 -0.780 0.566 118 52 62 0
-6.8523 22.1159 -43.7120 0.748 -0.599 0.284 118 52 64 0
-8.3848 25.9352 -44.9265 -0.159 -0.825 0.542 113 47 59 0
-6.5867 24.2984 -44.3596 -0.279 -0.873 0.400 110 46 60 0
-4.4663 26.1690 -44.8377 -0.400 -0.900 0.174 102 34 47 0
-2.6443 26.2590 -44.7908 0.677 -0.702 -0.223 88 31 40 0
-2.1332 25.6532 -44.5872 0.118 -0.853 0.508 86 29 38 0
1.2449 28.9656 -45.4491 0.053 -0.843 0.535 75 28 37 0
5.0264 33.4806 -46.6574 -0.029 -0.781 -0.624 75 38 30 0
5.3906 33.7529 -46.7247 0.779 -0.483 -0.400 73 36 28 0
5.5221 34.0325 -46.8037 0.738 -0.442 -0.510 72 36 28 0
6.0086 33.9623 -46.7627 0.227 -0.787 -0.574 69 40 32 0
6.1363 34.2559 -46.8461 0.863 -0.488 -0.131 65 40 30 0
5.3587 38.5432 -48.1710 0.563 -0.559 -0.609 62 44 32 0
3.8968 46.5300 -50.6398 -0.705 -0.692 0.156 87 81 56 0
9.7198 46.2140 -50.3077 -0.329 -0.223 0.918 217 209 50 0
14.7548 41.5721 -48.7027 0.669 -0.742 0.046 222 216 61 0
16.0158 42.0272 -48.7887 0.103 -0.837 0.538 224 211 62 0
16.8905 40.2573 -48.2193 0.855 -0.500 0.137 220 209 60 0
17.7569 41.3612 -48.5170 0.163 -0.945 -0.284 212 201 57 0
21.5783 42.2467 -48.6288 -0.127 -0.989 0.071 173 158 89 0
21.8041 42.2189 -48.6112 -0.127 -0.989 0.071 171 158 95 0
22.3655 47.7011 -50.2422 0.426 -0.361 0.829 186 183 168 0
26.4177 29.2067 -44.4984 0.572 -0.668 0.476 188 184 172 0
47.3920 55.0528 -51.4424 0.586 -0.125 0.801 174 164 155 0
47.9715 53.8720 -51.0626 0.661 -0.699 -0.271 173 163 153 0
50.8834 59.6076 -52.6744 -0.043 -0.887 -0.460 255 255 255 0
-58.3245 17.9201 -44.7860 -0.350 -0.936 -0.040 135 135 135 0
-57.8027 17.7355 -44.7084 -0.309 -0.950 -0.048 68 65 63 0
-66.6607 28.2780 -48.2749 0.210 -0.418 0.884 236 225 221 0
-7.0710 22.0480 -43.9162 0.768 -0.550 0.328 122 56 68 0
-2.6816 26.2970 -45.0241 0.677 -0.702 -0.223 88 31 40 0
1.1770 29.0873 -45.7111 0.006 -0.963 0.270 75 28 38 0
1.4529 28.9759 -45.6659 0.184 -0.816 0.548 75 28 37 0
5.5843 33.8156 -46.9636 0.737 -0.474 -0.483 72 38 30 0
5.7388 34.0314 -47.0228 0.807 -0.568 -0.159 72 41 32 0
5.9814 33.9979 -47.0025 0.241 -0.759 -0.605 71 43 33 0
4.0958 45.8849 -50.6883 -0.771 -0.630 0.091 90 83 61 0
14.7828 42.3360 -49.1687 0.283 -0.954 0.101 226 217 61 0
15.2746 41.2847 -48.8292 0.689 -0.712 -0.135 225 216 58 0
16.2137 41.1660 -48.7543 0.734 -0.609 -0.299 224 213 62 0
16.4059 41.3098 -48.7900 0.642 -0.383 0.664 223 212 61 0
21.5793 42.2068 -48.8480 -0.048 -0.996 0.080 173 157 83 0
22.2512 42.1451 -48.8014 -0.118 -0.991 0.065 172 164 115 0
22.4625 42.1886 -48.8059 -0.088 -0.996 0.026 180 175 139 0
22.6814 42.1901 -48.7973 -0.049 -0.997 0.066 183 179 155 0
22.6692 45.9544 -49.9403 0.604 -0.566 0.561 184 183 166 0
22.8487 46.2134 -50.0114 0.619 -0.565 0.545 186 184 169 0
28.1486 53.3213 -51.9492 0.690 -0.195 0.697 189 184 174 0
28.0075 56.3450 -52.8727 0.916 0.157 0.368 189 183 173 0
36.5993 66.3366 -55.5494 0.893 0.050 0.447 186 176 167 0
47.9845 54.1363 -51.3751 0.577 -0.703 -0.417 174 165 154 0
-58.4451 17.9768 -45.0556 -0.350 -0.936 -0.040 135 135 135 0
-57.8960 17.7680 -44.9687 -0.350 -0.936 -0.040 68 65 63 0
-66.5718 27.8173 -48.4030 0.698 -0.056 0.714 235 223 220 0
-66.3739 27.9550 -48.4367 0.660 -0.150 0.736 235 224 221 0
-63.8354 25.9173 -47.7075 -0.125 -0.321 0.939 237 226 222 0
-15.5679 18.3380 -43.3578 -0.160 -0.966 0.202 229 219 217 0
-12.6543 26.9517 -45.8650 0.224 -0.918 -0.328 143 81 92 0
-10.5494 25.3725 -45.2941 -0.186 -0.879 0.440 132 66 79 0
-7.1947 21.8012 -44.0621 0.566 -0.732 -0.378 122 56 68 0
-6.9797 21.8333 -44.0629 0.640 -0.625 -0.448 122 56 68 0
-5.6228 25.5651 -45.1451 0.615 -0.786 -0.060 105 42 53 0
1.1724 29.0562 -45.9246 0.019 -0.964 0.265 75 28 38 0
1.5321 28.7418 -45.8134 0.206 -0.775 0.597 75 28 37 0
2.5848 27.8375 -45.4929 0.655 -0.754 0.048 73 30 35 0
3.2578 36.3113 -48.0519 0.997 0.055 0.050 75 38 34 0
12.6377 39.1012 -48.5082 -0.221 -0.772 0.597 224 219 54 0
13.1460 38.9125 -48.4292 -0.250 -0.751 0.612 226 221 60 0
14.7638 42.3724 -49.4174 0.213 -0.965 0.150 227 219 62 0
15.6492 41.5783 -49.1376 0.774 -0.621 -0.123 225 216 61 0
16.1321 41.4664 -49.0831 0.746 -0.572 -0.340 224 214 61 0
21.3534 42.1986 -49.0864 -0.048 -0.996 0.080 176 160 75 0
21.7849 42.2500 -49.0840 -0.201 -0.977 -0.068 171 156 85 0
22.6869 42.1263 -49.0081 0.107 -0.981 0.162 184 180 151 0
22.7033 45.7280 -50.1072 0.625 -0.554 0.550 184 183 166 0
22.8088 46.4062 -50.3098 0.779 -0.566 0.268 185 183 167 0
36.7904 67.2819 -56.0944 0.949 -0.006 0.315 185 175 168 0
39.8455 53.8984 -51.8791 0.613 0.097 0.784 184 172 164 0
48.0181 55.0636 -51.8902 0.335 -0.755 0.564 172 165 151 0
49.1525 57.9472 -52.7229 0.389 -0.848 -0.360 173 162 155 0
49.3730 58.2522 -52.8067 -0.339 -0.843 -0.418 172 160 154 0
-66.4904 27.3659 -48.5327 0.466 -0.225 0.856 237 223 222 0
-24.9179 37.7710 -49.9444 0.366 -0.458 -0.810 215 204 200 0
-13.0134 26.6581 -46.0197 -0.112 -0.763 -0.637 144 83 95 0
-9.9819 27.4505 -46.1330 0.326 -0.858 0.397 123 57 69 0
-9.6113 27.2136 -46.0443 0.678 -0.573 0.461 120 54 66 0
-9.3787 27.2361 -46.0412 0.743 -0.527 0.413 119 53 65 0
-9.2269 27.4127 -46.0890 0.743 -0.527 0.413 117 51 63 0
-5.2260 26.1511 -45.5297 -0.320 -0.930 0.180 101 38 47 0
1.1962 27.3135 -45.6110 0.742 -0.392 0.544 79 29 38 0
1.1732 29.0122 -46.1339 0.038 -0.955 0.294 75 28 37 0
1.3716 29.0893 -46.1490 -0.202 -0.977 0.069 75 29 36 0
2.6174 27.7156 -45.6736 0.764 -0.591 -0.260 74 30 35 0
2.9712 35.7548 -48.1279 0.885 0.057 -0.462 76 38 35 0
3.4585 36.3707 -48.2962 0.995 0.044 -0.086 77 39 36 0
3.6736 36.4344 -48.3065 0.980 -0.014 0.198 75 39 36 0
3.9402 37.0152 -48.4735 0.993 -0.115 -0.007 71 40 35 0
4.0741 37.3077 -48.5576 0.952 -0.273 -0.137 73 42 37 0
8.0213 42.7887 -50.0718 0.696 -0.468 0.544 198 185 55 0
8.1128 43.2803 -50.2189 0.142 -0.607 0.782 203 191 54 0
8.7375 42.8131 -50.0486 0.678 -0.537 0.502 209 198 57 0
8.8633 43.1967 -50.1610 0.673 -0.543 0.501 211 200 59 0
9.0492 43.3820 -50.2099 0.673 -0.543 0.501 215 204 60 0
12.3476 39.2807 -48.8085 -0.163 -0.584 0.795 225 219 59 0
12.6329 39.0786 -48.7342 -0.240 -0.811 0.533 225 220 57 0
14.9840 39.6513 -48.8092 0.873 -0.487 0.014 228 222 66 0
14.9136 41.7351 -49.4523 0.580 -0.811 0.079 227 220 66 0
15.2496 41.3073 -49.3065 0.693 -0.682 0.233 226 219 65 0
15.5196 43.0133 -49.8189 0.392 -0.919 0.048 226 217 61 0
16.2945 41.6993 -49.3820 0.543 -0.682 0.490 224 215 62 0
18.7414 41.8706 -49.3296 0.118 -0.682 -0.722 206 194 55 0
36.5426 63.0033 -55.0571 0.732 0.024 0.681 185 176 167 0
36.6936 64.5686 -55.5314 0.877 0.071 0.476 185 176 167 0
39.3094 56.9364 -53.0747 0.782 0.159 0.602 186 173 167 0
-58.6789 18.0832 -45.5941 -0.343 -0.938 -0.046 136 135 135 0
-58.1422 17.8865 -45.5098 -0.330 -0.943 -0.054 69 65 63 0
-57.2005 17.8948 -45.4713 -0.312 -0.949 -0.032 233 220 217 0
-65.1798 26.7357 -48.5519 0.625 -0.158 0.764 235 224 220 0
-15.6971 18.0780 -43.7148 -0.014 -0.924 0.382 230 221 216 0
-12.2751 14.5675 -42.4805 -0.036 -0.483 0.875 226 216 214 0
-14.0025 27.9160 -46.6810 0.262 -0.663 -0.701 146 88 98 0
-13.2079 26.9572 -46.3500 -0.114 -0.764 -0.635 146 86 97 0
-13.2479 27.4729 -46.5111 -0.181 -0.763 -0.620 143 84 96 0
-12.9591 27.4053 -46.4776 -0.119 -0.804 -0.583 143 83 95 0
-11.4976 27.4685 -46.4333 -0.050 -0.996 -0.070 134 69 83 0
-11.3635 27.6785 -46.4923 -0.397 -0.910 0.117 130 65 79 0
-10.4731 27.4038 -46.3686 -0.373 -0.910 0.181 123 59 72 0
-9.4393 26.3833 -46.0080 -0.053 -0.971 -0.233 124 58 72 0
-9.1877 26.3671 -45.9920 -0.100 -0.963 -0.251 122 56 68 0
-8.9408 26.3589 -45.9787 -0.105 -0.967 -0.232 120 54 66 0
-3.1166 27.1058 -45.9551 -0.390 -0.502 0.772 89 32 41 0
-2.8128 26.9549 -45.8952 -0.422 -0.499 0.757 87 33 42 0
1.1815 28.9500 -46.3372 0.038 -0.955 0.294 76 29 39 0
2.8928 25.8993 -45.3197 0.874 -0.382 0.299 75 30 37 0
2.3313 27.8212 -45.9382 0.885 -0.303 0.353 75 31 37 0
2.6629 36.5384 -48.6176 0.885 0.057 -0.462 76 40 37 0
2.2683 38.2494 -49.1635 0.892 0.071 -0.446 75 39 38 0
3.8225 35.3342 -48.1948 0.993 -0.111 -0.045 75 40 37 0
3.9523 35.6259 -48.2792 0.994 -0.103 -0.048 74 40 36 0
1.5476 46.4887 -51.7412 -0.342 -0.843 0.415 77 56 49 0
1.5457 47.2309 -51.9706 -0.359 -0.923 0.140 77 60 52 0
1.7888 47.2756 -51.9738 0.155 -0.931 -0.331 78 64 54 0
1.9335 47.6046 -52.0692 0.112 -0.851 -0.513 81 69 57 0
1.7071 49.0186 -52.5160 -0.428 -0.720 -0.546 84 72 58 0
2.0552 48.7635 -52.4220 -0.433 -0.722 -0.540 88 76 63 0
1.7257 50.5046 -52.9744 -0.397 -0.692 -0.603 90 81 65 0
7.9859 42.8609 -50.3388 0.103 -0.616 0.781 201 188 55 0
8.3632 43.2104 -50.4304 0.646 -0.584 0.491 208 197 56 0
8.6507 43.0583 -50.3708 0.722 -0.534 0.440 211 200 58 0
8.8937 43.0523 -50.3583 0.673 -0.543 0.501 214 203 59 0
10.4149 42.7657 -50.2033 0.408 -0.047 0.912 223 216 61 0
15.2791 43.0122 -50.0670 0.213 -0.942 -0.259 227 219 67 0
15.5700 42.7661 -49.9783 0.147 -0.957 -0.251 226 219 64 0
15.7231 43.0869 -50.0707 0.392 -0.919 0.048 225 218 62 0
16.5665 40.5224 -49.2413 0.457 -0.614 0.644 224 216 65 0
17.9169 42.5048 -49.7950 -0.132 -0.750 0.648 213 202 60 0
18.1048 42.6791 -49.8406 0.068 -0.993 0.100 212 201 58 0
18.3198 42.7318 -49.8475 0.128 -0.989 0.077 209 198 55 0
35.9867 35.2269 -46.7566 -0.002 -0.637 -0.771 187 176 170 0
36.6198 61.5916 -54.8763 0.713 0.022 0.700 185 175 166 0
39.8389 54.2010 -52.4518 0.539 -0.672 0.508 182 172 164 0
40.1068 52.4678 -51.9045 0.623 0.100 0.776 181 172 165 0
45.0013 66.8501 -56.1352 0.227 -0.927 0.299 174 165 160 0
45.2305 66.9479 -56.1554 0.252 -0.931 0.265 175 166 160 0
45.4553 66.6187 -56.0438 0.168 -0.986 0.004 178 169 163 0
48.0248 61.9169 -54.4786 0.975 -0.181 0.130 173 165 152 0
49.1797 58.3666 -53.3310 0.248 -0.888 -0.388 174 162 153 0
-58.2645 17.9449 -45.7810 -0.330 -0.943 -0.054 69 64 63 0
-57.3113 17.9439 -45.7383 -0.288 -0.955 -0.069 233 221 215 0
-26.3573 39.0626 -50.9279 0.450 -0.452 -0.770 220 209 204 0
-13.4146 27.2773 -46.6890 -0.049 -0.724 -0.688 147 91 100 0
-8.7196 26.3547 -46.1935 -0.129 -0.987 -0.098 119 53 67 0
-8.4294 26.2620 -46.1518 -0.052 -0.980 -0.192 116 52 65 0
-8.2903 26.9264 -46.3522 0.380 -0.912 -0.155 115 52 64 0
-5.1694 25.9493 -45.9097 -0.255 -0.927 0.274 103 40 50 0
-3.2673 28.4067 -46.5891 0.153 -0.525 0.837 87 34 44 0
-2.9174 29.1966 -46.8191 0.088 -0.736 0.672 86 33 43 0
-2.5648 28.9402 -46.7237 -0.252 -0.735 0.630 86 33 43 0
1.2620 28.7139 -46.4833 -0.175 -0.693 0.699 73 30 40 0
2.0298 38.8482 -49.5997 0.889 0.061 -0.453 75 40 39 0
3.9171 35.0331 -48.3298 0.943 0.046 0.330 74 41 39 0
3.9900 35.4795 -48.4653 0.944 0.039 0.328 75 43 40 0
1.1847 46.7393 -52.0904 -0.409 -0.840 0.358 82 59 53 0
1.5125 46.5420 -52.0144 -0.348 -0.831 0.434 83 62 57 0
1.4091 47.5752 -52.3402 -0.106 -0.975 0.197 81 65 58 0
1.6774 47.5496 -52.3203 0.439 -0.869 0.228 81 68 60 0
1.8188 47.8900 -52.4199 0.392 -0.907 -0.153 83 71 61 0
1.6286 49.2002 -52.8356 -0.356 -0.804 -0.476 84 72 60 0
1.9540 49.0135 -52.7632 -0.356 -0.804 -0.476 90 78 66 0
8.6796 39.7945 -49.5983 0.470 -0.697 0.541 201 188 54 0
7.8466 43.2709 -50.7160 0.123 -0.780 0.614 203 191 55 0
8.1316 43.1324 -50.6603 0.193 -0.674 0.713 208 196 57 0
8.3851 43.0949 -50.6374 0.737 -0.472 0.485 210 199 57 0
8.6623 42.9772 -50.5885 0.714 -0.534 0.453 214 204 58 0
8.5143 45.9251 -51.5115 0.912 -0.223 0.344 221 211 60 0
8.5563 46.6211 -51.7260 0.815 -0.179 0.551 222 213 60 0
10.8219 42.1309 -50.2294 0.369 -0.839 0.400 228 219 63 0
15.2911 42.9235 -50.2772 0.191 -0.963 -0.189 227 221 70 0
15.5375 42.8608 -50.2467 0.138 -0.957 -0.257 225 219 66 0
15.7752 42.8318 -50.2272 0.136 -0.958 -0.254 224 217 64 0
16.3236 41.5005 -49.7889 0.668 -0.743 -0.038 224 217 66 0
16.8551 44.1259 -50.5815 0.975 -0.211 -0.075 215 209 62 0
16.9341 44.7934 -50.7855 0.823 -0.554 -0.122 214 208 62 0
18.5571 42.6441 -50.0452 0.335 -0.893 0.299 209 198 59 0
21.7370 56.5781 -54.2356 0.798 0.141 0.586 188 184 172 0
35.9485 35.7426 -47.1268 0.019 -0.634 -0.773 189 180 172 0
39.2772 46.5650 -50.3432 0.964 -0.073 -0.255 184 173 169 0
40.1412 51.4046 -51.8093 0.666 0.052 0.744 182 173 164 0
45.0064 66.9963 -56.4401 0.286 -0.812 0.508 176 167 159 0
45.2340 66.8803 -56.3940 0.224 -0.936 0.272 176 167 160 0
45.4598 66.6500 -56.3124 0.234 -0.968 0.096 177 168 160 0
45.6916 67.0103 -56.4140 0.204 -0.978 0.036 177 168 161 0
49.1931 58.5695 -53.6344 0.247 -0.899 -0.363 173 160 152 0
-58.4051 18.0196 -46.0588 -0.315 -0.947 -0.061 68 65 63 0
-66.7857 27.7863 -49.4918 0.519 -0.062 0.852 234 223 217 0
-17.6700 31.9535 -48.5749 0.889 0.013 0.458 157 115 119 0
-17.6206 32.3272 -48.6895 0.933 0.054 0.357 155 110 117 0
-8.5774 26.5017 -46.4590 0.107 -0.987 0.119 116 53 67 0
-8.4048 27.1037 -46.6394 0.347 -0.937 0.039 114 52 65 0
-2.3814 29.0144 -46.9647 -0.195 -0.675 0.712 85 32 41 0
0.4830 28.8797 -46.7931 0.655 -0.285 0.700 75 31 41 0
1.2969 28.5879 -46.6650 -0.376 -0.927 0.007 72 30 40 0
1.4454 28.7842 -46.7197 -0.225 -0.938 0.262 73 31 41 0
2.0932 38.6327 -49.7703 0.912 0.066 -0.405 74 42 41 0
3.7901 36.6399 -49.0704 0.991 0.046 -0.129 83 54 51 0
1.0986 47.6721 -52.6420 -0.135 -0.964 0.230 86 68 63 0
1.3702 47.6393 -52.6195 -0.135 -0.964 0.230 84 69 63 0
1.5421 47.8921 -52.6908 0.154 -0.871 0.467 80 70 61 0
1.6286 48.3940 -52.8438 0.866 -0.311 0.390 81 72 61 0
1.5552 49.3667 -53.1513 0.554 -0.770 -0.318 84 74 62 0
1.8141 49.3763 -53.1426 0.545 -0.780 -0.308 93 81 69 0
1.8889 49.9282 -53.3118 -0.463 -0.782 -0.417 98 90 73 0
8.4366 39.7736 -49.8403 0.029 -0.837 0.547 200 186 56 0
7.9353 43.7318 -51.1008 0.711 -0.402 0.576 210 199 58 0
8.5277 43.3807 -50.9642 0.568 -0.456 0.685 217 207 59 0
8.8681 43.0520 -50.8460 0.722 -0.527 0.449 218 209 57 0
8.6950 44.4451 -51.2895 0.902 -0.395 0.172 221 212 58 0
8.6528 45.4125 -51.5940 0.946 -0.280 0.163 223 214 60 0
15.5269 42.8652 -50.4866 0.136 -0.958 -0.254 227 221 70 0
16.1059 41.4203 -50.0086 0.548 -0.795 0.261 226 220 67 0
16.2408 41.8082 -50.1238 0.504 -0.729 0.463 226 219 68 0
16.8275 45.2236 -51.1654 0.895 -0.430 0.117 215 210 60 0
18.4798 42.9618 -50.3834 0.343 -0.869 0.358 210 198 62 0
32.7934 19.9177 -42.5300 0.994 0.076 -0.075 193 184 175 0
45.2343 66.4408 -56.5164 0.027 -0.756 0.653 175 166 156 0
45.4677 67.0108 -56.6841 0.416 -0.887 -0.201 177 168 158 0
45.6902 66.5372 -56.5259 0.342 -0.723 0.601 178 169 159 0
45.9183 66.6077 -56.5376 0.349 -0.727 0.591 177 169 159 0
