ply
format ascii 1.0
element vertex 812
property float x
property float y
property float z
property float nx
property float ny
property float nz
property uchar diffuse_red
property uchar diffuse_green
property uchar diffuse_blue
property uchar class
end_header
48.0800 61.8884 -64.6134 0.985 -0.140 0.103 147 135 121 0
-62.6315 19.1784 -54.4655 0.247 -0.947 -0.205 255 255 255 0
-62.3676 19.2322 -54.4714 0.290 -0.931 -0.220 255 255 255 0
-62.1415 19.3202 -54.4930 0.228 -0.953 -0.202 136 136 136 0
-61.8878 19.3830 -54.5030 0.228 -0.953 -0.202 68 65 65 0
-61.6521 19.4621 -54.5206 0.195 -0.953 -0.233 228 218 219 0
-61.3904 19.5173 -54.5272 0.195 -0.953 -0.233 232 220 219 0
-58.7721 27.3744 -57.4631 -0.698 -0.667 0.261 237 228 223 0
-25.2952 35.1511 -58.5919 0.579 -0.572 0.581 225 219 221 0
-18.6590 38.8029 -59.6446 0.418 -0.908 0.010 209 202 210 0
-16.8194 36.3453 -58.5734 -0.040 -0.983 -0.178 207 199 208 0
-16.8021 36.8340 -58.7644 0.087 -0.975 -0.207 207 198 207 0
-14.4029 33.7436 -57.4123 0.381 -0.065 0.922 205 196 207 0
-14.4009 34.2559 -57.6134 0.268 -0.140 0.953 206 196 207 0
-15.1333 36.7498 -58.6353 0.483 -0.198 0.853 207 195 207 0
-14.1391 35.3087 -58.0120 0.299 -0.387 0.872 208 196 208 0
-9.8170 28.1949 -54.9687 0.150 -0.395 0.906 205 195 206 0
-14.0314 38.3357 -59.1948 -0.363 -0.827 0.429 202 194 205 0
-13.7076 38.2256 -59.1330 -0.363 -0.827 0.429 199 192 203 0
-11.4353 35.7158 -58.0163 0.106 -0.913 0.395 195 192 201 0
-11.1467 35.6596 -57.9776 0.227 -0.940 0.254 194 191 200 0
-10.8658 35.6184 -57.9453 0.104 -0.958 0.269 194 191 200 0
-10.5625 36.0852 -58.1112 0.719 -0.552 0.421 192 189 198 0
-10.3861 36.2679 -58.1728 0.719 -0.552 0.421 194 188 198 0
-4.7456 35.6995 -57.6250 0.372 -0.757 0.536 192 190 202 0
-5.2447 39.3907 -59.1037 0.174 -0.403 0.898 192 192 202 0
-3.9696 44.8257 -61.1654 -0.294 -0.703 0.648 194 192 204 0
-1.6328 44.2080 -60.7883 -0.073 -0.589 -0.805 193 196 201 0
2.6576 37.0583 -57.7329 -0.169 -0.974 -0.153 198 199 204 0
7.3097 33.7254 -56.1559 0.169 -0.449 0.878 193 194 186 0
10.4917 39.6318 -58.2931 0.691 -0.659 0.299 204 208 88 0
11.5514 38.2915 -57.7056 0.899 -0.341 0.274 204 209 81 0
11.7078 38.5813 -57.8104 0.906 -0.334 0.259 203 209 81 0
11.9851 40.2222 -58.4391 0.959 -0.066 0.274 203 210 80 0
12.1183 40.6232 -58.5889 0.942 -0.126 0.311 203 210 80 0
14.9803 43.4540 -59.5363 -0.050 -0.589 -0.807 191 196 67 0
14.2253 47.9359 -61.3404 -0.202 -0.603 -0.772 189 195 68 0
17.0250 39.3788 -57.8178 0.458 -0.728 -0.510 181 189 65 0
17.8098 38.8618 -57.5696 0.707 -0.619 -0.342 174 181 65 0
18.8401 47.7817 -61.0143 0.442 -0.059 0.895 154 155 62 0
20.1714 45.6111 -60.0850 -0.452 -0.665 0.595 149 142 74 0
22.8108 46.4359 -60.2572 -0.131 -0.301 0.945 173 166 148 0
23.0274 46.5247 -60.2796 -0.134 -0.324 0.937 176 169 151 0
23.5815 47.4473 -60.6101 0.373 -0.922 0.107 179 170 154 0
23.7777 47.6867 -60.6929 -0.125 -0.988 0.091 181 172 157 0
24.1805 46.4745 -60.1935 0.176 -0.546 0.819 181 172 158 0
23.7939 54.3261 -63.3001 -0.353 -0.807 -0.473 182 170 161 0
24.0410 54.2875 -63.2707 -0.345 -0.809 -0.475 185 173 164 0
26.4631 41.1042 -57.9525 0.800 -0.330 0.501 183 172 165 0
32.7561 34.0432 -54.8167 0.956 -0.084 0.281 180 166 157 0
33.2191 44.3078 -58.8223 0.040 -0.997 0.069 173 163 151 0
35.5499 40.0046 -56.9978 0.949 0.134 0.284 168 158 146 0
39.1015 53.1447 -61.9553 0.248 -0.426 -0.870 162 152 140 0
41.6935 42.3110 -57.5503 0.902 -0.259 -0.345 161 144 134 0
41.8990 44.3640 -58.3450 0.849 -0.287 -0.442 159 143 133 0
42.3260 47.9132 -59.7147 0.810 -0.262 -0.525 158 144 133 0
46.5084 36.8667 -55.1346 0.620 -0.673 -0.402 150 137 124 0
49.4668 62.7833 -65.1453 -0.327 -0.942 -0.078 144 131 121 0
-62.7393 19.2173 -54.7473 0.240 -0.946 -0.216 254 254 254 0
-62.4701 19.2665 -54.7511 0.290 -0.931 -0.220 254 254 254 0
-62.2325 19.3444 -54.7680 0.290 -0.931 -0.220 135 135 136 0
-61.9950 19.4222 -54.7848 0.290 -0.931 -0.220 69 65 65 0
-61.7302 19.4750 -54.7902 0.259 -0.945 -0.202 229 219 219 0
-25.1054 34.3135 -58.5135 0.425 -0.860 0.284 226 221 222 0
-11.4662 14.1247 -49.7487 0.150 -0.972 0.182 224 218 221 0
-17.5183 35.5532 -58.5607 -0.211 -0.705 -0.677 210 203 212 0
-17.0081 36.1291 -58.7583 0.165 -0.981 -0.102 210 203 212 0
-14.0677 34.0634 -57.7715 0.151 -0.167 0.974 205 194 206 0
-14.3769 35.1961 -58.2367 0.335 -0.206 0.919 206 194 206 0
-9.0252 26.5453 -54.5097 -0.109 -0.616 0.781 205 196 206 0
-8.5789 26.1343 -54.3214 0.016 -0.772 0.635 203 196 204 0
-14.0901 37.8461 -59.2660 -0.047 -0.880 0.472 203 197 204 0
-16.0616 44.7628 -62.1114 0.537 -0.641 0.549 196 193 201 0
-10.6909 35.7451 -58.2386 0.336 -0.938 -0.082 194 191 200 0
-10.5470 35.9955 -58.3290 0.711 -0.566 0.417 194 192 200 0
-7.2454 39.1405 -59.3782 -0.265 -0.556 0.788 194 190 199 0
-4.9375 36.1048 -58.0452 0.070 -0.828 0.556 192 190 202 0
-4.8606 36.5293 -58.2083 0.134 -0.885 0.446 192 190 203 0
2.4231 36.9786 -57.9612 0.393 -0.898 -0.197 197 198 203 0
11.1301 38.0745 -57.8864 0.582 -0.810 -0.071 203 207 86 0
11.2833 38.3728 -57.9952 0.202 -0.979 0.004 202 207 84 0
11.7245 38.4644 -58.0056 0.887 -0.357 0.294 201 207 82 0
14.5812 45.1882 -60.4935 0.053 -0.538 -0.842 189 195 67 0
14.3897 48.2453 -61.7115 -0.202 -0.624 -0.755 185 191 66 0
18.0918 39.6271 -58.0936 0.716 -0.684 -0.140 172 175 64 0
18.7968 45.4203 -60.3395 0.333 -0.066 0.941 156 157 61 0
22.8567 46.0841 -60.3649 -0.126 -0.312 0.942 174 167 149 0
23.2314 46.6452 -60.5645 0.053 -0.418 0.907 178 170 152 0
23.5506 47.6073 -60.9257 -0.076 -0.994 0.073 179 170 153 0
24.0907 47.0551 -60.6763 0.462 -0.817 -0.345 181 172 158 0
26.4759 40.9560 -58.1295 0.770 -0.634 0.064 184 173 166 0
31.3366 30.3141 -53.6452 -0.121 -0.867 0.484 182 170 158 0
33.7182 37.0190 -56.1533 -0.117 -0.799 0.590 174 163 151 0
34.0715 37.7120 -56.4063 -0.086 -0.996 -0.033 174 163 151 0
35.5878 39.2255 -56.9153 0.957 0.131 0.257 168 159 144 0
42.1145 46.8561 -59.5473 0.835 -0.295 -0.465 157 143 133 0
45.5800 53.6295 -62.0192 0.974 -0.153 -0.164 154 138 131 0
-62.8310 19.2414 -55.0229 0.282 -0.940 -0.194 255 255 255 0
-62.5526 19.2826 -55.0228 0.260 -0.948 -0.185 254 254 254 0
-62.3375 19.3812 -55.0492 0.247 -0.947 -0.205 135 135 135 0
-62.0971 19.4567 -55.0650 0.290 -0.931 -0.220 68 65 65 0
-61.8299 19.5075 -55.0694 0.259 -0.945 -0.202 229 219 217 0
-61.6697 29.8692 -59.1705 -0.691 -0.706 0.153 239 230 223 0
-16.3626 45.9273 -62.8664 0.523 -0.548 0.653 199 192 202 0
-16.3237 46.4485 -63.0709 0.532 -0.519 0.669 200 190 202 0
-10.4652 36.3243 -58.7088 0.338 -0.815 0.471 195 192 201 0
-6.3725 37.6401 -58.9892 -0.110 -0.485 0.867 193 190 199 0
-3.0352 36.9565 -58.5210 -0.345 -0.810 0.474 194 193 201 0
-1.8867 36.5828 -58.3050 0.598 -0.697 -0.395 192 192 200 0
-1.5474 36.3489 -58.1922 0.510 -0.739 -0.441 193 193 201 0
0.1715 36.3793 -58.1027 0.483 -0.830 0.279 194 194 202 0
0.3771 36.4884 -58.1339 0.483 -0.830 0.279 193 193 201 0
0.5832 36.5967 -58.1647 0.475 -0.836 0.277 195 195 203 0
0.6925 36.9715 -58.3069 0.840 -0.526 -0.128 195 196 201 0
0.7677 37.4445 -58.4901 0.749 -0.663 0.010 195 196 201 0
0.1850 39.7550 -59.4411 0.768 -0.636 -0.075 196 197 202 0
2.0657 38.6609 -58.8961 0.403 -0.726 -0.557 197 198 203 0
6.4365 34.9138 -57.1516 0.060 -0.911 0.408 198 199 195 0
11.7849 37.3004 -57.7827 0.817 -0.562 0.128 199 204 83 0
14.2052 49.0307 -62.2933 -0.193 -0.619 -0.761 183 189 66 0
15.3460 48.2895 -61.9319 0.283 -0.560 -0.779 176 184 64 0
17.3174 41.1329 -58.9765 0.426 -0.837 -0.342 174 179 62 0
17.5619 41.0574 -58.9321 0.429 -0.818 -0.383 173 177 62 0
22.8777 45.8950 -60.5374 -0.167 -0.355 0.920 175 168 149 0
23.2663 46.3591 -60.6986 0.053 -0.418 0.907 179 172 154 0
23.5455 47.5896 -61.1702 -0.076 -0.994 0.073 179 172 154 0
23.5384 49.2448 -61.8273 0.796 -0.580 -0.174 180 171 156 0
34.0076 35.6365 -55.8109 -0.120 -0.985 0.125 175 163 152 0
38.1499 55.9074 -63.6079 0.755 0.176 0.632 161 151 139 0
41.4974 43.9835 -58.6800 0.822 -0.289 -0.490 160 146 137 0
41.7004 44.8859 -59.0260 0.787 -0.316 -0.531 158 143 135 0
44.2877 52.8703 -62.0407 -0.429 -0.896 -0.111 153 140 131 0
44.4922 52.5355 -61.8959 -0.592 -0.796 0.124 152 141 129 0
45.5782 53.4930 -62.2116 0.974 -0.151 -0.169 152 139 129 0
46.2641 54.8784 -62.7207 -0.218 -0.760 -0.612 152 138 125 0
48.7487 66.0019 -66.9868 -0.089 -0.951 -0.295 147 133 122 0
-62.9327 19.2745 -55.3032 0.279 -0.936 -0.213 255 255 255 0
-62.6677 19.3281 -55.3087 0.263 -0.944 -0.197 254 254 254 0
-62.4396 19.4151 -55.3298 0.247 -0.947 -0.205 135 135 135 0
-62.1995 19.4912 -55.3457 0.290 -0.931 -0.220 69 66 64 0
-61.8865 19.5005 -55.3307 0.143 -0.977 -0.157 229 219 217 0
-59.6696 28.1063 -58.6288 -0.653 -0.754 0.077 238 229 222 0
-13.9801 32.2433 -57.5470 0.226 -0.399 0.889 205 200 206 0
-13.1149 32.5888 -57.6330 0.192 -0.358 0.914 205 198 208 0
-15.8403 44.7715 -62.6524 0.545 -0.586 0.600 200 193 203 0
-16.3072 46.3516 -63.3103 0.483 -0.512 0.711 202 192 204 0
-10.4444 36.2230 -58.9221 0.342 -0.799 0.494 195 192 201 0
-9.8462 40.1406 -60.4481 0.627 -0.661 -0.412 193 190 199 0
-9.8196 40.6844 -60.6633 0.505 -0.817 -0.278 194 191 200 0
-9.6026 40.8002 -60.6965 0.529 -0.848 0.044 193 190 199 0
-1.4536 36.6970 -58.5737 0.655 -0.644 -0.396 193 193 201 0
-2.2166 40.0227 -59.9450 0.800 -0.507 -0.321 194 194 202 0
0.1068 36.4995 -58.4017 0.350 -0.936 -0.022 194 193 201 0
0.5886 36.5272 -58.3839 0.475 -0.836 0.277 195 195 203 0
0.5200 37.3912 -58.7324 0.759 -0.598 -0.258 195 196 201 0
-0.2066 42.2190 -60.7004 0.371 -0.251 0.894 196 197 202 0
1.6721 39.0265 -59.3155 0.653 -0.737 0.177 198 199 204 0
1.9516 38.9356 -59.2625 0.689 -0.714 0.126 198 199 203 0
12.0823 39.6819 -58.9545 0.970 -0.175 0.168 197 203 80 0
12.2117 40.0945 -59.1112 0.979 -0.162 0.123 197 204 77 0
17.4814 40.2906 -58.8744 0.585 -0.769 -0.259 173 177 64 0
23.5254 47.6746 -61.4567 0.028 -0.999 0.044 180 173 155 0
23.8365 47.1212 -61.2175 0.059 -0.997 -0.044 181 173 156 0
43.3859 49.5871 -61.0320 -0.200 -0.779 -0.594 155 141 130 0
44.0820 53.1201 -62.3988 -0.548 -0.836 0.034 156 139 129 0
44.4927 52.4714 -62.1156 -0.591 -0.797 0.124 153 141 128 0
44.6219 49.2393 -60.8195 0.714 -0.700 0.019 153 141 127 0
44.7864 47.7125 -60.2010 0.199 -0.969 0.145 153 141 127 0
48.4364 59.8862 -64.8357 0.987 -0.154 0.047 147 133 122 0
48.7515 61.6872 -65.5349 0.987 -0.154 0.047 146 134 122 0
49.3973 61.3710 -65.3702 -0.020 -0.990 -0.141 143 132 118 0
-62.9051 19.1905 -55.5292 0.582 -0.737 -0.343 255 255 255 0
-62.7267 19.3226 -55.5713 0.574 -0.744 -0.343 254 254 254 0
-62.5418 19.4492 -55.6108 0.247 -0.947 -0.205 133 133 133 0
-62.3020 19.5259 -55.6270 0.290 -0.931 -0.220 70 66 65 0
-62.0042 19.5493 -55.6184 0.213 -0.957 -0.195 231 220 219 0
-23.9819 42.0589 -62.3342 0.120 -0.891 0.439 219 213 217 0
-24.5326 43.5767 -62.9755 0.985 -0.093 -0.144 218 212 216 0
-16.5123 32.0084 -57.8561 0.114 -0.282 0.952 213 208 215 0
-14.2734 30.7550 -57.2185 0.303 -0.944 -0.131 210 202 213 0
-16.9190 36.3038 -59.6013 0.215 -0.922 -0.322 207 202 211 0
-4.9036 47.7731 -63.4686 -0.130 -0.835 0.534 196 195 203 0
0.0182 36.6841 -58.7286 0.621 -0.778 -0.093 196 195 203 0
0.2582 36.7023 -58.7214 0.630 -0.773 -0.079 197 196 204 0
0.7616 41.5847 -60.6467 0.421 -0.269 0.866 197 198 203 0
5.4382 35.7135 -58.0118 -0.160 -0.793 0.588 198 200 199 0
11.9830 39.1047 -58.9741 0.983 -0.173 0.058 196 201 83 0
12.6344 37.4694 -58.2796 -0.103 -0.786 -0.609 197 202 82 0
13.6060 37.2472 -58.1318 0.461 -0.887 -0.010 195 201 78 0
14.1348 49.2388 -62.9034 0.297 -0.416 -0.859 180 185 66 0
17.7541 43.4170 -60.3523 -0.289 -0.940 0.181 161 164 63 0
18.0692 42.9986 -60.1656 -0.057 -0.998 -0.009 159 162 65 0
18.2980 43.0111 -60.1568 -0.161 -0.978 0.129 158 161 64 0
31.5962 31.5190 -54.7484 0.923 0.190 0.334 180 169 157 0
31.4267 47.7819 -61.2733 -0.585 -0.799 -0.139 177 165 154 0
33.3894 44.7560 -59.9424 0.617 -0.643 0.454 174 161 154 0
33.5407 45.7027 -60.3125 0.404 -0.904 0.142 174 161 154 0
35.6848 41.2023 -58.3799 0.988 0.088 0.129 168 156 146 0
39.0400 35.6491 -55.9524 0.938 -0.155 0.310 158 150 135 0
43.3984 50.2945 -61.5553 -0.045 -0.814 -0.579 157 141 130 0
45.3349 52.3113 -62.2459 -0.206 -0.860 0.466 152 140 125 0
48.6694 60.0765 -65.1548 0.933 -0.327 -0.152 146 134 122 0
49.1297 60.4688 -65.2840 0.906 -0.414 -0.090 143 132 118 0
-63.0146 19.2304 -55.8133 0.580 -0.734 -0.353 255 255 255 0
-62.8335 19.3604 -55.8546 0.594 -0.724 -0.350 255 255 255 0
-62.6443 19.4833 -55.8925 0.247 -0.947 -0.205 133 133 133 0
-62.3934 19.5502 -55.9040 0.256 -0.943 -0.214 69 66 64 0
-62.2015 19.9680 -56.0604 0.591 -0.729 -0.346 238 224 222 0
-24.0352 42.0926 -62.6277 -0.001 -0.915 0.404 219 213 217 0
-23.3529 41.3914 -62.3036 0.304 -0.949 -0.082 218 212 216 0
-13.1335 27.5761 -56.1165 0.220 -0.252 0.942 210 202 213 0
-13.9124 34.5741 -58.9811 0.781 -0.287 0.555 203 199 208 0
-12.1490 36.9259 -59.8197 0.277 -0.430 0.859 200 193 203 0
-6.4102 34.0093 -58.2941 0.109 -0.948 -0.300 195 192 201 0
-6.7527 45.4661 -62.9267 -0.333 -0.715 0.615 193 193 203 0
-6.4014 45.2652 -62.8243 -0.356 -0.730 0.584 193 193 203 0
-6.2538 45.5765 -62.9406 -0.264 -0.811 0.523 195 195 205 0
-0.0886 35.5947 -58.5449 0.931 -0.153 0.330 197 197 205 0
0.4185 41.7817 -61.0043 0.299 -0.410 0.861 199 200 205 0
6.1591 35.6272 -58.1752 0.064 -0.411 0.910 201 202 197 0
7.1669 36.1754 -58.3341 0.400 -0.086 0.913 199 200 190 0
11.1161 39.6765 -59.5015 0.685 -0.698 0.210 194 198 86 0
12.1697 36.5538 -58.1799 0.343 -0.755 0.558 194 198 85 0
12.2134 37.2661 -58.4639 0.890 -0.430 0.150 195 200 86 0
12.3481 37.6359 -58.6046 0.645 -0.417 0.640 195 200 84 0
13.2661 37.6424 -58.5509 -0.001 -0.756 -0.654 193 199 77 0
15.5778 37.4890 -58.3476 0.402 -0.777 0.484 186 191 69 0
18.0843 42.8696 -60.3598 0.077 -0.982 0.172 156 160 64 0
18.2894 43.0022 -60.4006 -0.026 -0.998 -0.058 154 158 63 0
19.5484 43.6652 -60.5903 -0.606 -0.742 0.286 145 145 73 0
20.1807 41.4603 -59.6641 0.727 -0.638 0.255 143 142 76 0
20.2946 42.0805 -59.9067 0.705 -0.513 0.490 143 143 83 0
20.5272 42.0476 -59.8792 0.779 -0.547 0.308 144 142 89 0
20.8498 41.5014 -59.6396 0.568 -0.761 -0.314 140 137 92 0
31.4276 47.7233 -61.4960 -0.583 -0.804 -0.119 176 164 154 0
31.6632 47.5394 -61.4076 -0.583 -0.804 -0.119 177 164 155 0
33.7384 45.9236 -60.6300 -0.339 -0.938 -0.068 173 160 152 0
34.1836 45.6592 -60.4963 -0.516 -0.849 0.111 172 159 151 0
35.8156 52.0241 -62.9583 0.941 0.135 0.311 166 153 144 0
41.7349 60.2198 -65.8946 0.167 -0.975 -0.144 156 144 131 0
42.5443 48.6140 -61.1734 -0.311 -0.933 0.179 153 144 129 0
42.7447 47.9054 -60.8759 -0.188 -0.976 0.112 152 143 128 0
42.9470 47.5792 -60.7322 -0.188 -0.880 -0.436 152 143 128 0
43.1523 47.5635 -60.7133 -0.088 -0.904 -0.418 156 143 129 0
44.0588 51.8120 -62.3679 -0.338 -0.929 0.149 154 136 126 0
45.2783 50.3744 -61.7145 0.819 -0.332 0.469 150 138 123 0
45.4660 43.6712 -59.0048 0.306 -0.809 -0.503 151 139 125 0
45.6884 44.4270 -59.2954 0.473 -0.603 -0.642 152 138 125 0
45.8950 44.6951 -59.3907 0.498 -0.628 -0.598 153 137 124 0
46.1093 45.1464 -59.5592 0.543 -0.691 -0.478 151 134 124 0
49.3162 59.8353 -65.2753 0.184 -0.946 -0.266 139 130 115 0
-62.9276 19.3866 -56.1329 0.575 -0.745 -0.338 255 255 255 0
-62.7469 19.5175 -56.1747 0.247 -0.947 -0.205 133 133 133 0
-62.4975 19.5860 -56.1869 0.256 -0.943 -0.214 69 65 64 0
-62.3147 20.0126 -56.3481 0.591 -0.729 -0.346 235 221 219 0
-23.4288 41.4665 -62.6139 0.302 -0.951 -0.070 217 211 216 0
-23.3144 41.7851 -62.7356 0.265 -0.964 0.004 218 212 219 0
-13.0677 36.5649 -59.9887 0.311 -0.511 0.801 202 198 205 0
-12.0904 36.7459 -60.0013 0.199 -0.506 0.839 201 196 205 0
-9.6830 32.7814 -58.2485 0.212 -0.936 0.282 201 193 205 0
-9.5077 32.9510 -58.3062 0.063 -0.961 0.270 201 194 205 0
-9.3405 33.1386 -58.3718 0.015 -0.971 0.240 201 192 203 0
-9.8446 34.7669 -59.0616 -0.051 -0.999 -0.000 199 191 202 0
-9.5796 34.7533 -59.0397 -0.051 -0.999 -0.000 197 192 203 0
-9.3033 34.7140 -59.0067 -0.074 -0.997 0.010 196 193 204 0
-9.0351 34.6914 -58.9809 -0.046 -0.999 0.003 197 194 205 0
-7.4209 45.7133 -63.3388 -0.270 -0.809 0.522 194 194 204 0
-4.0760 39.3535 -60.5590 -0.021 -0.309 0.951 194 194 205 0
-4.2301 40.3951 -60.9899 0.635 -0.094 0.767 195 195 205 0
1.2483 36.5744 -59.1047 -0.249 -0.962 -0.108 198 199 204 0
6.1661 35.5520 -58.3862 0.058 -0.391 0.918 202 203 197 0
10.9819 40.1310 -59.9396 0.366 -0.903 0.226 190 193 89 0
11.7478 38.1116 -59.0753 0.817 -0.454 0.357 191 195 87 0
12.1725 37.3713 -58.7495 0.669 -0.431 0.605 193 196 87 0
13.3327 37.3239 -58.6584 0.144 -0.835 -0.532 190 195 78 0
14.8392 37.6917 -58.7138 0.460 -0.561 0.688 186 192 72 0
15.3506 37.4433 -58.5816 0.419 -0.607 0.675 184 189 70 0
17.7994 43.0841 -60.7112 -0.051 -0.998 0.039 157 160 65 0
21.3163 41.3517 -59.7924 0.096 -0.977 0.190 151 145 115 0
21.5658 41.2031 -59.7168 0.334 -0.887 0.319 157 150 123 0
21.8191 41.0270 -59.6299 0.285 -0.857 0.429 162 154 133 0
22.0453 41.0071 -59.6078 0.844 -0.517 -0.142 165 156 139 0
31.4228 47.7351 -61.7475 -0.584 -0.802 -0.121 177 165 155 0
31.6607 47.5230 -61.6469 -0.575 -0.805 -0.148 178 165 156 0
32.9880 44.2990 -60.2606 0.740 -0.237 0.629 174 161 153 0
41.5068 59.8522 -66.0231 -0.032 -0.970 -0.240 157 145 133 0
42.7456 47.8790 -61.1035 -0.188 -0.976 0.112 153 143 127 0
42.9494 47.6635 -61.0037 -0.156 -0.904 -0.398 154 143 128 0
44.2550 51.0492 -62.2921 -0.375 -0.925 -0.052 153 138 127 0
44.4588 50.7981 -62.1779 -0.461 -0.887 -0.012 152 138 127 0
44.8361 49.3056 -61.5509 0.843 -0.336 0.420 151 139 125 0
45.9056 44.9095 -59.7064 -0.159 -0.987 0.004 152 136 123 0
46.1211 45.3799 -59.8833 0.543 -0.691 -0.478 149 134 123 0
48.9822 57.7211 -64.6975 -0.000 -0.970 -0.241 141 129 116 0
-63.0595 19.4469 -56.4280 0.591 -0.729 -0.346 255 255 255 0
-62.8498 19.5518 -56.4574 0.247 -0.947 -0.205 133 133 133 0
-62.5993 19.6196 -56.4693 0.247 -0.947 -0.205 69 66 64 0
-62.5841 19.9024 -56.5832 0.592 -0.727 -0.347 229 220 217 0
-62.4265 20.0558 -56.6357 0.592 -0.727 -0.347 232 222 218 0
-17.3232 37.4257 -60.8640 0.021 -0.996 -0.082 209 205 213 0
-13.8890 34.4144 -59.4246 0.830 -0.267 0.490 204 201 210 0
-13.9146 36.0580 -60.0942 0.687 -0.715 0.127 204 202 209 0
-12.7457 36.3933 -60.1571 0.448 -0.733 0.512 201 197 206 0
-12.3250 36.6236 -60.2243 0.569 -0.574 0.589 201 197 205 0
-12.0875 36.6825 -60.2333 0.505 -0.650 0.569 201 197 206 0
-9.7590 32.8867 -58.5445 0.254 -0.929 0.270 202 196 206 0
-9.6334 33.1624 -58.6487 0.555 -0.571 0.605 201 195 205 0
-9.4425 33.3008 -58.6929 0.555 -0.571 0.605 200 194 204 0
-9.9315 34.8969 -59.3723 -0.085 -0.994 -0.073 199 194 203 0
-9.2334 35.0670 -59.3976 -0.048 -0.992 -0.113 196 194 206 0
-10.5933 38.6060 -60.9213 0.116 -0.912 -0.394 196 193 204 0
-10.7290 40.0815 -61.5294 0.426 -0.831 -0.358 197 195 205 0
-7.2706 33.5599 -58.6619 -0.232 -0.912 -0.339 197 195 203 0
-3.7265 32.2871 -57.9221 0.500 -0.659 0.562 195 194 203 0
-0.2690 37.2942 -59.7401 0.558 -0.826 -0.081 195 195 203 0
12.3646 37.4669 -59.0173 0.634 -0.518 0.573 190 193 89 0
13.3197 37.3238 -58.8992 0.155 -0.821 -0.549 189 193 82 0
13.1360 38.9872 -59.5867 0.981 0.041 0.187 188 193 79 0
14.7403 37.0997 -58.7189 0.617 -0.653 0.439 184 190 73 0
14.8770 37.4797 -58.8648 0.461 -0.559 0.689 184 189 72 0
17.5981 42.8779 -60.8879 0.493 -0.865 -0.094 158 162 68 0
20.3819 41.4933 -60.1504 0.698 -0.669 0.256 142 136 92 0
21.3013 41.3873 -60.0496 0.026 -0.973 0.229 157 147 120 0
21.5405 41.3002 -59.9992 0.253 -0.894 0.369 161 151 130 0
21.8270 40.9292 -59.8305 0.285 -0.857 0.429 166 155 138 0
22.1294 40.4526 -59.6178 0.670 -0.718 0.188 168 159 143 0
22.2080 46.9681 -62.2609 -0.059 -0.798 0.599 175 169 150 0
23.7617 47.4303 -62.3512 0.374 -0.425 -0.824 181 171 157 0
23.8227 48.6253 -62.8330 0.403 -0.427 -0.810 182 172 158 0
23.9513 49.3685 -63.1270 0.436 -0.436 -0.787 182 171 158 0
31.4362 47.5226 -61.9070 -0.530 -0.815 -0.236 177 165 154 0
31.6616 47.4647 -61.8693 -0.535 -0.824 -0.186 178 166 155 0
34.1952 41.9272 -59.4597 0.610 0.072 0.789 172 159 150 0
34.3682 42.5043 -59.6834 0.599 0.070 0.797 170 156 148 0
37.0447 61.9553 -67.4206 -0.202 -0.754 0.625 160 152 136 0
37.5246 61.7887 -67.3227 -0.196 -0.735 0.649 159 151 135 0
41.5077 60.3180 -66.4750 0.061 -0.991 -0.120 155 144 132 0
42.6525 60.5660 -66.5039 0.004 -0.980 -0.200 155 142 129 0
44.6085 48.3914 -61.4333 0.890 -0.359 0.281 151 138 125 0
48.3160 61.5656 -66.5547 0.340 -0.555 -0.759 148 132 120 0
49.0046 58.0461 -65.0811 0.123 -0.857 -0.501 141 128 118 0
-63.2383 19.2550 -56.6236 0.595 -0.733 -0.329 255 255 255 0
-63.1736 19.4909 -56.7159 0.591 -0.729 -0.346 255 255 255 0
-62.9529 19.5861 -56.7407 0.247 -0.947 -0.205 133 133 133 0
-62.7021 19.6540 -56.7525 0.247 -0.947 -0.205 68 66 64 0
-62.7001 19.9490 -56.8729 0.591 -0.729 -0.346 228 220 217 0
-62.5418 20.1021 -56.9253 0.591 -0.729 -0.346 233 223 218 0
-11.8514 27.3653 -56.6716 0.376 -0.797 -0.473 210 205 211 0
-13.4182 37.7202 -60.9996 0.146 -0.799 -0.584 202 199 209 0
-9.7307 32.7716 -58.7446 0.373 -0.913 0.164 202 197 207 0
-9.5794 32.9925 -58.8252 0.254 -0.928 0.271 202 197 206 0
-9.5206 33.4120 -58.9927 0.324 -0.883 0.339 200 196 205 0
-9.9525 34.8858 -59.6220 0.141 -0.986 0.086 199 196 205 0
-9.4408 34.8996 -59.5952 0.195 -0.952 0.237 198 196 207 0
-10.2084 37.1312 -60.5552 0.723 -0.668 0.175 198 196 207 0
-6.7119 35.1128 -59.5089 0.566 -0.759 -0.322 196 195 203 0
-6.3586 36.6645 -60.1201 0.223 -0.865 -0.450 195 195 203 0
-3.4466 32.1507 -58.0919 0.744 -0.666 -0.049 195 195 203 0
13.0864 39.1343 -59.8936 0.975 0.046 0.216 185 190 82 0
13.0523 40.2166 -60.3377 0.925 0.039 0.378 184 190 79 0
14.6799 36.3553 -58.6575 0.505 -0.492 0.709 180 187 72 0
14.7795 36.8834 -58.8668 0.606 -0.661 0.444 180 187 71 0
15.7221 37.6914 -59.1369 0.592 -0.432 0.681 177 181 69 0
17.6953 44.6739 -61.8629 -0.106 -0.991 -0.081 151 154 67 0
21.7493 45.4419 -61.9191 -0.054 -0.335 0.941 174 165 149 0
21.8154 46.4617 -62.3313 -0.050 -0.325 0.945 173 165 147 0
22.2226 46.8229 -62.4529 -0.059 -0.798 0.599 174 170 151 0
22.5134 46.4465 -62.2808 -0.009 -0.803 0.596 175 171 152 0
27.2457 31.5737 -55.9067 0.933 0.024 0.359 182 172 160 0
29.6201 37.1964 -58.0520 0.528 0.056 0.847 182 172 157 0
29.9975 35.5377 -57.3507 0.641 0.020 0.767 183 171 157 0
30.2831 34.7200 -56.9986 0.521 0.024 0.853 182 170 156 0
36.5040 63.7210 -68.4463 -0.142 -0.989 0.028 160 151 136 0
37.0390 62.0940 -67.7479 0.041 -0.969 -0.242 159 152 136 0
37.2817 61.9432 -67.6709 0.013 -0.969 -0.248 159 152 136 0
37.5234 61.7938 -67.5946 0.060 -0.974 -0.220 158 151 135 0
39.1156 32.0872 -55.3625 0.965 -0.014 0.263 156 147 133 0
39.5980 36.3382 -57.0678 0.970 -0.025 0.244 160 148 134 0
40.3486 37.6189 -57.5431 -0.196 -0.970 0.140 160 146 134 0
42.6517 60.3415 -66.6758 0.102 -0.968 -0.230 154 140 129 0
42.8797 60.3642 -66.6706 0.102 -0.968 -0.230 154 140 129 0
44.6063 48.2254 -61.6039 0.719 -0.513 0.469 149 137 123 0
45.4967 44.3663 -59.9715 0.185 -0.934 0.304 146 137 120 0
45.9150 45.0230 -60.2130 -0.118 -0.993 -0.018 145 133 121 0
46.5982 57.5451 -65.2832 0.781 -0.038 0.623 145 133 121 0
46.8440 58.2358 -65.5496 0.781 -0.038 0.623 146 133 121 0
49.6037 60.7820 -66.4141 -0.634 -0.756 -0.163 140 126 117 0
-63.2702 19.5190 -56.9967 0.608 -0.717 -0.341 255 255 255 0
-63.0561 19.6205 -57.0246 0.247 -0.947 -0.205 133 133 133 0
-62.8051 19.6885 -57.0364 0.247 -0.947 -0.205 71 68 66 0
-62.8141 19.9937 -57.1622 0.591 -0.729 -0.346 229 220 217 0
-62.6558 20.1470 -57.2149 0.591 -0.729 -0.346 235 224 220 0
-13.0741 29.1735 -57.7320 -0.024 -0.921 -0.389 208 206 211 0
-11.9926 27.5835 -57.0101 -0.015 -0.895 -0.445 208 207 212 0
-14.0170 37.7824 -61.3249 -0.025 -0.976 -0.214 204 202 206 0
-9.6263 33.0366 -59.0955 0.255 -0.923 0.288 202 199 208 0
-10.1563 34.7105 -59.8163 0.139 -0.976 0.169 201 198 207 0
-10.0261 34.9871 -59.9215 0.171 -0.969 0.181 200 197 206 0
-9.4919 34.9541 -59.8736 0.139 -0.962 0.235 199 197 208 0
-10.3192 37.3149 -60.8954 0.719 -0.694 -0.036 199 197 208 0
-10.1277 37.4732 -60.9481 0.201 -0.944 -0.260 198 196 207 0
-10.5918 40.2569 -62.1201 0.314 -0.834 -0.453 196 195 203 0
-10.3072 40.2225 -62.0876 0.348 -0.878 -0.329 199 198 206 0
-10.0600 40.2705 -62.0915 0.376 -0.861 -0.343 197 196 204 0
-9.8397 40.3789 -62.1218 0.376 -0.861 -0.343 197 196 204 0
-9.7638 40.8147 -62.2957 0.424 -0.868 -0.260 196 194 204 0
2.4726 18.9758 -52.5486 0.683 -0.451 0.574 196 195 203 0
2.6021 19.1819 -52.6248 0.676 -0.443 0.589 197 196 204 0
2.4929 19.9727 -52.9563 0.650 -0.441 0.618 197 196 204 0
-5.6255 41.7503 -62.4136 0.943 -0.332 -0.038 197 196 202 0
2.4286 37.2293 -60.0410 0.917 -0.134 0.375 197 201 204 0
2.4652 37.8324 -60.2861 0.930 -0.027 0.366 198 202 205 0
2.6898 37.8934 -60.2967 0.873 -0.351 0.338 198 202 205 0
17.0383 32.8154 -57.2910 0.238 -0.949 -0.209 172 175 70 0
17.6651 43.5958 -61.6740 0.127 -0.945 -0.303 152 154 71 0
31.9336 25.6772 -53.4048 0.977 -0.054 -0.208 180 169 156 0
35.9050 45.0854 -61.1129 -0.444 -0.840 0.312 167 154 140 0
36.3917 43.5543 -60.4534 -0.589 -0.764 -0.262 163 152 138 0
36.7434 63.7436 -68.7147 -0.149 -0.988 0.039 158 149 134 0
37.0405 62.0079 -67.9834 0.015 -0.962 -0.272 159 151 136 0
37.2361 63.4055 -68.5443 0.145 -0.989 -0.008 159 152 136 0
39.6083 35.7096 -57.0280 0.985 -0.053 0.166 158 147 132 0
40.1547 37.7363 -57.8244 0.053 -0.777 0.628 158 144 131 0
40.3541 37.0712 -57.5387 -0.311 -0.930 0.194 159 145 134 0
42.6500 60.0020 -66.7999 0.236 -0.941 0.241 154 140 129 0
42.8817 60.4164 -66.9550 0.209 -0.967 0.147 154 140 129 0
45.4905 44.1115 -60.0973 0.152 -0.987 0.048 145 136 119 0
45.7214 45.0735 -60.4772 -0.058 -0.956 -0.288 145 135 121 0
-63.3684 19.5484 -57.2787 0.601 -0.723 -0.340 255 255 255 0
-63.1147 19.6143 -57.2894 0.627 -0.712 -0.316 133 133 133 0
-62.9083 19.7230 -57.3208 0.247 -0.947 -0.205 72 68 67 0
-62.9284 20.0385 -57.4521 0.591 -0.729 -0.346 231 221 219 0
-62.7699 20.1920 -57.5051 0.591 -0.729 -0.346 235 224 220 0
-16.8291 30.7999 -58.8912 0.365 -0.928 0.080 217 212 219 0
-16.6211 30.9015 -58.9196 0.357 -0.929 0.094 213 210 217 0
-12.4602 29.4096 -58.0340 -0.128 -0.977 -0.168 209 206 214 0
-12.1005 29.2043 -57.9260 -0.070 -0.969 -0.239 208 205 214 0
-12.0756 29.6524 -58.1091 0.711 -0.659 -0.245 207 205 213 0
-11.9115 29.8298 -58.1715 0.677 -0.703 -0.216 207 205 213 0
-12.3497 37.6172 -61.4104 0.271 -0.482 -0.833 202 199 208 0
-12.6257 38.7630 -61.9008 0.344 -0.494 -0.799 202 199 208 0
-11.5549 38.7772 -61.8370 0.260 -0.824 -0.504 201 199 208 0
-10.3412 37.3055 -61.1514 0.719 -0.694 -0.036 199 197 208 0
-10.1366 38.0147 -61.4304 0.231 -0.962 -0.143 198 196 207 0
-10.4515 39.8871 -62.2228 0.428 -0.807 0.408 197 196 204 0
-9.2704 37.8526 -61.3073 0.223 -0.952 -0.209 198 197 205 0
-10.1172 40.3403 -62.3879 0.375 -0.863 -0.338 198 197 205 0
-9.7340 40.0824 -62.2567 0.398 -0.911 -0.109 196 195 203 0
2.4136 18.5548 -52.5919 0.536 -0.400 0.743 194 195 202 0
2.0869 19.8604 -53.1514 0.561 -0.757 0.334 196 196 204 0
2.8006 37.5154 -60.3834 0.708 -0.387 0.591 198 202 205 0
2.9397 37.8251 -60.5021 0.733 -0.380 0.563 198 201 206 0
21.3549 46.3251 -62.8089 -0.042 -0.280 0.959 175 166 149 0
36.1433 44.4282 -61.0653 -0.551 -0.785 -0.285 166 153 138 0
38.3462 33.0330 -56.2243 -0.381 -0.671 0.636 156 149 133 0
38.7011 33.8063 -56.5200 0.934 -0.358 -0.024 155 146 133 0
40.3496 37.5412 -57.9526 0.067 -0.805 0.589 157 143 132 0
42.4250 60.1967 -67.1576 -0.134 -0.941 -0.309 152 140 127 0
-63.4833 19.5928 -57.5685 0.601 -0.724 -0.338 255 255 255 0
-63.2187 19.6491 -57.5744 0.627 -0.712 -0.316 133 133 133 0
-63.0117 19.7576 -57.6057 0.247 -0.947 -0.205 72 68 67 0
-63.0400 20.0807 -57.7414 0.596 -0.726 -0.344 232 221 219 0
-62.8825 20.2354 -57.7951 0.596 -0.726 -0.344 235 222 219 0
-59.8183 29.8135 -61.5609 -0.368 -0.876 0.312 236 231 229 0
-59.3172 29.6402 -61.4562 -0.368 -0.876 0.312 235 229 229 0
-16.5062 30.6359 -59.0528 0.395 -0.906 0.150 215 213 218 0
-12.7660 28.4753 -57.9119 0.645 -0.318 0.695 209 208 213 0
-12.2957 29.5305 -58.3180 -0.153 -0.969 -0.196 208 205 214 0
-13.2195 38.2507 -61.9908 0.358 -0.439 -0.824 203 201 208 0
-8.9538 37.6761 -61.4722 0.341 -0.839 -0.424 198 197 205 0
2.2321 19.4622 -53.1921 0.622 -0.573 0.534 196 196 204 0
-1.3547 39.3122 -61.6501 0.875 -0.197 0.442 198 198 205 0
-1.0933 39.2920 -61.6245 0.737 -0.410 0.537 197 197 205 0
-0.9665 39.6348 -61.7582 0.705 -0.407 0.580 198 198 206 0
2.8593 37.2897 -60.5352 0.493 -0.450 0.744 196 199 204 0
2.8648 37.9902 -60.8250 0.696 -0.300 0.652 197 200 205 0
13.8101 38.8599 -60.4653 0.855 -0.093 0.510 175 181 84 0
16.5999 42.9834 -61.9898 -0.121 -0.682 0.721 156 158 75 0
17.7095 40.9829 -61.0882 -0.160 -0.883 0.442 151 151 77 0
18.4393 40.7630 -60.9491 0.048 -0.995 -0.084 149 147 85 0
31.8864 24.1787 -53.1953 0.995 -0.032 -0.092 177 165 149 0
34.9076 40.1697 -59.6202 0.843 0.078 0.532 168 156 143 0
35.7269 44.3127 -61.2824 0.773 0.159 0.614 166 153 137 0
36.1354 44.5679 -61.3612 -0.490 -0.833 0.256 163 150 134 0
36.3497 44.4644 -61.3043 -0.577 -0.795 -0.186 163 149 136 0
36.7126 64.5731 -69.6096 0.742 0.168 0.649 162 150 136 0
40.6903 44.4835 -61.0267 0.935 -0.260 -0.242 156 142 131 0
43.6638 32.1225 -55.7111 0.793 -0.573 0.208 148 137 124 0
43.8615 32.9620 -56.0458 0.686 -0.241 0.687 145 134 120 0
44.0498 33.3038 -56.1750 0.704 -0.280 0.652 145 134 120 0
47.0357 52.4009 -63.8888 0.005 -0.814 -0.581 140 130 120 0
-63.5954 19.6345 -57.8575 0.601 -0.724 -0.338 255 255 255 0
-63.3230 19.6841 -57.8600 0.641 -0.697 -0.322 133 133 133 0
-63.1753 19.8467 -57.9179 0.641 -0.697 -0.322 72 68 67 0
-63.1448 20.1166 -58.0282 0.583 -0.732 -0.353 233 222 220 0
-62.9964 20.2798 -58.0862 0.596 -0.726 -0.344 237 223 220 0
-62.3647 20.0003 -57.9279 0.136 -0.969 -0.204 234 223 221 0
-59.6453 29.9183 -61.8745 0.191 -0.782 0.593 234 228 228 0
-58.8688 30.1552 -61.9214 -0.371 -0.929 -0.010 237 229 227 0
-23.2674 38.7558 -63.1323 0.134 -0.987 -0.088 220 215 222 0
-22.9594 38.7184 -63.0962 0.183 -0.982 -0.040 219 214 221 0
-16.2894 30.1843 -59.1009 0.541 -0.825 -0.161 213 211 216 0
-14.8561 28.9839 -58.5060 -0.267 -0.636 0.724 212 209 214 0
-14.5685 28.9284 -58.4638 -0.487 -0.709 0.510 211 208 215 0
-13.7316 28.3225 -58.1560 -0.338 -0.506 0.793 210 207 217 0
-1.3993 9.8591 -49.6517 0.493 -0.739 -0.460 207 205 213 0
-13.3441 39.5847 -62.8171 0.328 -0.506 -0.798 203 202 210 0
-13.3188 40.6843 -63.2730 0.697 -0.714 0.074 202 200 210 0
-9.5485 36.6100 -61.3266 -0.080 -0.674 -0.734 201 199 210 0
-9.3032 37.8109 -61.8101 0.175 -0.942 -0.287 199 198 206 0
-0.8335 37.8618 -61.2678 0.591 -0.326 0.738 196 197 203 0
-0.5913 37.8852 -61.2615 0.502 -0.288 0.816 197 197 205 0
-0.3264 37.8461 -61.2275 0.426 -0.298 0.854 198 198 206 0
3.1574 36.3663 -60.3799 -0.141 -0.970 -0.199 195 198 204 0
3.0462 37.4031 -60.8188 0.732 -0.368 0.574 195 198 204 0
13.0013 34.7441 -59.0500 -0.322 -0.410 0.853 185 186 118 0
13.2020 34.8403 -59.0767 -0.313 -0.405 0.859 180 182 109 0
13.4594 35.6030 -59.3770 0.655 -0.128 0.745 178 180 100 0
15.6405 32.1536 -57.7963 0.420 -0.674 -0.607 172 177 86 0
14.7229 48.3533 -64.5991 -0.609 -0.530 0.590 160 162 78 0
17.0043 42.1118 -61.8498 -0.590 -0.707 0.390 153 152 82 0
20.0760 40.4414 -60.9503 0.745 -0.622 -0.239 157 149 125 0
20.3002 40.4452 -60.9370 0.773 -0.621 -0.130 162 154 132 0
22.3069 55.5216 -67.0778 0.394 -0.411 -0.822 176 170 154 0
32.4714 25.6878 -53.9858 -0.649 -0.744 -0.158 174 164 152 0
35.4888 18.1883 -50.6640 0.352 -0.495 -0.795 168 156 144 0
35.6108 18.8993 -50.9518 0.152 -0.717 -0.680 167 155 143 0
36.1481 54.4812 -65.7240 0.796 0.124 0.593 162 149 133 0
44.0345 32.5943 -56.0908 0.189 -0.964 0.186 146 132 120 0
44.2232 32.9581 -56.2297 0.679 -0.513 0.525 145 133 121 0
48.2614 51.8846 -63.8375 0.193 -0.953 0.233 138 128 115 0
-63.5350 19.5205 -58.0704 0.642 -0.705 -0.301 254 254 254 0
-63.4282 19.7198 -58.1466 0.641 -0.697 -0.322 133 133 133 0
-63.2804 19.8826 -58.2047 0.641 -0.697 -0.322 72 68 67 0
-63.1118 20.0269 -58.2537 0.620 -0.709 -0.335 233 221 220 0
-62.9727 20.1984 -58.3161 0.635 -0.701 -0.325 235 223 221 0
-62.4790 20.0456 -58.2190 0.136 -0.969 -0.204 233 223 221 0
-59.7136 29.9260 -62.1641 0.177 -0.782 0.598 235 230 227 0
-59.5384 30.4428 -62.3684 -0.438 -0.898 0.038 238 229 227 0
-23.5596 38.7039 -63.4019 0.632 -0.537 0.558 221 216 220 0
-23.4737 39.0585 -63.5444 0.063 -0.997 -0.041 219 214 219 0
-1.5248 10.4751 -50.1164 0.664 -0.741 -0.104 209 206 213 0
-10.3847 31.2021 -59.3789 0.564 -0.263 0.783 204 203 210 0
-13.2643 40.5096 -63.4643 0.692 -0.712 0.116 202 202 208 0
-13.0553 40.6481 -63.5081 0.316 -0.948 -0.023 202 201 209 0
-9.2783 37.6982 -62.0206 0.284 -0.867 -0.410 201 200 206 0
-9.0580 37.7947 -62.0461 0.286 -0.850 -0.442 199 198 204 0
-8.8355 37.8863 -62.0695 0.295 -0.844 -0.448 199 198 203 0
-3.8907 30.0564 -58.4629 0.412 -0.911 -0.002 197 199 204 0
-3.5485 30.3912 -58.5799 0.376 -0.922 -0.094 195 198 205 0
3.0666 37.2888 -61.0189 -0.250 -0.965 0.079 198 199 204 0
3.3705 37.1125 -60.9247 -0.319 -0.926 0.199 199 200 204 0
13.0616 34.4599 -59.1636 -0.322 -0.410 0.853 173 176 116 0
13.2723 34.5151 -59.1725 -0.312 -0.411 0.856 176 178 114 0
13.5305 34.3833 -59.1000 -0.310 -0.408 0.859 177 178 112 0
13.5411 35.2283 -59.4526 0.557 -0.032 0.830 177 178 109 0
13.6939 35.5182 -59.5635 0.481 -0.026 0.876 175 177 106 0
15.5010 32.6841 -58.2570 0.399 -0.786 -0.473 171 172 94 0
15.7990 32.3503 -58.0973 0.336 -0.885 -0.322 169 170 90 0
17.0183 41.9917 -62.0466 -0.590 -0.707 0.390 153 151 88 0
17.3300 41.6050 -61.8639 0.388 -0.895 -0.218 152 151 90 0
17.5569 41.6246 -61.8568 -0.247 -0.873 0.420 149 146 90 0
22.4744 56.0171 -67.5438 0.639 -0.346 -0.687 179 170 157 0
35.4061 19.4482 -51.3836 -0.014 -0.548 -0.836 168 156 142 0
35.6887 40.7672 -60.2785 0.788 0.164 0.593 164 152 138 0
35.8245 51.4902 -64.7528 0.488 -0.056 0.871 164 151 137 0
39.5785 26.8820 -54.2111 0.517 -0.186 0.835 155 142 131 0
40.0925 27.7889 -54.5557 0.659 -0.147 0.738 156 142 133 0
48.2739 56.0356 -65.8157 0.284 -0.576 -0.766 142 128 115 0
48.5019 56.3013 -65.9115 0.289 -0.572 -0.767 141 128 114 0
-63.6432 19.5585 -58.3584 0.634 -0.699 -0.331 254 254 254 0
-63.5351 19.7569 -58.4344 0.629 -0.704 -0.329 133 133 133 0
-63.3850 19.9178 -58.4918 0.629 -0.704 -0.329 72 68 67 0
-63.2285 20.0735 -58.5465 0.635 -0.701 -0.325 232 221 218 0
-63.0790 20.2358 -58.6046 0.635 -0.701 -0.325 234 222 219 0
-62.6127 20.1084 -58.5193 0.168 -0.970 -0.177 233 224 221 0
-59.3426 30.5257 -62.6729 0.761 -0.112 0.639 239 230 229 0
-13.5015 40.3716 -63.6902 0.703 -0.690 0.171 201 201 209 0
-12.7846 39.4362 -63.2485 0.530 -0.848 -0.008 201 202 208 0
-10.3564 38.2657 -62.5916 -0.339 -0.716 -0.610 201 201 210 0
-8.8921 37.9563 -62.3620 0.509 -0.760 -0.404 200 199 204 0
13.5929 34.9722 -59.5787 0.397 -0.102 0.912 171 172 111 0
13.8140 34.9880 -59.5703 0.492 -0.030 0.870 172 173 111 0
14.9964 33.8125 -58.9961 0.223 -0.275 0.935 173 173 106 0
16.0023 32.3606 -58.3177 0.682 -0.672 -0.288 169 169 98 0
16.1267 32.7567 -58.4756 0.586 -0.528 0.615 168 168 96 0
16.3316 32.8118 -58.4849 0.564 -0.536 0.628 167 167 92 0
16.5125 32.9707 -58.5393 0.627 -0.460 0.629 165 166 92 0
16.5494 33.7610 -58.8688 0.281 -0.618 0.734 164 164 91 0
19.8695 41.4547 -61.8749 0.186 -0.872 -0.453 169 162 136 0
20.4445 40.7860 -61.5548 -0.081 -0.916 -0.393 172 164 143 0
24.6859 33.5376 -58.2214 0.957 -0.177 0.228 173 165 152 0
22.0156 55.7031 -67.7143 0.633 -0.363 -0.683 175 167 154 0
22.1610 56.4046 -67.9991 0.622 -0.367 -0.692 176 168 155 0
32.1570 27.0518 -54.9886 -0.706 -0.697 -0.130 174 162 149 0
36.6828 58.4614 -67.8751 0.749 0.181 0.638 159 146 131 0
49.2138 65.2409 -69.8705 -0.343 -0.843 -0.416 140 126 113 0
-63.7518 19.5968 -58.6470 0.634 -0.699 -0.331 254 254 254 0
-63.6433 19.7950 -58.7233 0.629 -0.704 -0.329 133 133 133 0
-63.4931 19.9562 -58.7809 0.629 -0.704 -0.329 70 68 66 0
-63.3352 20.1107 -58.8353 0.635 -0.701 -0.325 230 220 217 0
-57.7960 28.4950 -61.9927 -0.625 -0.709 0.329 237 230 228 0
-23.3435 37.2079 -63.3000 0.918 -0.312 0.244 218 216 219 0
-12.5170 33.8539 -61.1397 0.241 -0.719 -0.652 208 207 214 0
-10.0184 30.8621 -59.7052 0.690 -0.310 0.653 206 205 213 0
-13.3666 38.8863 -63.3220 0.659 -0.556 0.507 204 204 212 0
10.3971 31.7789 -58.6878 0.914 -0.399 0.073 206 208 190 0
11.0807 31.7393 -58.6240 0.955 -0.277 0.110 207 206 187 0
13.6572 33.7846 -59.3100 -0.310 -0.412 0.857 165 167 116 0
13.7960 34.1179 -59.4411 0.385 -0.075 0.920 165 166 112 0
15.9714 32.4416 -58.5840 0.682 -0.407 -0.607 168 166 106 0
16.5806 31.6918 -58.2257 0.211 -0.549 -0.809 166 166 100 0
20.4656 40.6180 -61.7256 -0.109 -0.931 -0.347 173 166 146 0
21.9220 36.1558 -59.7422 -0.419 -0.735 0.534 173 165 148 0
22.1650 35.9964 -59.6582 -0.509 -0.729 0.458 172 165 149 0
22.6549 35.6386 -59.4735 0.631 -0.648 -0.426 174 167 151 0
21.8792 54.9014 -67.6565 0.760 -0.306 -0.574 174 165 152 0
22.0472 57.1243 -68.5831 0.646 -0.363 -0.671 175 165 153 0
23.3192 51.7259 -66.2172 0.593 -0.326 -0.736 177 167 155 0
23.0865 55.0784 -67.6481 0.586 -0.314 -0.747 176 166 154 0
32.1461 27.1305 -55.2299 -0.708 -0.695 -0.125 171 159 147 0
33.8530 29.0858 -55.9377 0.896 -0.199 -0.397 167 155 141 0
40.0942 27.6563 -54.9051 0.617 -0.095 0.781 153 139 130 0
40.2633 28.2906 -55.1611 0.529 -0.018 0.848 153 139 130 0
40.4431 28.0178 -55.0336 0.924 -0.062 0.377 152 138 129 0
40.4798 45.4006 -62.3673 0.934 -0.349 -0.079 151 137 128 0
49.4813 65.8568 -70.3814 -0.355 -0.877 -0.323 139 125 110 0
-63.8674 19.6413 -58.9394 0.670 -0.663 -0.334 254 254 254 0
-63.7517 19.8333 -59.0127 0.629 -0.704 -0.329 133 133 133 0
-63.6015 19.9946 -59.0707 0.629 -0.704 -0.329 69 68 65 0
-63.4420 20.1481 -59.1247 0.635 -0.701 -0.325 230 219 216 0
-7.6855 34.5564 -61.3562 -0.534 -0.792 -0.296 201 200 205 0
10.5034 32.1380 -59.0659 0.766 -0.528 0.366 204 206 190 0
11.7305 30.9622 -58.4820 0.854 -0.388 0.346 206 205 186 0
18.8012 40.9808 -62.2382 -0.224 -0.814 0.535 170 165 138 0
19.0717 40.7607 -62.1260 -0.080 -0.787 0.611 169 164 138 0
19.3005 40.7525 -62.1067 -0.080 -0.787 0.611 171 164 141 0
19.6630 42.4663 -62.8081 -0.358 -0.766 -0.534 171 164 145 0
21.9212 36.1111 -59.9565 -0.419 -0.734 0.534 172 164 148 0
22.9897 53.9777 -67.4575 0.677 -0.291 -0.676 176 166 154 0
40.4443 27.9108 -55.1914 0.937 -0.114 0.330 152 139 128 0
46.8583 52.7920 -65.2949 -0.368 -0.918 0.149 139 128 118 0
47.3485 54.3255 -65.9110 -0.390 -0.745 0.540 140 128 116 0
48.1840 58.2810 -67.5300 -0.378 -0.626 0.682 139 127 115 0
48.4078 58.3942 -67.5624 -0.386 -0.618 0.684 140 128 114 0
48.6269 58.4166 -67.5567 -0.374 -0.644 0.667 140 128 112 0
-63.9882 19.6902 -59.2345 0.686 -0.647 -0.333 254 254 254 0
-63.8592 19.8705 -59.3022 0.633 -0.705 -0.320 133 133 133 0
-63.7087 20.0319 -59.3604 0.633 -0.705 -0.320 71 67 66 0
-63.5491 20.1855 -59.4146 0.635 -0.701 -0.325 232 221 218 0
-62.8953 20.1879 -59.3697 0.140 -0.968 -0.209 235 224 222 0
-58.4293 28.6852 -62.6752 -0.131 -0.935 0.331 238 232 231 0
-47.4080 20.3659 -58.3567 0.978 -0.098 0.187 234 228 228 0
-47.8194 21.4594 -58.8514 0.981 -0.124 0.148 235 229 229 0
-18.4723 27.2885 -59.2713 -0.036 -0.615 -0.788 221 219 220 0
-15.5970 31.0501 -60.6715 -0.072 -0.719 -0.692 214 211 216 0
-14.9769 30.3817 -60.3432 -0.251 -0.737 -0.627 213 210 215 0
-9.6669 28.9996 -59.3812 0.763 -0.372 0.528 208 207 215 0
-1.3861 17.0467 -53.7075 0.591 -0.801 0.096 202 203 208 0
-7.8084 34.7750 -61.7106 -0.527 -0.788 -0.319 201 201 206 0
-6.9650 34.6070 -61.5797 -0.226 -0.932 -0.284 199 199 206 0
-6.4124 33.9290 -61.2521 -0.590 -0.799 -0.116 198 198 206 0
-6.0239 33.6191 -61.0928 -0.590 -0.799 -0.116 199 199 207 0
7.4426 26.8616 -57.2676 0.246 -0.731 0.637 199 199 198 0
10.4921 32.1263 -59.2958 0.516 -0.851 0.101 203 204 188 0
10.7996 31.8385 -59.1516 0.571 -0.800 0.183 203 204 188 0
10.9851 31.9745 -59.1965 0.912 -0.366 0.183 204 205 187 0
11.2626 31.7852 -59.0964 0.617 -0.741 0.267 205 205 187 0
14.8911 34.0948 -59.8251 0.337 -0.589 -0.735 172 169 126 0
15.2338 34.5177 -59.9811 0.350 -0.583 -0.733 168 165 122 0
15.7454 41.2094 -62.7956 -0.561 -0.787 -0.256 151 147 105 0
16.0227 41.0061 -62.6895 -0.563 -0.788 -0.249 154 150 111 0
16.1432 41.5209 -62.9003 -0.561 -0.736 0.379 156 152 115 0
18.7858 41.0073 -62.4957 -0.220 -0.897 0.383 171 167 141 0
20.7382 36.6087 -60.4848 -0.530 -0.806 0.264 174 167 149 0
22.8440 33.1933 -58.8820 0.801 -0.184 -0.569 172 165 149 0
22.2849 40.3453 -61.9678 0.786 -0.214 -0.580 171 163 150 0
28.7503 58.9935 -69.4566 -0.682 -0.730 -0.052 169 157 145 0
29.0584 58.3125 -69.1449 -0.667 -0.742 -0.062 169 157 145 0
32.1462 27.0477 -55.6103 -0.707 -0.698 -0.118 168 156 144 0
32.8152 25.7443 -55.0080 -0.650 -0.753 -0.099 166 154 142 0
33.0093 27.8395 -55.8868 0.807 -0.444 -0.390 167 155 142 0
33.3062 28.8017 -56.2758 0.816 -0.435 -0.380 166 154 140 0
35.4477 37.4468 -59.8077 0.774 0.087 0.627 158 146 134 0
36.5140 56.6158 -67.8980 0.113 -0.667 -0.737 158 143 129 0
38.8799 42.7141 -61.8102 0.717 -0.399 -0.572 150 139 125 0
42.6809 62.3206 -69.8945 0.949 -0.001 0.315 147 133 123 0
47.2737 57.3898 -67.4713 0.000 -0.818 0.575 139 126 117 0
47.5028 57.6405 -67.5620 -0.025 -0.818 0.575 140 127 116 0
48.3918 58.0152 -67.6591 -0.378 -0.626 0.682 139 127 113 0
51.1374 57.2256 -67.1297 -0.580 -0.777 -0.245 255 255 255 0
-64.0911 19.7231 -59.5221 0.688 -0.653 -0.316 254 254 254 0
-63.9654 19.9065 -59.5917 0.633 -0.705 -0.320 133 133 133 0
-63.8148 20.0681 -59.6502 0.633 -0.705 -0.320 72 68 67 0
-63.6641 20.2300 -59.7087 0.633 -0.705 -0.320 232 220 218 0
-63.0069 20.2301 -59.6621 0.144 -0.969 -0.200 236 224 223 0
-47.9549 20.8966 -58.8777 0.912 -0.117 0.393 234 229 229 0
-17.3309 32.7255 -61.7636 0.512 -0.463 -0.723 214 212 215 0
-16.1026 31.4434 -61.1277 0.176 -0.716 -0.676 214 212 217 0
-9.7240 28.5532 -59.4376 0.786 -0.223 0.576 208 207 215 0
-1.8015 17.4219 -54.1113 0.553 -0.827 0.103 202 203 208 0
-1.3959 17.0205 -53.9107 0.600 -0.792 0.111 202 203 208 0
-7.9888 35.1216 -62.1251 -0.561 -0.788 -0.254 200 201 206 0
-6.8287 34.2422 -61.6663 -0.309 -0.915 -0.257 200 200 208 0
-6.4132 33.8755 -61.4799 -0.585 -0.802 -0.118 199 199 207 0
-6.0280 33.5732 -61.3232 -0.585 -0.802 -0.121 199 199 207 0
7.4646 26.7460 -57.4429 0.241 -0.737 0.632 198 198 196 0
7.9531 27.2732 -57.6338 0.254 -0.691 0.677 201 202 197 0
7.0536 33.6005 -60.4053 0.554 -0.832 0.038 200 201 195 0
11.2101 31.9205 -59.3910 0.645 -0.719 0.259 204 205 187 0
11.8645 34.4542 -60.4288 0.739 -0.647 0.188 206 202 182 0
14.7593 32.7766 -59.5052 0.818 -0.111 0.564 189 188 150 0
14.7930 34.4477 -60.2179 0.446 -0.579 -0.683 185 181 144 0
15.1601 33.8492 -59.9357 0.667 -0.436 0.604 183 179 143 0
15.1997 36.5029 -61.0685 0.203 -0.476 -0.856 170 166 128 0
14.9433 39.5669 -62.3979 -0.539 -0.658 -0.526 169 165 127 0
15.4982 41.2191 -63.0654 -0.503 -0.849 -0.162 166 162 127 0
15.7381 41.1892 -63.0356 -0.485 -0.838 0.250 167 164 128 0
15.9860 41.1206 -62.9886 -0.535 -0.826 0.180 170 166 133 0
18.8232 41.9430 -63.1390 -0.256 -0.927 0.273 171 166 146 0
19.2254 41.0413 -62.7245 -0.346 -0.670 0.657 171 164 146 0
20.7430 36.5329 -60.6874 -0.535 -0.791 0.298 173 166 149 0
21.0425 36.0885 -60.4760 -0.542 -0.781 0.311 171 165 148 0
22.7589 32.4290 -58.7880 0.806 -0.184 -0.562 171 164 148 0
21.8039 47.4535 -65.2852 0.682 -0.291 -0.671 170 162 149 0
22.0074 49.1555 -65.9991 0.863 -0.155 -0.481 170 163 150 0
32.2440 30.1443 -57.1364 0.973 0.052 0.223 165 153 141 0
32.5262 44.2159 -63.1379 0.909 0.001 0.416 163 151 137 0
32.6812 45.0357 -63.4777 0.909 0.001 0.416 162 150 136 0
38.4086 45.1862 -63.1351 0.214 -0.816 -0.536 152 139 127 0
38.6761 42.6814 -62.0442 0.721 -0.390 -0.573 152 140 127 0
40.6448 24.9637 -54.3225 0.518 -0.179 0.837 149 136 123 0
40.8149 25.1464 -54.3886 0.518 -0.179 0.837 148 135 122 0
40.9807 26.3532 -54.8932 0.766 -0.370 0.526 148 136 122 0
42.6692 60.8654 -69.5419 0.971 -0.049 0.236 149 133 123 0
47.1207 53.8346 -66.2169 -0.440 -0.606 0.663 140 126 117 0
47.4095 55.5205 -66.9178 -0.272 -0.511 0.815 140 127 116 0
47.4057 50.8983 -64.9402 0.237 -0.441 0.865 140 128 116 0
47.9961 54.4144 -66.4028 0.427 -0.860 -0.279 139 127 114 0
-64.2447 19.8013 -59.8334 0.630 -0.705 -0.326 255 255 255 0
-64.0718 19.9426 -59.8817 0.633 -0.705 -0.320 133 133 133 0
-63.9212 20.1044 -59.9405 0.633 -0.705 -0.320 72 68 67 0
-63.7704 20.2664 -59.9993 0.633 -0.705 -0.320 231 220 219 0
-63.1284 20.2812 -59.9596 0.140 -0.968 -0.209 235 223 223 0
-57.5831 27.6806 -62.7423 -0.550 -0.808 0.212 239 234 233 0
-47.3050 18.8668 -58.2152 0.894 -0.096 0.437 237 232 232 0
-47.3630 19.2446 -58.3817 0.900 -0.217 0.377 238 233 232 0
-50.4141 23.1491 -60.2794 0.895 -0.174 0.411 236 232 231 0
-48.1643 21.0641 -59.2215 0.983 -0.111 0.146 235 231 230 0
-18.0108 33.9164 -62.5811 0.424 -0.757 -0.497 213 212 214 0
-16.1036 30.9007 -61.1477 0.221 -0.714 -0.664 213 213 215 0
-16.1190 31.4175 -61.3710 0.148 -0.777 -0.612 214 211 218 0
-9.4565 28.4633 -59.6225 0.592 -0.365 0.719 209 208 215 0
-2.0285 17.3905 -54.3290 0.625 -0.777 -0.070 203 204 209 0
-1.7562 17.2776 -54.2609 0.531 -0.842 0.093 202 203 208 0
-1.1876 16.5251 -53.8966 0.574 -0.669 -0.472 202 203 207 0
-7.3131 34.1286 -61.9041 -0.572 -0.806 -0.150 200 201 206 0
3.7108 33.0059 -60.6298 -0.337 -0.783 0.523 198 199 203 0
3.9089 33.1174 -60.6635 0.748 -0.662 0.055 197 198 202 0
7.4927 26.6122 -57.6096 0.241 -0.737 0.632 198 200 196 0
7.3904 40.2426 -63.4765 -0.421 -0.900 0.110 200 203 189 0
7.9715 39.0897 -62.9392 -0.465 -0.802 0.375 201 204 188 0
14.4656 34.8215 -60.6379 0.421 -0.605 -0.675 195 191 157 0
15.2534 33.4121 -59.9754 0.642 -0.339 0.687 191 187 153 0
14.2105 41.6643 -63.5979 -0.710 -0.696 -0.110 185 182 148 0
14.9384 39.5355 -62.6305 -0.762 -0.644 -0.074 186 181 148 0
15.3355 40.8508 -63.1674 -0.624 -0.776 0.092 180 177 145 0
15.4559 41.3557 -63.3758 -0.145 -0.794 0.590 179 176 145 0
15.6161 41.6881 -63.5072 0.734 -0.674 0.085 178 175 144 0
15.9617 41.1784 -63.2632 -0.160 -0.733 0.661 179 175 145 0
17.5933 41.1302 -63.1253 -0.672 -0.505 0.541 172 169 142 0
18.9566 38.8776 -62.0591 -0.344 -0.901 0.264 172 167 145 0
20.9180 36.7174 -60.9895 -0.559 -0.796 0.233 171 166 147 0
23.0821 45.1696 -64.4677 0.951 0.171 0.258 171 163 150 0
32.9958 25.6931 -55.3829 0.339 -0.157 0.928 164 152 140 0
37.1488 51.4126 -66.1413 0.650 0.169 0.741 154 141 125 0
41.1538 26.5617 -55.1705 0.727 -0.234 0.645 149 135 121 0
41.5009 27.5861 -55.5859 0.391 -0.753 0.529 149 133 121 0
47.1119 53.5618 -66.3497 -0.451 -0.615 0.647 139 126 117 0
47.9985 54.3919 -66.6429 0.451 -0.877 -0.165 139 127 114 0
-64.1784 19.9787 -60.1724 0.633 -0.705 -0.320 133 133 133 0
-64.0278 20.1407 -60.2314 0.633 -0.705 -0.320 72 68 68 0
-63.8781 20.3041 -60.2911 0.624 -0.714 -0.317 232 221 220 0
-63.2454 20.3280 -60.2555 0.140 -0.968 -0.209 234 222 223 0
-56.9707 27.3229 -62.8209 -0.575 -0.753 0.322 239 234 231 0
-47.0615 18.2386 -58.1787 0.741 -0.339 0.579 237 232 231 0
-47.1888 18.6871 -58.3816 0.883 -0.162 0.439 237 233 232 0
-48.0497 20.8834 -59.3925 0.910 -0.138 0.392 234 233 229 0
-18.1270 34.0719 -62.9165 0.424 -0.757 -0.497 215 214 218 0
-17.9441 34.2364 -62.9743 0.543 -0.787 -0.291 214 213 218 0
-16.4472 31.9690 -61.8865 0.159 -0.730 -0.665 213 212 218 0
-9.4367 27.8638 -59.6048 0.531 -0.317 0.786 209 207 213 0
-9.3937 28.2819 -59.7823 0.578 -0.294 0.761 211 208 214 0
-6.7901 23.9524 -57.7236 -0.286 -0.935 -0.210 209 207 212 0
-7.1555 25.1984 -58.2882 -0.218 -0.923 -0.318 208 205 212 0
-1.3294 16.7831 -54.2312 0.483 -0.698 -0.529 204 203 208 0
-6.0474 32.3616 -61.3013 -0.594 -0.647 0.478 200 201 206 0
-5.7633 32.2852 -61.2477 -0.601 -0.652 0.462 200 201 208 0
3.7111 32.9521 -60.8481 -0.233 -0.814 0.532 198 199 203 0
6.2724 27.5421 -58.3259 -0.448 -0.880 0.157 197 198 202 0
7.1636 26.8855 -57.9776 -0.535 -0.834 0.136 198 201 197 0
11.9219 22.0434 -55.5412 0.591 -0.786 -0.182 202 204 193 0
7.9827 38.9972 -63.1487 -0.465 -0.800 0.380 202 203 190 0
11.0793 32.2820 -60.0240 0.268 -0.917 0.294 202 204 187 0
11.4616 31.7206 -59.7538 0.250 -0.876 0.412 202 205 185 0
11.6842 31.7230 -59.7387 0.167 -0.938 0.304 202 205 184 0
11.7947 33.7715 -60.6153 0.999 -0.029 -0.015 204 203 182 0
15.6097 41.6633 -63.7466 0.686 -0.727 0.006 180 178 148 0
15.9633 41.1180 -63.4854 0.472 -0.881 -0.036 179 175 147 0
16.7621 38.5104 -62.3013 -0.114 -0.712 0.693 179 175 146 0
18.5067 38.8254 -62.3108 -0.041 -0.632 0.774 171 169 144 0
17.9938 42.5302 -63.9479 0.701 -0.706 0.102 170 167 145 0
