ply
format ascii 1.0
element vertex 836
property float x
property float y
property float z
property float nx
property float ny
property float nz
property uchar diffuse_red
property uchar diffuse_green
property uchar diffuse_blue
property uchar class
end_header
9.0652 37.9620 -36.6031 -0.072 -0.976 -0.208 65 33 31 0
9.1236 38.6325 -36.7583 0.741 -0.577 -0.344 66 34 33 0
11.0816 55.3985 -40.6534 0.947 -0.197 0.255 65 115 64 0
11.2131 55.9955 -40.7936 0.921 -0.223 0.320 65 115 64 0
19.7381 58.4648 -41.5704 0.136 -0.885 0.446 203 199 187 0
45.3850 38.7466 -37.6787 0.606 -0.105 0.789 178 162 147 0
45.6036 39.2743 -37.8052 0.664 -0.089 0.742 178 162 147 0
47.8285 53.6695 -41.1629 -0.573 -0.666 0.478 173 159 148 0
49.6475 51.4272 -40.6933 0.203 -0.949 -0.243 246 246 245 0
49.8422 51.3889 -40.6893 0.209 -0.946 -0.248 254 255 255 0
50.0429 51.4164 -40.7005 0.156 -0.956 -0.249 254 255 255 0
-54.3420 17.2385 -30.5127 0.075 -0.970 -0.231 255 255 255 0
-54.1225 17.3005 -30.5323 0.082 -0.969 -0.233 136 136 137 0
-53.8664 17.3249 -30.5441 0.082 -0.969 -0.233 68 64 62 0
-53.6260 17.3652 -30.5592 0.169 -0.953 -0.252 230 220 212 0
-53.3470 17.3654 -30.5660 0.078 -0.971 -0.227 235 223 218 0
-53.2907 17.5958 -30.6206 -0.060 -0.989 -0.135 236 226 220 0
-27.8159 36.0014 -35.4890 0.382 -0.666 0.641 235 225 213 0
-17.3137 25.8667 -33.3977 -0.334 -0.875 0.350 128 66 74 0
-16.6016 25.4270 -33.3131 -0.366 -0.730 0.577 122 56 68 0
-15.6177 28.1361 -33.9632 -0.493 -0.857 -0.153 116 40 53 0
-15.2206 27.8271 -33.9013 -0.458 -0.875 -0.157 116 39 53 0
-13.4299 27.0999 -33.7761 0.326 -0.918 0.227 126 48 62 0
-6.8294 23.2563 -33.0459 -0.055 -0.995 0.085 135 42 53 0
-2.0126 22.6561 -33.0229 0.150 -0.959 0.240 159 65 78 0
-0.1726 22.8438 -33.1105 -0.167 -0.852 0.496 116 36 49 0
0.0547 22.8016 -33.1062 -0.167 -0.852 0.496 113 35 49 0
6.0124 28.3452 -34.5313 0.642 -0.419 0.642 74 12 23 0
7.4670 29.9237 -34.9313 0.195 -0.950 0.243 63 7 16 0
7.5687 30.3198 -35.0253 -0.262 -0.702 0.662 60 7 15 0
7.9092 29.8652 -34.9283 0.350 -0.929 0.124 60 9 17 0
9.0670 37.8873 -36.8113 -0.124 -0.965 -0.232 63 34 30 0
11.1341 55.0574 -40.8315 0.953 -0.199 0.228 64 114 63 0
11.2785 55.5869 -40.9574 0.920 -0.225 0.321 64 114 63 0
11.2670 56.9147 -41.2642 0.955 -0.296 0.032 66 116 65 0
18.7508 60.1972 -42.2031 0.234 -0.542 0.807 203 199 186 0
19.0108 60.1163 -42.1906 0.161 -0.553 0.817 202 199 186 0
19.2983 59.8264 -42.1305 0.189 -0.678 0.710 201 199 186 0
19.6770 58.8372 -41.9109 0.124 -0.852 0.508 202 198 186 0
19.7477 60.1767 -42.2223 -0.002 -0.737 0.676 200 196 184 0
19.9962 60.1715 -42.2271 -0.002 -0.737 0.676 200 196 184 0
47.8477 53.8992 -41.4458 -0.601 -0.629 0.494 174 160 149 0
50.3347 52.3444 -41.1460 0.215 -0.916 -0.338 255 255 254 0
-54.4142 17.2534 -30.7427 0.055 -0.983 -0.174 255 255 255 0
-54.2270 17.3487 -30.7693 0.082 -0.969 -0.233 136 135 135 0
-53.9706 17.3731 -30.7810 0.082 -0.969 -0.233 69 66 64 0
-53.8227 17.5089 -30.8161 0.495 -0.766 -0.410 233 223 219 0
-53.4494 17.4124 -30.8024 0.078 -0.971 -0.227 237 225 219 0
-53.4034 17.6537 -30.8597 -0.024 -0.989 -0.144 237 227 221 0
-27.2394 36.3404 -35.8269 0.422 -0.672 0.609 232 223 208 0
-17.3006 25.7831 -33.5989 -0.342 -0.875 0.342 129 66 74 0
-17.0416 25.7462 -33.5964 -0.335 -0.859 0.388 127 62 70 0
-16.6303 25.4219 -33.5304 -0.236 -0.850 0.472 124 56 67 0
-15.6370 28.1137 -34.1810 -0.525 -0.846 0.091 117 40 53 0
-14.4123 27.1104 -33.9758 -0.226 -0.958 0.175 122 41 56 0
-9.9378 23.1672 -33.1615 0.776 -0.492 0.394 128 46 60 0
-7.7366 23.7359 -33.3455 0.002 -0.733 0.680 137 45 59 0
-6.8442 23.2323 -33.2490 -0.004 -0.974 0.226 136 44 55 0
-0.1746 22.7921 -33.3024 -0.082 -0.947 0.311 118 36 52 0
0.1028 22.6175 -33.2682 -0.211 -0.972 0.106 114 35 51 0
0.1947 22.9334 -33.3440 0.634 -0.712 0.301 114 36 50 0
4.9166 27.0223 -34.4074 0.627 -0.774 -0.092 79 13 23 0
5.0647 27.9050 -34.6166 0.758 -0.539 0.367 78 15 24 0
7.4552 29.9032 -35.1383 0.196 -0.949 0.248 64 8 17 0
7.8462 30.0289 -35.1767 0.658 -0.724 -0.208 60 9 17 0
8.5563 30.5442 -35.3134 0.017 -0.897 0.441 61 16 22 0
8.7502 30.6143 -35.3343 0.051 -0.908 0.416 62 17 23 0
8.9732 30.5758 -35.3305 0.116 -0.566 0.816 60 18 22 0
8.9681 31.3956 -35.5215 0.410 -0.368 0.835 60 19 23 0
7.8035 37.4859 -36.9137 0.920 -0.315 0.235 60 23 27 0
7.9652 37.7308 -36.9745 0.969 -0.246 0.030 61 26 28 0
8.4348 36.7818 -36.7643 0.889 -0.399 0.222 60 26 27 0
9.0375 37.9381 -37.0479 -0.123 -0.964 -0.235 65 34 32 0
11.5787 61.8811 -42.6876 0.901 0.061 0.429 68 121 70 0
11.5568 63.3998 -43.0410 0.687 -0.201 0.698 69 123 73 0
19.3621 59.2617 -42.2592 0.029 -0.641 0.767 201 197 185 0
19.6526 58.9319 -42.1891 0.108 -0.820 0.562 201 197 185 0
19.8018 59.6719 -42.3651 -0.038 -0.737 0.675 201 197 185 0
33.7727 55.3826 -41.6922 0.878 -0.372 -0.302 193 182 167 0
39.4862 30.5054 -36.0279 0.422 -0.531 -0.735 190 177 161 0
45.2858 67.8269 -44.8619 0.237 -0.952 -0.195 187 171 158 0
45.9118 41.0288 -38.6309 0.048 -0.606 0.794 175 162 146 0
47.8366 48.7469 -40.4747 -0.020 -0.850 0.526 173 160 147 0
48.1286 49.8989 -40.7500 0.192 -0.938 -0.288 172 158 145 0
48.6533 51.3975 -41.1116 0.652 -0.719 -0.241 169 155 142 0
50.3721 52.6998 -41.4553 -0.175 -0.927 -0.333 255 255 254 0
-54.4764 17.2580 -30.9709 0.055 -0.984 -0.172 255 255 255 0
-54.0751 17.4214 -31.0184 0.082 -0.969 -0.233 69 66 65 0
-53.5520 17.4596 -31.0393 0.078 -0.971 -0.227 237 226 221 0
-53.4956 17.6902 -31.0947 -0.024 -0.989 -0.144 236 227 223 0
-17.3884 25.8874 -33.8418 -0.305 -0.952 -0.019 128 64 72 0
-17.1090 25.8130 -33.8307 -0.368 -0.915 0.163 125 60 68 0
-16.7583 25.6034 -33.7895 -0.344 -0.924 0.165 122 55 65 0
-15.0987 27.4660 -34.2647 -0.612 -0.744 0.269 120 40 54 0
-14.7240 27.1972 -34.2101 -0.614 -0.745 0.259 121 40 55 0
-10.6962 22.8121 -33.2718 0.351 -0.537 0.767 124 46 60 0
-10.2818 22.8878 -33.2990 -0.086 -0.672 0.736 128 49 63 0
-7.7989 23.8160 -33.5736 0.129 -0.761 0.636 134 42 57 0
-7.1252 23.3082 -33.4696 0.558 -0.690 0.461 135 43 56 0
-0.4649 22.9405 -33.5349 0.781 -0.587 0.215 124 41 56 0
0.2086 25.1300 -34.0644 0.013 -0.999 0.049 114 40 57 0
2.8847 24.7883 -34.0451 -0.066 -0.869 0.490 95 25 36 0
4.8370 27.2145 -34.6594 0.642 -0.765 0.046 78 12 22 0
4.9162 27.6384 -34.7608 0.716 -0.634 0.291 78 12 22 0
5.1027 27.7227 -34.7848 0.755 -0.543 0.368 75 11 22 0
5.2680 27.8757 -34.8245 0.748 -0.547 0.375 76 13 24 0
5.4316 28.0354 -34.8657 0.123 -0.896 0.427 78 15 26 0
5.5909 28.2105 -34.9105 0.597 -0.672 0.439 76 13 24 0
5.7468 28.3981 -34.9581 0.514 -0.749 0.417 76 13 24 0
6.2385 28.1776 -34.9175 0.540 -0.830 -0.141 75 13 25 0
6.6704 28.1497 -34.9208 0.502 -0.865 0.011 71 10 23 0
6.8187 28.3647 -34.9746 0.536 -0.844 -0.023 71 9 22 0
7.4527 29.8504 -35.3380 0.196 -0.949 0.248 65 9 18 0
8.5134 30.6398 -35.5476 0.083 -0.910 0.406 62 16 22 0
8.7409 30.5862 -35.5402 0.067 -0.916 0.395 63 18 23 0
7.4625 37.8576 -37.2190 0.960 -0.234 0.151 62 23 27 0
8.8084 37.8884 -37.2568 0.554 -0.801 0.230 64 33 31 0
9.0298 37.9014 -37.2649 -0.195 -0.967 -0.166 65 34 32 0
11.6107 51.3227 -40.4760 0.259 -0.485 0.835 62 110 60 0
11.6077 52.5460 -40.7633 0.146 -0.552 0.821 63 112 61 0
11.1528 58.6279 -42.1814 0.815 -0.226 0.534 66 116 65 0
11.5857 59.0378 -42.2876 0.876 0.068 0.478 66 116 65 0
19.6085 59.1749 -42.5024 0.060 -0.835 0.547 199 195 183 0
35.0046 49.4043 -40.5579 -0.569 -0.725 -0.389 191 182 167 0
44.8399 63.6721 -44.1329 -0.036 -0.933 -0.357 187 171 156 0
45.2885 67.8829 -45.1321 0.237 -0.952 -0.195 186 170 157 0
45.5807 69.0019 -45.4016 0.345 -0.894 -0.287 185 169 155 0
47.8531 48.9332 -40.7397 -0.188 -0.956 0.225 173 159 147 0
48.1013 49.5541 -40.8911 0.195 -0.949 -0.249 171 157 145 0
49.6659 51.5578 -41.3974 -0.007 -0.941 -0.339 247 247 244 0
50.4499 53.4628 -41.8626 -0.199 -0.913 -0.356 255 255 254 0
-54.5117 17.2351 -31.1934 0.170 -0.949 -0.265 255 255 255 0
-54.1798 17.4698 -31.2563 0.082 -0.969 -0.233 69 66 65 0
-53.8888 17.7478 -31.3286 0.493 -0.777 -0.391 237 226 223 0
-54.9111 19.3888 -31.6943 0.296 -0.939 -0.177 236 226 225 0
-14.6414 26.9737 -34.3806 -0.614 -0.733 0.293 120 39 54 0
-13.6256 26.3638 -34.2587 -0.577 -0.487 0.656 125 42 58 0
-8.0055 24.2147 -33.8744 -0.446 -0.887 0.118 132 39 55 0
-7.0852 23.1615 -33.6455 0.547 -0.682 0.485 135 43 56 0
-0.2268 22.8149 -33.7152 0.398 -0.907 -0.138 119 39 54 0
0.1349 25.2717 -34.3047 -0.010 -1.000 0.007 107 34 51 0
4.8506 27.1114 -34.8445 0.661 -0.748 0.064 77 11 23 0
5.5957 28.1340 -35.1030 0.520 -0.756 0.398 76 13 23 0
5.7756 28.2422 -35.1326 0.520 -0.756 0.398 75 12 23 0
6.1587 28.3829 -35.1744 0.173 -0.861 0.478 75 12 23 0
6.2932 28.6453 -35.2394 0.438 -0.841 0.318 72 10 21 0
6.6634 28.1126 -35.1216 0.221 -0.971 0.089 71 9 21 0
7.4167 29.9151 -35.5649 0.285 -0.933 0.218 63 9 17 0
7.2844 37.6079 -37.3828 0.954 -0.260 0.148 61 20 24 0
7.3985 38.0334 -37.4860 0.957 -0.197 0.212 62 22 28 0
7.5421 38.3510 -37.5644 0.957 -0.196 0.215 61 25 29 0
7.6086 38.9697 -37.7123 0.967 -0.197 0.161 61 27 29 0
8.7903 37.8930 -37.4836 0.836 -0.541 0.087 64 33 31 0
11.7353 59.5154 -42.6666 0.621 -0.291 0.728 65 118 66 0
21.4798 53.8904 -41.5508 -0.396 -0.582 0.710 201 195 181 0
25.6387 47.1194 -40.0402 0.559 -0.434 0.707 201 191 180 0
35.0009 49.3733 -40.7808 -0.575 -0.726 -0.377 191 182 167 0
48.1128 49.6753 -41.1424 0.221 -0.928 -0.299 170 156 145 0
49.4868 51.7520 -41.6643 0.015 -0.960 -0.279 50 50 49 0
-54.5842 17.2501 -31.4244 0.164 -0.952 -0.258 255 255 255 0
-54.2775 17.5109 -31.4932 0.051 -0.972 -0.231 69 66 65 0
-54.0708 17.5871 -31.5158 0.515 -0.758 -0.401 234 225 220 0
-53.9968 17.8000 -31.5681 0.493 -0.777 -0.391 238 226 222 0
-53.4696 17.8354 -31.5879 -0.084 -0.975 -0.207 236 226 224 0
-20.2089 29.6235 -35.1143 -0.752 -0.658 0.029 134 77 80 0
-19.1246 28.5396 -34.8791 -0.684 -0.666 -0.299 128 67 74 0
-13.0202 23.2495 -33.7485 -0.059 -0.966 0.252 118 40 52 0
-12.7833 23.2351 -33.7501 -0.117 -0.959 0.259 119 38 53 0
-12.7569 23.6386 -33.8470 0.070 -0.994 -0.078 122 40 56 0
-8.1234 24.4170 -34.1322 -0.437 -0.892 0.112 131 37 53 0
-7.9450 24.5200 -34.1606 -0.375 -0.909 0.182 135 41 57 0
-5.9704 24.0936 -34.1013 0.845 -0.291 0.448 131 38 51 0
-5.2792 24.0286 -34.1007 0.202 -0.709 0.676 130 38 50 0
-4.7230 23.2373 -33.9239 0.481 -0.558 0.677 129 37 50 0
-1.8528 24.1962 -34.2143 -0.146 -0.989 -0.035 125 37 53 0
4.0453 28.2388 -35.3052 0.004 -0.953 -0.304 81 15 25 0
8.2393 31.5232 -36.1787 0.311 -0.897 0.314 62 17 21 0
8.3210 32.0177 -36.2984 0.237 -0.904 0.356 63 18 20 0
7.4652 37.7131 -37.6384 0.847 -0.203 0.491 61 24 28 0
7.5741 38.1614 -37.7477 0.839 -0.189 0.510 61 26 30 0
11.8091 57.7097 -42.5012 0.866 0.068 0.496 65 116 65 0
19.5710 59.2782 -43.0421 -0.178 -0.892 0.416 199 195 183 0
19.7716 59.6323 -43.1309 -0.007 -0.837 0.547 199 195 183 0
36.9882 32.8740 -37.1187 0.720 -0.344 0.602 189 176 166 0
42.5232 50.5080 -41.4436 -0.159 -0.364 0.918 188 176 162 0
49.2956 51.8237 -41.9029 0.004 -0.959 -0.282 106 98 91 0
49.4956 51.8259 -41.9077 0.004 -0.959 -0.282 50 50 50 0
-54.7138 17.3229 -31.6683 0.220 -0.931 -0.292 255 255 255 0
-54.3853 17.5622 -31.7327 0.051 -0.972 -0.231 69 66 64 0
-54.1799 17.6401 -31.7557 0.515 -0.758 -0.401 233 223 219 0
-54.1050 17.8522 -31.8083 0.493 -0.777 -0.391 239 226 220 0
-53.7477 18.0644 -31.8667 0.193 -0.903 -0.384 237 226 221 0
-23.7619 34.1624 -36.3609 -0.584 -0.776 0.239 145 96 102 0
-19.6396 28.0649 -34.9814 -0.213 -0.902 0.376 134 81 85 0
-14.9491 25.1402 -34.3763 0.581 -0.218 0.784 117 43 54 0
-13.0230 23.1972 -33.9496 -0.059 -0.966 0.252 118 42 53 0
-12.7858 23.1824 -33.9509 -0.059 -0.966 0.252 118 40 54 0
-12.8499 23.7654 -34.0897 0.045 -0.992 -0.117 120 41 56 0
-13.0374 25.0650 -34.3981 0.107 -0.743 -0.660 124 44 57 0
-8.6125 23.9515 -34.2228 0.508 -0.857 0.084 129 38 53 0
-6.5971 24.4536 -34.3855 0.351 -0.717 -0.602 134 38 52 0
-4.0830 24.2659 -34.3928 0.511 -0.844 -0.161 129 36 51 0
-3.8502 24.2331 -34.3898 0.365 -0.922 -0.130 130 36 52 0
-3.6971 24.3941 -34.4317 0.046 -0.998 -0.036 130 37 53 0
-0.0075 23.8074 -34.3676 0.374 -0.872 0.316 115 41 61 0
4.4358 25.6475 -34.9025 0.115 -0.804 0.584 82 17 25 0
4.9088 26.1420 -35.0312 0.832 -0.482 0.276 78 13 22 0
5.0357 27.7562 -35.4218 0.064 -0.935 0.350 72 9 18 0
5.2662 27.7003 -35.4132 0.012 -0.947 0.321 73 10 19 0
7.9399 30.2091 -36.0719 0.625 -0.776 0.085 63 13 20 0
7.3348 37.2845 -37.7597 0.611 -0.564 0.556 60 21 26 0
7.4607 37.6631 -37.8533 0.846 -0.199 0.495 60 25 29 0
7.6307 37.8782 -37.9086 0.842 -0.201 0.501 60 26 29 0
7.7922 38.1280 -37.9720 0.801 -0.144 0.580 60 28 29 0
11.9860 56.7074 -42.5246 0.865 0.059 0.497 64 116 65 0
19.5307 59.4916 -43.3511 -0.323 -0.935 0.144 198 194 182 0
19.7777 59.4948 -43.3570 -0.008 -0.849 0.528 200 195 183 0
39.9023 54.5713 -42.5934 0.732 -0.477 0.486 192 179 162 0
40.1153 54.4628 -42.5718 0.649 -0.602 0.465 191 178 162 0
40.3082 53.4186 -42.3249 0.657 -0.732 0.181 191 178 162 0
40.5424 54.3707 -42.5586 0.586 -0.616 0.527 191 178 162 0
46.5025 68.8943 -46.1733 -0.381 -0.668 0.639 181 167 158 0
49.3040 51.8952 -42.1463 0.004 -0.959 -0.282 106 97 92 0
49.5042 51.8973 -42.1510 0.004 -0.959 -0.282 50 50 50 0
-54.8208 17.3727 -31.9078 0.220 -0.931 -0.292 255 255 255 0
-54.4933 17.6136 -31.9728 0.051 -0.972 -0.231 70 66 64 0
-54.2892 17.6931 -31.9962 0.515 -0.758 -0.401 233 223 218 0
-54.2134 17.9047 -32.0489 0.493 -0.777 -0.391 239 225 219 0
-53.9941 17.9690 -32.0690 0.288 -0.889 -0.356 238 225 220 0
-53.6511 17.9053 -32.0605 0.052 -0.904 -0.425 237 225 219 0
-24.4392 35.7986 -36.9840 -0.724 -0.570 0.389 140 90 97 0
-19.6062 27.9429 -35.1794 -0.189 -0.932 0.311 133 81 85 0
-19.3111 27.8537 -35.1638 -0.226 -0.903 0.366 133 78 82 0
-16.9819 25.3387 -34.6018 -0.118 -0.993 0.003 126 60 68 0
-15.3359 26.7540 -34.9778 -0.509 -0.435 0.743 116 42 53 0
-12.9969 23.0883 -34.1375 0.442 -0.897 -0.003 120 43 55 0
-12.5523 22.6629 -34.0434 0.665 -0.647 0.372 119 42 55 0
-13.3576 25.1804 -34.6368 0.444 -0.691 -0.571 123 45 58 0
-13.2395 25.4115 -34.6951 0.766 -0.464 -0.444 123 45 57 0
-8.8473 22.4705 -34.0718 0.384 -0.802 0.458 131 47 60 0
-8.6196 23.9089 -34.4247 0.210 -0.966 0.148 130 39 54 0
-6.4285 25.0344 -34.7415 0.981 -0.173 0.089 129 37 51 0
-4.1502 22.2838 -34.1215 0.560 -0.747 -0.358 131 38 52 0
-4.1608 22.8235 -34.2520 0.312 -0.931 0.189 131 39 53 0
-3.4705 24.3173 -34.6277 -0.142 -0.919 -0.368 130 37 55 0
5.2632 27.6493 -35.6111 0.006 -0.943 0.332 75 12 20 0
6.5633 28.9893 -35.9619 0.428 -0.739 0.520 70 8 17 0
7.6479 29.6659 -36.1476 -0.107 -0.955 0.276 63 11 16 0
7.5236 37.3580 -38.0078 0.430 -0.567 0.702 60 26 28 0
8.8151 34.1283 -37.2518 0.136 -0.477 0.868 60 29 29 0
8.2422 41.7072 -39.0755 0.848 -0.277 0.451 66 38 31 0
11.8445 57.3615 -42.9390 0.860 -0.130 0.493 63 116 64 0
34.0583 32.0720 -37.2643 0.246 -0.966 -0.078 190 183 167 0
38.0885 36.1541 -38.3342 0.939 -0.072 0.336 191 178 164 0
38.8923 41.4507 -39.6330 0.985 -0.075 0.153 190 177 161 0
39.8977 54.4413 -42.7991 0.899 -0.233 0.370 191 178 161 0
43.1055 59.8857 -44.1823 0.695 -0.241 0.678 185 173 159 0
49.3124 51.9668 -42.3902 0.004 -0.959 -0.282 106 98 92 0
49.5128 51.9689 -42.3948 0.004 -0.959 -0.282 50 50 50 0
50.5328 54.2075 -42.9575 0.251 -0.927 -0.279 255 255 255 0
-54.9263 17.4208 -32.1475 0.164 -0.951 -0.261 255 255 255 0
-54.8687 17.6495 -32.2044 0.085 -0.966 -0.245 136 135 135 0
-54.6016 17.6652 -32.2135 0.051 -0.972 -0.231 71 66 65 0
-54.3988 17.7463 -32.2372 0.515 -0.758 -0.401 233 222 218 0
-54.3221 17.9572 -32.2902 0.493 -0.777 -0.391 238 223 219 0
-54.0866 18.0051 -32.3065 0.284 -0.891 -0.354 237 223 220 0
-53.9236 18.1279 -32.3396 0.065 -0.904 -0.423 238 224 220 0
-28.6346 36.4780 -37.3118 -0.160 -0.784 -0.600 235 225 215 0
-23.6006 33.7431 -36.7431 -0.553 -0.618 0.559 149 99 108 0
-19.5939 27.8599 -35.3862 -0.196 -0.934 0.298 134 82 87 0
-19.2241 27.6337 -35.3382 -0.239 -0.937 0.253 133 78 83 0
-17.3393 26.3960 -35.0732 -0.574 -0.819 0.001 125 58 67 0
-14.7662 26.0456 -35.0381 -0.566 -0.423 0.708 119 42 55 0
-13.5302 25.4659 -34.9208 0.601 -0.627 -0.496 119 41 54 0
-13.9039 26.6838 -35.2107 0.665 -0.731 -0.150 119 41 54 0
-8.7292 22.6375 -34.3248 0.699 -0.711 0.073 129 42 56 0
-8.5821 22.8010 -34.3676 0.698 -0.713 0.072 132 41 56 0
-7.6133 22.6300 -34.3448 0.052 -0.998 0.034 131 39 54 0
-7.2699 22.8505 -34.4053 0.261 -0.939 -0.223 130 34 51 0
-7.1020 22.9697 -34.4377 0.253 -0.931 -0.262 131 35 49 0
-6.6728 22.9997 -34.4534 0.216 -0.868 0.447 131 35 49 0
-6.9228 24.5699 -34.8316 0.326 -0.924 -0.201 135 39 51 0
-6.4232 24.9637 -34.9375 0.981 -0.173 0.089 135 42 56 0
-6.1056 25.2658 -35.0174 0.471 -0.712 -0.521 129 37 48 0
-4.2129 24.4637 -34.8588 0.070 -0.909 -0.410 126 36 51 0
4.5618 28.4632 -36.0064 0.518 -0.599 0.611 74 11 20 0
7.2254 28.1152 -35.9736 0.201 -0.953 0.227 64 9 14 0
6.8449 36.4556 -38.0010 0.861 -0.471 0.191 61 18 19 0
8.6593 33.8219 -37.3940 0.167 -0.605 0.778 59 29 28 0
8.7719 34.2292 -37.4956 0.122 -0.493 0.862 61 31 29 0
9.0673 33.9341 -37.4293 -0.283 -0.543 0.790 64 34 32 0
9.2855 33.9345 -37.4337 -0.311 -0.551 0.774 63 33 30 0
9.5027 33.9377 -37.4388 0.131 -0.349 0.928 63 35 31 0
9.1628 60.3746 -43.8820 -0.256 -0.966 0.029 58 106 58 0
11.6031 50.9733 -41.6362 0.272 -0.757 0.595 60 110 61 0
11.2351 54.0000 -42.3674 0.251 -0.833 0.494 59 111 60 0
12.0593 53.5978 -42.2854 0.964 -0.264 0.008 63 116 64 0
11.8940 57.0224 -43.1177 0.929 -0.114 0.352 65 117 65 0
26.2143 60.8863 -44.3408 -0.338 -0.891 -0.302 193 185 172 0
34.0589 31.9203 -37.4274 0.102 -0.974 0.204 190 183 167 0
38.6784 39.6751 -39.4098 0.974 -0.068 0.216 188 177 160 0
38.8868 41.1676 -39.7780 0.976 -0.063 0.207 188 176 160 0
42.2675 54.9875 -43.2160 -0.192 -0.981 -0.037 186 174 161 0
42.4794 54.9501 -43.2110 -0.185 -0.982 -0.021 185 173 160 0
46.2228 45.3649 -40.9457 0.325 -0.421 -0.847 177 163 154 0
46.4439 45.7556 -41.0454 0.323 -0.422 -0.847 177 163 153 0
46.6762 46.2847 -41.1790 0.035 -0.844 -0.535 177 163 152 0
46.8682 46.2618 -41.1772 -0.214 -0.762 -0.611 178 164 153 0
47.1089 46.8727 -41.3309 0.399 -0.455 -0.797 177 163 152 0
47.3765 47.8050 -41.5636 0.407 -0.490 -0.771 176 162 151 0
49.5214 52.0407 -42.6390 0.004 -0.959 -0.282 50 50 51 0
-55.0763 17.5139 -32.3979 0.160 -0.950 -0.267 255 255 255 0
-54.9776 17.7012 -32.4457 0.085 -0.966 -0.245 135 135 136 0
-54.7048 17.7114 -32.4534 0.041 -0.971 -0.234 69 66 64 0
-54.5622 17.8545 -32.4913 0.503 -0.768 -0.396 231 220 218 0
-54.4310 18.0098 -32.5320 0.493 -0.777 -0.391 237 223 220 0
-54.1736 18.0356 -32.5432 0.275 -0.893 -0.357 236 223 222 0
-29.7438 37.3634 -37.7567 -0.093 -0.963 -0.254 236 228 215 0
-28.8385 36.7596 -37.6255 -0.160 -0.784 -0.600 234 225 214 0
-28.2711 36.2566 -37.5126 -0.165 -0.795 -0.584 235 224 214 0
-23.5496 33.5869 -36.9458 -0.546 -0.649 0.530 148 100 108 0
-16.9458 25.1532 -34.9979 0.410 -0.855 0.317 127 62 70 0
-16.8375 25.3968 -35.0598 0.282 -0.920 0.274 125 59 67 0
-13.6156 25.5771 -35.1652 0.601 -0.627 -0.496 120 44 56 0
-14.1118 27.0405 -35.5155 0.736 -0.652 -0.181 119 43 55 0
-8.8970 21.9887 -34.3725 0.673 -0.718 0.178 126 42 55 0
-6.4561 22.4554 -34.5335 0.106 -0.829 0.550 131 35 50 0
-5.9980 25.4791 -35.2854 0.524 -0.729 -0.440 129 36 47 0
-3.8357 24.0240 -34.9687 0.061 -0.985 -0.162 126 38 52 0
-3.6029 23.9900 -34.9647 0.506 -0.631 0.588 125 34 50 0
0.4401 23.0063 -34.7995 0.063 -0.998 -0.014 108 38 55 0
0.6782 23.5070 -34.9271 0.102 -0.994 -0.039 104 34 53 0
2.8677 23.2737 -34.9113 -0.114 -0.775 0.621 88 24 35 0
3.9549 23.7560 -35.0504 0.356 -0.551 0.755 85 21 29 0
6.7064 28.3805 -36.2392 0.374 -0.813 0.446 68 7 17 0
8.2634 30.3975 -36.7645 0.122 -0.929 0.350 61 18 18 0
7.5657 34.5570 -37.7737 0.702 -0.534 0.472 61 21 21 0
7.5382 37.1690 -38.4152 0.517 -0.738 0.435 59 27 25 0
8.6177 33.9156 -37.6359 0.156 -0.435 0.887 60 31 28 0
9.0769 33.8321 -37.6241 -0.102 -0.531 0.841 63 33 30 0
9.2767 33.9039 -37.6456 -0.189 -0.552 0.812 62 34 30 0
9.4931 33.9105 -37.6513 -0.114 -0.516 0.849 63 35 30 0
8.2031 40.7963 -39.3194 0.436 -0.331 0.837 62 37 30 0
8.3839 40.9975 -39.3722 0.744 -0.226 0.629 66 39 32 0
7.4936 45.5438 -40.4728 0.356 -0.323 0.877 68 42 35 0
11.4830 44.6513 -40.3291 -0.081 -0.461 0.883 54 97 49 0
11.7485 44.4995 -40.2968 -0.044 -0.368 0.929 58 102 53 0
9.0737 60.7206 -44.2332 -0.291 -0.951 0.103 58 106 57 0
11.4070 51.8570 -42.0988 0.936 -0.350 -0.023 58 109 60 0
11.7364 51.4400 -42.0025 0.968 -0.225 -0.112 58 111 59 0
11.8903 51.8899 -42.1160 0.969 -0.226 -0.097 59 112 60 0
12.0262 52.4381 -42.2533 0.970 -0.227 -0.086 61 114 62 0
12.1536 53.0381 -42.4032 0.970 -0.227 -0.086 62 115 63 0
11.9299 58.0785 -43.6379 0.950 -0.123 0.286 62 117 64 0
38.4688 37.7236 -39.1374 0.973 -0.090 0.214 186 177 161 0
38.6728 39.3299 -39.5361 0.968 -0.075 0.238 186 178 161 0
40.8832 51.2001 -42.4957 0.411 -0.095 0.907 190 176 165 0
41.3064 51.4103 -42.5554 0.481 -0.027 0.876 189 175 164 0
41.5115 51.2977 -42.5316 0.499 -0.252 0.829 190 176 165 0
42.4849 55.1295 -43.4919 -0.138 -0.990 -0.021 185 173 161 0
49.5286 52.0978 -42.8801 0.009 -0.962 -0.273 50 51 51 0
-55.1792 17.5591 -32.6379 0.221 -0.937 -0.270 255 255 255 0
-55.0867 17.7530 -32.6876 0.085 -0.966 -0.245 135 135 136 0
-54.8287 17.7786 -32.6987 0.085 -0.966 -0.245 69 66 65 0
-54.6718 17.9074 -32.7335 0.503 -0.768 -0.396 232 222 220 0
-54.5402 18.0626 -32.7743 0.493 -0.777 -0.391 237 223 222 0
-54.2908 18.0969 -32.7874 0.267 -0.912 -0.311 235 224 222 0
-30.2237 37.6396 -38.0672 -0.087 -0.955 -0.284 236 228 215 0
-30.2559 38.6337 -38.3128 -0.206 -0.875 -0.437 234 226 213 0
-29.3977 37.6463 -38.0840 0.120 -0.806 -0.580 233 223 211 0
-28.2487 37.0898 -37.9672 0.116 -0.806 -0.580 231 221 209 0
-17.1280 25.8811 -35.3952 0.309 -0.888 0.341 123 58 66 0
-7.2396 23.1607 -34.9026 0.627 -0.760 0.169 132 35 52 0
-3.6277 23.9926 -35.1747 0.517 -0.623 0.587 123 33 48 0
2.4523 23.8050 -35.2396 -0.094 -0.996 0.005 88 24 38 0
5.2759 27.4274 -36.1882 -0.052 -0.940 0.338 74 13 21 0
7.5405 29.1081 -36.6459 0.682 -0.570 0.459 62 12 16 0
8.0062 40.5918 -39.4980 0.838 -0.545 -0.017 64 37 30 0
8.3698 40.0622 -39.3736 0.867 -0.328 0.375 64 38 31 0
9.2151 39.4181 -39.2295 0.391 -0.741 -0.546 70 44 37 0
11.7448 43.3645 -40.2531 0.116 -0.490 0.864 55 98 51 0
11.7829 51.1324 -42.1773 0.955 -0.295 -0.014 57 110 58 0
12.1697 52.8773 -42.6165 0.970 -0.235 -0.053 61 114 62 0
12.2633 53.6599 -42.8119 0.967 -0.247 -0.059 62 113 63 0
11.9072 58.1148 -43.9086 0.944 -0.109 0.310 61 116 63 0
39.9783 47.7727 -41.8615 0.951 -0.088 0.297 186 175 165 0
41.2524 49.6011 -42.3376 0.537 -0.259 0.803 188 174 163 0
41.4931 50.7440 -42.6250 0.528 -0.246 0.813 187 173 162 0
42.0726 55.6176 -43.8424 0.237 -0.910 0.339 188 174 163 0
42.2719 55.1818 -43.7382 -0.101 -0.986 0.133 186 173 162 0
43.6931 63.3144 -45.7780 0.584 -0.517 0.625 185 173 161 0
48.6572 51.2948 -42.8925 0.835 -0.543 -0.095 169 155 146 0
49.5370 52.1673 -43.1247 0.009 -0.962 -0.273 50 51 51 0
-55.3282 17.6509 -32.8893 0.202 -0.938 -0.282 255 255 255 0
-55.1961 17.8048 -32.9301 0.085 -0.966 -0.245 135 135 136 0
-54.9377 17.8304 -32.9410 0.085 -0.966 -0.245 68 65 64 0
-54.7817 17.9605 -32.9762 0.503 -0.768 -0.396 231 221 219 0
-54.6497 18.1155 -33.0172 0.493 -0.777 -0.391 237 223 221 0
-54.3983 18.1482 -33.0298 0.267 -0.912 -0.311 236 225 223 0
-29.6264 36.5679 -38.0623 0.238 -0.872 -0.428 235 227 214 0
-29.3471 36.5599 -38.0652 0.131 -0.898 -0.419 235 227 214 0
-29.5833 37.4257 -38.2770 0.297 -0.916 -0.269 234 226 213 0
-30.1945 39.8946 -38.8821 0.118 -0.902 -0.416 231 221 209 0
-28.3981 37.2811 -38.2619 0.117 -0.806 -0.580 231 221 209 0
-15.2868 26.4191 -35.7840 -0.427 -0.877 0.221 116 44 56 0
-4.1879 22.1453 -34.9140 0.400 -0.893 0.205 126 37 49 0
-4.0039 22.2225 -34.9365 0.400 -0.893 0.205 126 38 52 0
-3.6029 23.8743 -35.3556 0.501 -0.650 0.572 125 35 50 0
0.5297 23.2199 -35.2654 -0.022 -0.999 -0.037 102 34 49 0
2.2091 23.8396 -35.4496 -0.070 -0.998 0.001 87 23 37 0
5.2657 27.3997 -36.3917 -0.040 -0.946 0.322 74 12 23 0
5.5899 27.0389 -36.3074 -0.060 -0.778 0.626 74 12 21 0
6.1954 27.1336 -36.3418 0.191 -0.795 0.576 73 11 23 0
6.3995 27.1569 -36.3512 0.140 -0.817 0.559 71 10 22 0
8.4062 30.5317 -37.2285 0.545 -0.641 0.541 60 20 21 0
8.6061 30.5832 -37.2448 0.457 -0.647 0.610 62 22 23 0
8.7039 31.0143 -37.3541 0.538 -0.542 0.646 63 24 24 0
8.0003 40.5457 -39.7193 0.774 -0.601 -0.198 64 36 32 0
7.7585 43.3716 -40.4200 0.103 -0.542 0.834 67 39 34 0
7.8131 44.1054 -40.6040 0.602 -0.496 0.626 68 42 36 0
11.5735 43.0182 -40.3992 0.140 -0.522 0.841 54 97 51 0
11.7919 43.0739 -40.4170 0.132 -0.472 0.872 55 100 54 0
14.4879 37.6867 -39.1208 -0.486 -0.733 0.477 56 109 58 0
12.4980 52.3755 -42.7497 0.554 -0.548 0.627 61 114 65 0
12.6276 52.9726 -42.9010 0.575 -0.519 0.633 60 114 63 0
24.3221 55.2026 -43.6639 0.297 -0.652 0.697 199 190 181 0
33.9308 24.8645 -36.2657 0.584 -0.803 0.116 191 182 173 0
34.9101 20.6711 -35.2370 0.814 -0.368 -0.449 190 180 168 0
36.7955 31.6869 -38.0182 0.596 -0.779 -0.194 190 179 165 0
40.2017 48.7991 -42.3470 0.959 -0.107 0.263 189 176 167 0
40.8187 48.8277 -42.3651 0.579 0.048 0.814 189 177 165 0
41.2602 49.9254 -42.6467 0.550 -0.169 0.818 188 175 164 0
43.4451 48.4001 -42.3048 0.097 -0.621 -0.778 182 171 159 0
44.5257 33.7409 -38.6671 0.944 -0.322 -0.074 178 168 156 0
47.4546 69.2639 -47.5802 0.472 -0.170 0.865 180 168 156 0
47.7282 69.8735 -47.7371 0.448 -0.171 0.877 181 168 156 0
48.6624 51.3374 -43.1297 0.817 -0.566 -0.112 169 155 146 0
-55.4533 17.7183 -33.1357 0.206 -0.933 -0.297 255 255 255 0
-55.3087 17.8598 -33.1737 0.101 -0.963 -0.249 135 135 135 0
-55.0470 17.8825 -33.1839 0.085 -0.966 -0.245 69 66 64 0
-54.9112 18.0335 -33.2242 0.500 -0.776 -0.385 231 221 217 0
-54.7746 18.1841 -33.2643 0.485 -0.781 -0.393 236 222 218 0
-54.5062 18.1997 -33.2728 0.267 -0.912 -0.311 236 223 221 0
-29.7294 36.6748 -38.3372 0.238 -0.872 -0.428 234 226 213 0
-29.6920 37.0759 -38.4386 0.434 -0.888 -0.150 234 226 213 0
-29.4091 37.0636 -38.4403 0.404 -0.896 -0.183 234 226 213 0
-15.2302 25.7874 -35.8483 -0.529 -0.774 0.349 117 46 56 0
-3.6497 23.9303 -35.5788 0.197 -0.977 -0.083 124 33 49 0
-0.7512 23.1704 -35.4372 0.752 -0.571 0.329 112 35 54 0
7.8017 29.5666 -37.1901 0.944 -0.238 -0.230 61 14 19 0
8.4345 30.3652 -37.4015 0.681 -0.726 -0.094 63 21 23 0
8.7730 30.6944 -37.4900 0.765 -0.644 -0.004 64 24 24 0
7.9561 40.6514 -39.9781 0.773 -0.604 -0.195 66 36 34 0
7.7073 43.5061 -40.6912 -0.159 -0.665 0.730 68 40 36 0
7.9347 43.5416 -40.7040 0.658 -0.485 0.577 69 44 39 0
8.4462 42.4177 -40.4303 0.151 -0.978 -0.143 70 45 39 0
8.6429 42.5693 -40.4717 0.040 -0.999 -0.027 70 45 38 0
14.8075 36.0392 -38.9358 -0.374 -0.565 0.735 56 108 59 0
24.3608 52.4392 -43.2195 0.820 0.059 0.569 199 191 180 0
26.0047 54.6142 -43.7941 -0.415 -0.526 0.743 197 189 178 0
34.4560 24.5246 -36.3770 0.699 -0.708 -0.100 188 182 167 0
40.3948 48.3258 -42.4589 0.918 -0.243 0.312 187 176 164 0
42.4901 55.3638 -44.2631 0.165 -0.896 0.412 182 172 160 0
43.1576 61.3030 -45.7669 0.250 -0.968 0.010 182 172 160 0
44.5177 49.6541 -42.8629 0.722 -0.414 -0.555 181 171 159 0
44.4812 33.0276 -38.6844 0.916 -0.382 0.122 177 166 154 0
47.6870 69.2665 -47.8451 0.429 -0.175 0.886 177 163 152 0
-55.5644 17.7713 -33.3793 0.206 -0.933 -0.297 255 255 255 0
-55.4177 17.9111 -33.4171 0.101 -0.963 -0.249 135 135 136 0
-55.1565 17.9346 -33.4273 0.085 -0.966 -0.245 69 66 63 0
-55.0194 18.0845 -33.4675 0.500 -0.776 -0.385 229 221 212 0
-54.8693 18.2216 -33.5047 0.493 -0.777 -0.391 232 222 213 0
-54.5881 18.2244 -33.5100 0.253 -0.897 -0.363 232 222 216 0
-30.8969 40.9630 -39.6537 0.008 -0.768 -0.640 231 222 206 0
-20.1890 30.0142 -37.0579 -0.731 -0.593 0.338 130 70 81 0
-19.5642 29.3226 -36.8931 -0.735 -0.628 0.255 130 68 79 0
-16.0552 26.3976 -36.2102 0.620 -0.784 -0.032 118 50 60 0
-15.9970 26.7474 -36.2997 0.354 -0.899 -0.259 115 47 58 0
-15.7803 26.7926 -36.3147 0.320 -0.891 -0.323 116 47 58 0
-14.9882 26.6488 -36.2913 -0.047 -0.936 0.350 116 43 54 0
-12.6147 25.2102 -35.9661 0.150 -0.628 0.763 118 40 51 0
-8.7918 22.4851 -35.3390 0.552 -0.685 0.475 129 41 53 0
-2.6621 24.1308 -35.8560 -0.170 -0.976 -0.138 116 28 47 0
-1.2520 22.2063 -35.3920 -0.166 -0.939 -0.300 113 35 51 0
0.6845 25.0066 -36.1325 0.554 -0.650 0.520 93 29 42 0
8.4641 30.1940 -37.5730 0.627 -0.755 -0.190 63 22 23 0
8.6563 30.2724 -37.5960 0.025 -0.949 -0.314 64 23 24 0
8.7731 30.6310 -37.6886 -0.020 -0.942 -0.334 64 24 24 0
9.0353 30.4493 -37.6470 -0.045 -0.949 -0.311 64 26 25 0
7.5387 43.1647 -40.8408 -0.429 -0.894 0.131 68 37 34 0
7.7468 43.2764 -40.8725 -0.041 -0.988 0.149 69 41 37 0
7.9448 43.4300 -40.9146 -0.088 -0.964 0.251 70 43 38 0
8.4482 42.3391 -40.6468 0.169 -0.924 -0.343 70 45 40 0
8.6705 42.3852 -40.6621 0.147 -0.940 -0.309 70 48 41 0
9.1988 43.1035 -40.8526 0.587 -0.807 -0.073 64 52 38 0
17.0564 30.9317 -37.9005 0.064 -0.267 0.962 61 114 64 0
36.0454 32.8651 -38.7011 0.172 -0.629 0.758 188 179 166 0
44.6979 33.6765 -39.0483 0.812 -0.509 0.286 173 165 152 0
47.1186 67.6672 -47.6914 0.553 -0.139 0.822 175 165 153 0
47.3718 68.0198 -47.7848 0.541 -0.138 0.830 176 164 152 0
47.6488 68.7051 -47.9628 0.568 -0.140 0.811 176 162 151 0
48.2510 58.8401 -45.4757 0.646 -0.672 0.363 175 163 149 0
48.6292 60.8927 -46.0014 0.617 -0.669 0.415 174 162 148 0
-55.6790 17.8279 -33.6243 0.188 -0.940 -0.285 255 255 255 0
-55.5271 17.9625 -33.6610 0.101 -0.963 -0.249 136 135 136 0
-55.2663 17.9868 -33.6713 0.085 -0.966 -0.245 69 65 63 0
-55.1279 18.1357 -33.7115 0.500 -0.776 -0.385 229 221 211 0
-54.9962 18.2920 -33.7534 0.504 -0.772 -0.387 234 224 213 0
-54.5055 18.0800 -33.7071 0.001 -0.973 -0.231 232 223 214 0
-31.0935 41.2311 -39.9780 0.008 -0.768 -0.640 230 221 206 0
-16.0805 26.3864 -36.4299 0.620 -0.784 -0.032 121 50 61 0
-15.8688 26.4405 -36.4470 0.622 -0.783 -0.028 121 50 62 0
-15.7667 26.7064 -36.5164 0.458 -0.795 -0.397 120 48 60 0
-15.6072 26.8624 -36.5587 -0.392 -0.905 -0.166 119 47 58 0
-15.2440 26.6219 -36.5031 -0.385 -0.910 -0.157 119 46 57 0
-13.8374 24.7923 -36.0588 0.105 -0.754 0.649 119 43 55 0
-12.3590 24.1656 -35.9223 0.202 -0.968 0.147 118 41 53 0
-6.1141 22.8904 -35.6955 -0.283 -0.849 0.447 128 37 52 0
-0.7943 23.1672 -35.8499 0.256 -0.638 0.726 104 30 49 0
0.9063 24.9286 -36.3257 0.088 -0.982 -0.168 91 25 38 0
3.7286 27.3436 -36.9858 0.634 -0.673 -0.380 76 12 26 0
4.3097 26.2134 -36.7069 0.441 -0.849 -0.291 75 12 27 0
7.2233 29.9734 -37.7113 0.550 -0.827 -0.117 61 13 21 0
8.6462 30.2468 -37.8035 0.149 -0.955 -0.257 62 22 23 0
8.8379 30.3271 -37.8269 0.758 -0.624 -0.193 63 23 24 0
9.0452 30.3491 -37.8358 -0.007 -0.943 -0.331 64 26 25 0
7.6094 41.8817 -40.7534 0.341 -0.912 -0.229 68 37 34 0
7.8072 42.0254 -40.7931 0.393 -0.913 -0.105 68 38 34 0
7.9292 42.4739 -40.9094 0.859 -0.479 -0.183 70 41 37 0
8.1269 42.6226 -40.9504 0.888 -0.426 -0.173 71 43 39 0
8.5072 42.0281 -40.8048 0.635 -0.700 0.327 71 45 40 0
8.7190 42.1153 -40.8304 0.629 -0.707 0.322 69 49 40 0
9.3639 44.3259 -41.4041 0.981 -0.189 0.041 56 61 38 0
9.7596 44.6541 -41.4940 0.741 -0.620 0.258 58 81 46 0
17.2338 31.0048 -38.1319 0.047 -0.999 -0.022 62 117 65 0
17.3584 31.4272 -38.2416 -0.215 -0.956 -0.201 64 118 66 0
13.1282 55.3199 -44.2663 0.366 -0.160 0.917 64 117 67 0
13.1711 56.4432 -44.5533 0.337 -0.154 0.929 64 117 67 0
26.0038 54.4275 -44.2415 -0.456 -0.519 0.723 195 187 176 0
44.2160 51.6679 -43.8248 -0.107 -0.942 -0.318 184 172 160 0
44.6353 51.8025 -43.8657 -0.361 -0.844 0.397 181 170 157 0
47.0744 66.9894 -47.7759 0.553 -0.139 0.822 176 165 153 0
47.3295 67.3852 -47.8808 0.553 -0.139 0.822 176 164 152 0
47.8535 59.2220 -45.8079 -0.580 -0.814 -0.008 175 163 151 0
47.9865 58.1657 -45.5407 -0.402 -0.897 0.185 174 162 150 0
48.2427 58.7186 -45.6857 0.646 -0.672 0.363 174 162 149 0
-55.7894 17.8799 -33.8687 0.188 -0.940 -0.285 255 255 255 0
-55.6367 18.0141 -33.9055 0.101 -0.963 -0.249 136 135 136 0
-54.7294 18.2503 -33.9799 0.120 -0.958 -0.262 234 224 215 0
-29.8593 37.1582 -39.2107 0.364 -0.655 -0.662 233 225 214 0
-30.9806 41.4573 -40.2977 -0.021 -0.791 -0.612 231 221 208 0
-19.9560 29.0019 -37.2660 0.723 -0.634 0.273 135 78 83 0
-15.3929 26.8524 -36.7830 -0.468 -0.880 -0.081 122 47 58 0
-13.1601 23.8571 -36.0476 0.253 -0.960 -0.119 124 48 60 0
-12.3710 24.1314 -36.1300 0.202 -0.968 0.147 119 42 52 0
-11.2006 23.1553 -35.8970 0.415 -0.882 -0.223 118 41 51 0
-10.9190 23.0454 -35.8730 0.317 -0.942 0.107 121 41 51 0
-10.7935 23.7270 -36.0499 0.071 -0.996 0.053 123 43 52 0
-9.4745 23.3443 -35.9716 0.289 -0.936 0.201 128 44 54 0
-9.2247 23.2934 -35.9623 0.310 -0.948 0.077 125 38 49 0
-8.8809 23.0399 -35.9024 0.265 -0.964 0.025 127 38 50 0
-7.8759 23.2928 -35.9825 0.426 -0.811 0.401 127 36 51 0
-4.9296 21.6243 -35.5986 0.414 -0.904 0.110 126 35 50 0
-3.6743 22.2409 -35.7759 0.930 -0.357 -0.086 116 28 43 0
0.7247 24.7786 -36.4940 0.812 -0.563 0.151 90 24 38 0
0.9062 24.8703 -36.5202 0.564 -0.616 0.550 89 24 38 0
7.3094 42.0697 -41.0334 0.028 -0.906 -0.422 67 36 33 0
7.5916 41.8819 -40.9895 0.370 -0.853 -0.369 68 37 34 0
7.7651 42.1224 -41.0538 0.322 -0.898 -0.300 68 38 35 0
7.9524 42.3103 -41.1049 0.868 -0.465 -0.172 70 41 37 0
8.1061 42.6360 -41.1909 0.872 -0.454 -0.185 70 42 37 0
8.5161 41.9214 -41.0136 0.658 -0.704 0.267 70 45 38 0
8.7211 42.0361 -41.0461 0.616 -0.733 0.290 67 48 37 0
17.0514 31.9011 -38.5695 -0.053 -0.957 -0.285 60 117 64 0
17.3060 31.6398 -38.5063 -0.151 -0.948 -0.282 62 118 66 0
13.2859 57.1097 -44.9856 -0.191 -0.150 0.970 65 117 68 0
17.3674 65.1501 -47.1119 -0.334 -0.560 0.758 192 190 175 0
23.5870 57.3528 -45.2037 -0.387 -0.860 0.333 198 190 179 0
23.8583 57.0479 -45.1295 -0.270 -0.827 0.493 197 189 178 0
25.5813 56.4347 -44.9981 -0.382 -0.779 0.497 195 187 176 0
26.0184 54.1637 -44.4215 -0.456 -0.519 0.723 195 187 176 0
36.6125 30.4780 -38.4996 -0.087 -0.771 0.630 186 178 163 0
37.6954 40.2214 -41.0179 0.942 -0.229 -0.243 185 175 163 0
41.2266 48.9804 -43.3203 0.856 -0.015 0.516 184 174 162 0
44.2113 51.5827 -44.0336 -0.137 -0.891 -0.433 183 171 160 0
44.9613 53.9314 -44.6481 -0.017 -0.905 0.425 181 169 156 0
47.8919 59.7152 -46.1775 -0.385 -0.907 0.171 175 163 151 0
48.0536 59.0192 -46.0012 -0.404 -0.903 0.148 173 161 149 0
48.2639 58.9725 -45.9924 0.040 -0.942 0.333 173 161 149 0
48.7728 62.6473 -46.9437 0.362 -0.917 -0.166 173 161 150 0
48.7575 52.3610 -44.3022 0.610 -0.789 -0.072 170 155 148 0
49.1607 52.3505 -44.3056 0.355 -0.907 -0.227 168 153 147 0
-55.8999 17.9320 -34.1137 0.188 -0.940 -0.285 255 255 255 0
-55.7465 18.0658 -34.1506 0.101 -0.963 -0.249 136 135 136 0
-55.3455 18.2384 -34.2010 0.500 -0.776 -0.385 230 221 212 0
-55.2010 18.3821 -34.2402 0.499 -0.777 -0.383 234 224 213 0
-32.0315 40.7496 -40.3600 0.144 -0.757 -0.637 232 224 213 0
-23.6083 34.1886 -38.7850 -0.351 -0.929 -0.119 143 93 96 0
-20.0208 29.0589 -37.5103 0.329 -0.871 -0.364 136 79 83 0
-13.2088 23.8951 -36.2734 0.216 -0.971 -0.108 127 51 62 0
-12.9904 23.9221 -36.2836 0.241 -0.967 -0.080 130 54 66 0
-12.5795 24.0270 -36.3167 0.241 -0.967 -0.080 130 53 64 0
-12.3742 24.0795 -36.3332 0.241 -0.967 -0.080 121 44 54 0
-11.1227 23.4054 -36.1770 0.110 -0.993 -0.044 123 43 53 0
-10.5303 23.5964 -36.2349 0.530 -0.848 0.017 121 41 50 0
-10.2745 24.4971 -36.4716 -0.454 -0.819 0.351 126 44 54 0
-9.9188 24.2283 -36.4072 -0.168 -0.871 0.463 128 42 54 0
-9.1653 23.1090 -36.1286 0.320 -0.946 -0.058 125 37 50 0
-4.5657 22.2381 -35.9700 0.390 -0.919 0.059 121 31 46 0
-3.3124 21.8337 -35.8835 0.463 -0.836 -0.296 119 31 47 0
-1.4553 25.9071 -36.9638 0.218 -0.848 -0.484 103 34 51 0
0.8537 23.7812 -36.4474 0.407 -0.335 0.850 93 27 41 0
0.7948 24.5276 -36.6396 0.596 -0.577 0.558 91 26 40 0
0.9375 24.7253 -36.6928 0.566 -0.615 0.549 88 23 37 0
1.0909 25.4938 -36.8938 -0.482 -0.718 0.502 84 22 37 0
7.3571 41.8128 -41.2047 -0.157 -0.919 -0.361 66 35 31 0
7.9071 42.4217 -41.3701 0.724 -0.647 -0.240 67 39 34 0
8.2461 42.0001 -41.2660 0.590 -0.762 -0.268 67 42 34 0
9.2400 43.7065 -41.7217 0.945 -0.316 0.081 50 55 32 0
9.4730 44.7271 -41.9890 0.739 -0.651 0.173 57 76 43 0
10.1184 45.0056 -42.0704 0.322 -0.623 0.712 54 88 48 0
18.8281 60.1051 -46.1013 0.056 -0.961 -0.270 191 193 179 0
23.7495 58.0090 -45.6304 -0.496 -0.859 -0.124 196 188 177 0
23.9802 58.1108 -45.6601 -0.557 -0.804 -0.207 198 190 179 0
24.2768 57.5486 -45.5190 -0.500 -0.855 -0.135 197 189 178 0
24.5348 57.3593 -45.4737 -0.461 -0.866 -0.192 196 188 177 0
36.4231 31.0617 -38.8448 0.580 -0.339 0.741 187 178 162 0
40.9913 64.9482 -47.6744 0.781 0.001 0.624 186 176 164 0
41.4944 33.4666 -39.5401 0.415 -0.649 -0.637 183 173 161 0
43.9928 51.3471 -44.2004 -0.015 -0.999 -0.042 183 170 161 0
44.9452 53.6482 -44.8093 -0.093 -0.988 0.121 179 167 155 0
46.5094 61.7592 -46.9295 0.817 -0.486 -0.309 175 165 153 0
47.8922 59.7056 -46.4184 -0.415 -0.898 0.146 174 161 152 0
48.0533 59.0005 -46.2384 -0.413 -0.895 0.167 172 159 150 0
48.2612 58.9215 -46.2210 -0.380 -0.914 0.140 172 159 150 0
48.7822 62.7466 -47.2177 0.358 -0.921 -0.155 173 160 151 0
48.7649 52.4277 -44.5489 0.627 -0.774 -0.085 170 155 148 0
48.9599 52.3442 -44.5301 0.348 -0.905 -0.243 169 154 147 0
49.1697 52.4317 -44.5558 0.348 -0.905 -0.243 169 153 146 0
49.3848 52.5754 -44.5960 0.007 -0.962 -0.274 109 99 96 0
50.7182 55.8664 -45.4664 -0.242 -0.928 -0.283 255 255 255 0
-56.0107 17.9842 -34.3593 0.188 -0.940 -0.285 255 255 255 0
-55.8566 18.1176 -34.3962 0.101 -0.963 -0.249 135 135 135 0
-55.4547 18.2899 -34.4466 0.500 -0.776 -0.385 229 221 212 0
-15.2061 26.3683 -37.1070 -0.140 -0.805 0.576 124 50 61 0
-13.3712 24.1576 -36.5566 -0.185 -0.919 -0.349 126 50 60 0
-12.6044 24.0184 -36.5310 0.229 -0.969 -0.094 142 65 75 0
-12.4080 24.0891 -36.5521 0.241 -0.967 -0.080 122 44 54 0
-11.3683 23.3820 -36.3823 0.181 -0.956 -0.229 121 40 52 0
-10.6026 23.6886 -36.4728 0.299 -0.943 -0.145 123 42 51 0
-10.4759 23.9006 -36.5297 0.556 -0.831 -0.001 127 46 58 0
-10.3327 24.0793 -36.5782 0.599 -0.800 0.014 126 44 56 0
-10.0317 24.4092 -36.6683 0.299 -0.953 0.048 126 38 52 0
-9.2451 23.2213 -36.3698 0.564 -0.820 -0.094 125 37 51 0
-5.6761 23.7432 -36.5551 0.174 -0.972 0.155 127 35 50 0
-3.4185 22.0319 -36.1406 0.421 -0.848 -0.322 118 31 47 0
-1.5977 26.2211 -37.2568 0.013 -0.930 0.367 100 30 46 0
-1.2479 25.8795 -37.1727 0.050 -0.825 0.562 100 31 47 0
-1.0244 25.8684 -37.1729 0.054 -0.822 0.567 98 30 46 0
0.8151 24.4135 -36.8194 0.574 -0.595 0.563 90 26 40 0
1.3921 25.1938 -37.0306 0.039 -0.851 0.523 82 21 35 0
6.5002 25.0858 -37.0731 0.152 -0.681 0.716 71 12 25 0
7.2564 28.9246 -38.0833 0.380 -0.453 0.807 63 14 22 0
7.1518 30.0365 -38.3715 0.496 -0.395 0.774 62 15 23 0
7.2663 42.0979 -41.5145 -0.338 -0.913 -0.228 66 35 30 0
7.5517 41.8993 -41.4667 0.004 -0.982 0.188 67 36 31 0
7.7449 42.0621 -41.5118 0.223 -0.974 0.038 66 37 30 0
8.2228 42.0238 -41.5084 0.481 -0.812 -0.330 65 42 32 0
9.1340 44.0839 -42.0575 0.954 -0.299 -0.018 50 58 34 0
9.2401 44.6383 -42.2034 0.894 -0.447 0.041 58 74 43 0
14.3261 46.1313 -42.6626 0.976 -0.049 0.210 62 119 64 0
17.9258 61.0600 -46.6005 0.022 -0.965 0.263 191 187 175 0
18.9127 59.3996 -46.1817 0.191 -0.962 0.193 190 192 179 0
36.0748 29.8342 -38.7186 -0.062 -0.345 0.936 188 178 165 0
40.9533 63.4504 -47.5414 0.753 0.005 0.658 183 173 161 0
46.5538 62.4405 -47.3558 -0.186 -0.977 -0.108 175 165 155 0
48.0393 61.6372 -47.1671 0.482 -0.870 -0.101 174 161 152 0
48.6300 55.6495 -45.6158 0.185 -0.963 0.195 173 159 151 0
49.1908 52.6461 -44.8413 -0.003 -0.958 -0.286 171 153 147 0
-56.4838 18.1123 -34.6205 0.104 -0.962 -0.253 255 255 255 0
-56.1218 18.0366 -34.6054 0.188 -0.940 -0.285 255 255 255 0
-55.9670 18.1695 -34.6423 0.101 -0.963 -0.249 135 135 135 0
-55.5839 18.3617 -34.6978 0.499 -0.777 -0.383 229 222 213 0
-56.1863 20.4575 -35.2396 0.074 -0.778 -0.624 234 225 216 0
-47.9648 14.1874 -33.7033 -0.433 -0.759 -0.487 236 225 221 0
-13.4451 24.2450 -36.7964 -0.196 -0.923 -0.332 124 48 59 0
-12.6093 23.9699 -36.7352 -0.118 -0.987 0.107 131 53 63 0
-10.8396 23.6479 -36.6741 0.450 -0.885 -0.117 126 44 54 0
-10.6573 23.7442 -36.7018 0.450 -0.885 -0.117 123 42 52 0
-10.5264 23.9478 -36.7569 0.572 -0.820 0.018 122 41 54 0
-8.2977 23.5509 -36.6822 0.541 -0.794 0.278 127 39 55 0
-6.5410 23.1257 -36.5938 0.063 -0.730 0.680 128 36 51 0
-5.5839 23.4717 -36.6972 0.283 -0.945 -0.163 127 39 53 0
-1.8444 25.0904 -37.1710 0.723 -0.674 0.154 101 27 44 0
-1.5028 25.9130 -37.3913 0.112 -0.876 0.469 101 30 46 0
-1.2191 25.7444 -37.3508 0.052 -0.823 0.566 99 29 43 0
-1.0037 25.7542 -37.3562 0.052 -0.823 0.566 96 28 41 0
1.8513 23.8459 -36.8933 0.074 -0.997 -0.023 82 20 33 0
2.0471 23.8913 -36.9078 0.062 -0.998 -0.033 80 18 31 0
5.4660 27.7059 -37.9534 0.475 -0.817 -0.327 72 12 24 0
5.1450 29.4517 -38.4071 0.047 -0.963 0.265 71 11 23 0
5.2483 29.8251 -38.5064 0.146 -0.863 0.485 70 11 22 0
7.2733 42.0002 -41.7265 0.008 -0.918 0.396 66 35 28 0
7.5370 41.8870 -41.7002 0.025 -0.896 0.444 66 36 28 0
8.8906 43.0569 -42.0249 0.877 -0.468 -0.106 52 45 31 0
9.2173 44.6634 -42.4506 0.893 -0.448 0.043 56 74 41 0
9.7508 44.4024 -42.3892 0.315 -0.681 0.661 54 80 41 0
9.6151 53.7778 -44.8465 0.825 0.137 0.549 56 102 53 0
9.3408 58.6961 -46.1329 0.984 0.103 0.147 58 106 58 0
14.2581 45.1948 -42.6565 0.989 -0.110 0.104 63 118 63 0
14.4975 46.3818 -42.9710 0.974 -0.047 -0.223 63 117 65 0
14.7694 59.9952 -46.5452 0.838 0.181 0.515 78 127 82 0
14.6245 62.4162 -47.1783 0.842 0.177 0.510 85 128 87 0
17.7210 60.6342 -46.7517 0.035 -0.974 0.222 190 188 175 0
17.9226 60.9924 -46.8483 0.022 -0.965 0.263 190 187 175 0
18.2964 60.1388 -46.6293 0.057 -0.969 0.239 193 188 178 0
18.5693 59.9838 -46.5923 0.155 -0.935 0.319 193 190 179 0
25.6764 43.2880 -42.3068 0.529 -0.326 0.784 195 186 177 0
25.9309 42.8757 -42.2021 0.638 -0.294 0.712 195 186 177 0
33.6670 31.2844 -39.2638 0.294 -0.123 0.948 187 184 164 0
34.2457 36.6409 -40.6763 0.165 -0.912 -0.374 186 180 164 0
35.4301 26.1187 -37.9321 0.596 -0.256 0.761 186 179 166 0
35.5902 26.8318 -38.1213 0.674 -0.173 0.718 187 179 166 0
35.7413 28.1757 -38.4757 0.663 -0.392 0.638 188 179 166 0
35.9031 29.1303 -38.7282 0.297 -0.848 0.439 187 178 165 0
36.0820 29.0961 -38.7216 0.206 -0.722 0.661 187 177 164 0
-56.6293 18.1987 -34.8761 0.094 -0.965 -0.245 255 255 255 0
-56.2534 18.1095 -34.8573 0.139 -0.955 -0.262 255 255 255 0
-56.0799 18.2239 -34.8897 0.098 -0.963 -0.252 135 135 135 0
-55.6881 18.4079 -34.9432 0.479 -0.785 -0.393 229 222 215 0
-48.5374 14.4520 -33.9880 -0.288 -0.733 -0.617 235 224 219 0
-48.0352 14.2052 -33.9291 -0.288 -0.733 -0.617 235 224 220 0
-47.4085 13.8240 -33.8362 -0.407 -0.783 -0.470 235 224 220 0
-12.6340 23.9610 -36.9497 -0.140 -0.984 0.108 124 46 55 0
-6.5445 22.5770 -36.6605 0.458 -0.885 0.087 128 36 51 0
-6.4567 22.8778 -36.7411 0.373 -0.880 0.294 128 36 51 0
-6.2821 22.9842 -36.7714 0.241 -0.940 0.241 126 35 50 0
-5.6161 23.4882 -36.9129 0.336 -0.933 -0.132 123 35 51 0
-3.9640 21.6728 -36.4541 0.564 -0.770 -0.299 118 30 46 0
-5.2686 26.3577 -37.6752 -0.832 -0.554 -0.017 115 27 42 0
-1.5911 26.0849 -37.6492 0.044 -0.958 0.283 101 30 45 0
-1.3208 25.9531 -37.6178 0.004 -0.991 0.133 97 29 42 0
-1.0542 25.8287 -37.5883 -0.016 -0.959 0.283 95 27 39 0
-0.4344 24.7619 -37.3143 0.010 -0.711 0.703 95 29 39 0
1.7097 23.5906 -37.0318 0.079 -0.874 0.480 81 19 34 0
1.8297 23.8483 -37.1014 0.110 -0.876 0.470 82 20 33 0
2.0370 23.8617 -37.1075 0.127 -0.884 0.450 82 20 33 0
5.2611 29.7210 -38.6955 0.146 -0.863 0.485 69 10 20 0
7.6026 33.7704 -39.7945 0.956 -0.293 -0.031 65 28 22 0
7.6556 35.2207 -40.1782 0.989 -0.100 0.105 64 29 23 0
7.4889 42.0059 -41.9683 -0.218 -0.975 -0.034 66 34 27 0
8.3785 42.1993 -42.0305 0.548 -0.686 -0.479 59 41 29 0
8.5443 42.4787 -42.1064 0.476 -0.711 -0.518 57 41 28 0
8.4769 43.7239 -42.4344 0.843 -0.426 -0.328 51 40 28 0
9.2201 44.5787 -42.6695 0.753 -0.657 0.007 56 74 41 0
9.7211 44.4588 -42.6441 0.522 -0.735 0.433 56 82 43 0
9.6245 53.6549 -45.0719 0.850 0.153 0.504 55 101 52 0
9.4576 58.0555 -46.2321 0.989 0.093 0.119 59 105 56 0
14.3693 46.9876 -43.3703 0.932 -0.095 -0.351 63 118 63 0
17.9195 60.9248 -47.0961 0.022 -0.965 0.263 192 186 176 0
18.2709 60.2299 -46.9169 0.269 -0.914 0.303 193 188 178 0
18.4968 60.4143 -46.9685 0.172 -0.869 0.464 192 189 179 0
26.4067 31.9606 -39.5522 0.464 -0.790 0.401 198 189 180 0
32.2147 38.4329 -41.3346 0.622 0.049 0.782 192 182 170 0
32.3784 39.2035 -41.5402 0.624 0.057 0.779 193 182 170 0
35.7615 26.8391 -38.3168 0.684 -0.321 0.655 187 179 166 0
38.6995 44.9861 -43.1468 0.567 -0.305 0.765 183 174 163 0
38.9111 45.8980 -43.3903 0.462 -0.281 0.841 184 175 164 0
49.0036 52.7817 -45.3350 0.026 -0.950 -0.312 171 153 146 0
-56.3641 18.1611 -35.1043 0.139 -0.955 -0.262 255 255 255 0
-56.1920 18.2772 -35.1373 0.098 -0.963 -0.252 135 135 135 0
-55.8013 18.4630 -35.1913 0.479 -0.785 -0.393 228 221 213 0
-48.8858 14.7627 -34.2894 -0.306 -0.738 -0.602 234 223 217 0
-48.3979 14.5324 -34.2339 -0.309 -0.738 -0.600 234 223 217 0
-47.9182 14.3088 -34.1802 -0.398 -0.785 -0.474 234 223 218 0
-47.4890 14.1372 -34.1397 -0.577 -0.804 -0.146 236 224 219 0
-26.4709 34.7616 -39.8751 -0.480 -0.877 -0.016 224 216 204 0
-7.6596 24.0122 -37.2399 -0.163 -0.960 0.229 128 36 51 0
-0.2818 24.2970 -37.4034 -0.084 -0.782 0.618 92 26 38 0
0.6653 25.2409 -37.6657 0.136 -0.968 -0.211 85 23 37 0
1.0809 25.2856 -37.6826 0.241 -0.947 -0.212 82 20 33 0
1.2992 25.2776 -37.6830 0.207 -0.962 -0.178 82 20 33 0
1.5546 25.1641 -37.6559 0.438 -0.896 -0.075 83 20 34 0
1.9783 24.5712 -37.5032 0.012 -0.990 0.138 82 20 33 0
5.2421 29.7213 -38.9118 0.479 -0.876 0.060 68 11 20 0
5.4415 29.7807 -38.9300 0.330 -0.936 0.124 69 12 21 0
7.0388 33.3434 -39.8966 0.826 -0.564 0.002 64 23 21 0
7.3655 33.7633 -40.0121 0.948 -0.279 0.156 66 27 21 0
7.5237 33.9955 -40.0758 0.955 -0.296 0.005 67 28 23 0
7.4997 34.9043 -40.3172 0.981 -0.109 0.159 66 29 22 0
7.5704 36.3140 -40.6930 0.981 -0.087 0.173 66 32 23 0
7.3481 42.4899 -42.3330 -0.508 -0.828 -0.238 66 34 26 0
7.8668 41.3682 -42.0408 0.596 -0.685 0.419 66 37 27 0
8.8927 43.8894 -42.7236 0.923 -0.353 -0.153 53 58 34 0
9.1712 44.7150 -42.9465 0.767 -0.642 -0.003 57 75 40 0
9.7023 44.4677 -42.8870 0.525 -0.728 0.440 57 83 44 0
9.7031 53.2109 -45.2124 0.858 0.155 0.491 56 102 53 0
17.9204 60.8285 -47.3362 0.035 -0.967 0.252 192 186 176 0
18.4243 60.8434 -47.3462 0.117 -0.798 0.591 193 189 178 0
31.9200 36.2794 -40.9734 0.490 0.105 0.865 191 181 171 0
37.6796 38.5943 -41.6576 0.918 -0.147 0.367 183 175 164 0
49.0127 52.8651 -45.5881 0.026 -0.950 -0.312 170 153 146 0
-56.4750 18.2128 -35.3520 0.139 -0.955 -0.262 255 255 255 0
-56.3043 18.3307 -35.3854 0.098 -0.963 -0.252 135 135 135 0
-55.9124 18.5159 -35.4394 0.479 -0.784 -0.395 228 221 214 0
-55.3800 18.5578 -35.4567 0.113 -0.960 -0.256 231 222 214 0
-54.8890 18.6411 -35.4845 -0.124 -0.777 -0.617 234 224 215 0
-56.3223 20.4149 -35.9434 0.175 -0.900 -0.399 233 223 214 0
-56.6735 21.0791 -36.1173 0.074 -0.754 -0.653 234 224 215 0
-18.4764 28.1929 -38.4523 -0.212 -0.674 -0.708 135 70 78 0
-12.4744 23.5252 -37.2697 0.659 -0.730 0.183 122 46 54 0
-12.3318 23.7025 -37.3188 0.667 -0.723 0.181 120 44 52 0
-11.8846 23.2665 -37.2071 0.545 -0.757 0.361 120 41 51 0
-11.7055 23.3690 -37.2366 0.338 -0.904 -0.263 121 41 52 0
-10.2665 24.1876 -37.4720 -0.376 -0.860 0.344 123 35 49 0
-6.8497 23.1466 -37.2316 0.363 -0.744 0.561 127 35 50 0
-6.2670 22.8347 -37.1547 0.247 -0.940 0.234 126 34 49 0
-3.4105 22.8297 -37.1855 0.205 -0.833 0.514 112 24 40 0
-1.0938 22.4340 -37.1055 0.036 -0.993 0.109 102 24 41 0
-0.5010 24.2472 -37.5978 0.406 -0.672 0.619 90 23 35 0
1.0793 25.2311 -37.8791 0.130 -0.958 -0.255 81 19 32 0
1.3139 25.1776 -37.8674 0.346 -0.883 -0.318 82 20 33 0
1.5324 25.1679 -37.8673 0.778 -0.561 -0.282 83 20 33 0
2.8478 25.7041 -38.0257 0.853 -0.513 0.099 82 16 28 0
5.0717 29.5052 -39.0687 0.150 -0.945 0.290 70 11 23 0
5.2121 29.7576 -39.1379 0.450 -0.892 0.036 70 13 22 0
5.4423 29.7158 -39.1293 0.334 -0.936 0.112 70 14 23 0
7.0317 33.3041 -40.1081 0.826 -0.564 0.002 65 25 20 0
7.5121 33.9727 -40.2926 0.967 -0.229 -0.113 67 28 21 0
8.4991 36.1341 -40.8825 0.869 -0.277 0.411 64 35 25 0
7.8496 40.4476 -42.0305 0.834 -0.544 0.092 67 35 27 0
7.9443 40.9911 -42.1771 0.811 -0.549 0.203 66 37 26 0
8.1978 42.7915 -42.6621 0.644 -0.718 -0.263 55 38 22 0
8.2060 43.7208 -42.9111 0.769 -0.602 -0.216 54 42 25 0
8.3521 44.0952 -43.0130 0.789 -0.589 -0.174 50 45 26 0
8.5408 44.2976 -43.0693 0.775 -0.608 -0.173 49 52 30 0
