ply
format ascii 1.0
element vertex 836
property float x
property float y
property float z
property float nx
property float ny
property float nz
property uchar diffuse_red
property uchar diffuse_green
property uchar diffuse_blue
property uchar class
end_header
-19.4527 33.3456 -25.4282 -0.269 -0.961 0.067 124 74 75 0
-19.1202 33.1503 -25.4164 -0.136 -0.943 0.304 122 71 70 0
-18.5651 32.4677 -25.3384 0.215 -0.801 0.559 119 65 65 0
-9.1646 26.5876 -24.9463 -0.013 -1.000 0.010 134 48 56 0
-0.8809 28.2287 -25.7177 -0.072 -0.928 0.366 119 35 32 0
-0.8045 43.4691 -28.2173 0.067 -0.906 0.418 132 83 45 0
-0.5438 43.3848 -28.2193 0.082 -0.875 0.477 130 82 44 0
1.4010 39.5754 -27.7137 -0.452 -0.314 0.835 133 88 52 0
5.6518 36.9061 -27.5347 0.096 -0.484 0.870 128 59 44 0
6.0851 37.9110 -27.7255 0.024 -0.501 0.865 122 56 42 0
6.3086 37.9009 -27.7374 0.024 -0.501 0.865 118 54 40 0
6.7070 43.3559 -28.6547 0.923 -0.320 -0.212 98 42 39 0
7.5240 41.6157 -28.4194 0.722 -0.258 0.642 93 45 42 0
9.4646 49.6162 -29.8469 0.917 -0.002 0.400 176 164 148 0
9.5421 50.5237 -30.0001 0.917 -0.002 0.398 218 207 191 0
10.5681 51.5082 -30.2236 -0.417 -0.771 -0.481 220 212 194 0
10.9523 52.0834 -30.3411 -0.357 -0.772 -0.525 220 213 195 0
24.9516 30.6062 -27.6747 -0.476 -0.808 -0.347 213 204 187 0
25.1401 30.6142 -27.6874 -0.464 -0.771 -0.436 213 204 187 0
27.3050 42.0958 -29.6985 0.261 -0.357 0.897 209 197 185 0
37.8834 59.7564 -33.2317 0.491 -0.685 -0.539 195 181 168 0
44.9973 36.9734 -29.9336 -0.550 -0.539 0.638 181 162 146 0
48.8513 51.5952 -32.5613 0.291 -0.946 -0.147 172 156 135 0
49.0602 51.6631 -32.5850 0.291 -0.946 -0.147 110 101 90 0
49.2642 51.6943 -32.6025 0.292 -0.945 -0.147 50 50 50 0
49.4732 51.7632 -32.6265 0.296 -0.945 -0.140 247 247 245 0
49.7426 52.2779 -32.7271 0.815 -0.579 -0.019 254 255 255 0
49.9841 52.5784 -32.7910 0.824 -0.567 0.001 254 255 255 0
-47.2115 25.3921 -22.6681 0.746 -0.447 0.493 236 225 206 0
-25.4345 34.4031 -25.4692 0.679 -0.362 0.639 234 224 214 0
-24.4162 35.8795 -25.7747 0.937 0.061 0.343 230 222 209 0
-24.0401 38.7548 -26.2732 -0.394 -0.702 0.593 227 207 196 0
-21.9150 36.9594 -26.1039 -0.652 -0.719 0.243 136 91 88 0
-20.8136 35.6737 -25.9574 -0.607 -0.783 0.133 126 76 76 0
-20.2479 34.9886 -25.8780 -0.456 -0.890 -0.019 124 71 73 0
-18.7169 32.7277 -25.5960 -0.069 -0.997 0.046 120 63 65 0
-18.4505 32.6711 -25.6026 0.210 -0.917 0.340 118 59 61 0
-15.5644 29.4100 -25.2366 -0.289 -0.944 0.158 116 52 53 0
-9.3251 26.3713 -25.1090 0.031 -0.998 -0.046 131 45 54 0
-8.8021 26.7142 -25.1972 0.091 -0.984 0.155 135 45 57 0
-8.6110 26.7865 -25.2206 0.152 -0.946 0.286 135 47 58 0
-0.2049 28.7297 -26.0478 0.813 -0.504 0.291 115 40 36 0
-0.0767 29.0112 -26.1021 0.782 -0.532 0.324 121 48 42 0
0.0938 29.8720 -26.2548 0.628 -0.222 0.746 123 53 45 0
-0.9716 44.0006 -28.5288 0.593 -0.630 -0.501 136 82 48 0
5.5962 36.1159 -27.6191 0.113 -0.605 0.789 129 64 46 0
5.8121 36.1283 -27.6341 0.070 -0.642 0.763 128 62 45 0
6.2952 36.8934 -27.7898 0.646 -0.717 -0.261 116 53 40 0
6.4323 37.2619 -27.8590 0.314 -0.947 -0.073 112 51 38 0
6.8708 38.2761 -28.0532 0.458 -0.820 0.343 107 45 39 0
7.0808 38.3273 -28.0743 0.375 -0.916 0.144 104 43 40 0
7.3895 38.9549 -28.1968 0.857 -0.514 0.040 99 40 40 0
6.8713 43.5800 -28.9310 0.081 -0.695 0.715 94 42 40 0
7.5671 41.3177 -28.5985 0.725 -0.257 0.639 90 43 40 0
10.5130 51.7360 -30.4997 -0.444 -0.746 -0.496 219 212 194 0
24.6557 29.2876 -27.6355 -0.525 -0.790 -0.315 213 204 187 0
27.2976 42.0693 -29.9096 0.413 -0.498 0.763 205 196 179 0
27.5062 41.9953 -29.9099 0.491 -0.645 0.586 205 196 180 0
36.1162 61.2333 -33.6115 -0.053 -0.912 -0.407 197 184 168 0
44.1634 34.2350 -29.6276 -0.174 -0.826 -0.536 182 163 149 0
44.3444 34.2839 -29.6466 -0.167 -0.820 -0.547 182 161 148 0
48.8595 51.6531 -32.7926 0.287 -0.946 -0.150 171 156 133 0
49.0695 51.7280 -32.8176 0.300 -0.942 -0.150 110 102 89 0
49.2789 51.7986 -32.8419 0.300 -0.942 -0.150 50 51 50 0
49.4790 51.7986 -32.8539 0.296 -0.945 -0.140 247 247 245 0
49.6930 51.9034 -32.8841 0.368 -0.923 -0.113 254 255 255 0
-39.1835 14.5755 -21.5641 0.934 -0.358 -0.002 236 225 206 0
-24.8583 35.1786 -25.8643 0.979 -0.117 0.168 230 223 209 0
-23.3477 36.1989 -26.1250 0.666 -0.635 -0.392 225 215 200 0
-23.8995 38.9225 -26.5476 -0.434 -0.859 0.271 181 151 143 0
-20.7226 35.4062 -26.1488 -0.579 -0.804 0.135 124 74 74 0
-18.9881 32.7226 -25.8034 -0.235 -0.972 0.016 121 66 67 0
-18.7619 32.7547 -25.8222 -0.418 -0.849 0.323 118 62 62 0
-18.3103 32.2942 -25.7721 -0.492 -0.816 0.304 116 58 58 0
-16.0015 29.2821 -25.4059 -0.348 -0.938 0.007 114 52 54 0
-15.7957 29.3405 -25.4279 -0.407 -0.914 -0.004 114 51 53 0
-15.5898 29.3984 -25.4499 -0.361 -0.929 0.081 116 51 53 0
-15.3260 29.3257 -25.4535 -0.651 -0.451 0.611 115 48 52 0
-9.9865 27.9665 -25.5444 0.055 -0.697 0.715 131 45 54 0
-9.1746 26.4776 -25.3437 0.368 -0.757 0.540 132 44 55 0
-8.8397 26.1839 -25.3146 0.370 -0.701 0.609 132 45 57 0
-8.7662 26.5546 -25.3810 0.146 -0.952 0.271 133 47 58 0
-8.5558 26.5768 -25.3972 0.134 -0.955 0.264 136 52 62 0
-0.6681 28.7772 -26.2354 0.460 -0.864 0.206 115 36 34 0
-0.2724 28.8802 -26.2763 0.669 -0.741 0.051 120 46 43 0
-0.1260 29.1026 -26.3222 0.673 -0.733 0.096 127 54 48 0
0.0101 29.3613 -26.3736 0.712 -0.702 0.025 124 54 46 0
0.1944 29.4604 -26.4011 0.660 -0.739 0.133 121 51 43 0
0.3777 29.5636 -26.4293 0.175 -0.868 0.464 115 47 37 0
0.5835 29.5909 -26.4461 -0.063 -0.726 0.684 109 43 31 0
3.0216 33.2227 -27.1990 0.188 -0.080 0.979 138 88 54 0
5.8836 35.7366 -27.7901 0.156 -0.650 0.743 133 68 51 0
6.5368 35.7368 -27.8290 0.520 -0.775 -0.360 115 52 40 0
6.6581 36.1669 -27.9082 0.628 -0.711 -0.316 110 49 37 0
7.1454 36.9279 -28.0645 0.175 -0.939 0.296 106 44 37 0
7.0705 38.2896 -28.2878 0.375 -0.916 0.144 103 42 38 0
6.8795 43.4507 -29.1397 0.030 -0.677 0.736 90 38 37 0
7.1372 43.3152 -29.1324 0.443 -0.726 0.526 85 38 36 0
10.1855 52.1529 -30.7924 0.983 -0.111 0.148 215 208 190 0
10.4424 52.0559 -30.7915 -0.323 -0.725 -0.609 218 211 193 0
11.2687 54.4211 -31.2364 -0.491 -0.739 -0.461 220 213 197 0
12.3194 49.2361 -30.4317 -0.081 -0.946 -0.313 219 212 196 0
13.5439 60.9127 -32.4578 0.550 0.077 0.832 216 212 200 0
17.1274 47.7003 -30.4614 -0.125 -0.959 -0.253 215 209 195 0
24.2034 30.2204 -27.9594 -0.418 -0.781 -0.464 216 204 189 0
24.4183 29.8601 -27.9119 -0.530 -0.711 -0.463 213 203 188 0
27.2996 41.8083 -30.0822 0.669 -0.573 0.473 205 196 179 0
33.8685 66.1830 -34.5509 0.061 -0.983 0.170 199 186 170 0
38.2686 63.6501 -34.3895 0.328 -0.813 0.482 190 178 164 0
38.4828 63.2801 -34.3404 0.166 -0.706 0.688 191 179 165 0
39.0856 61.5507 -34.0870 0.386 -0.856 -0.344 191 178 162 0
48.0655 56.8247 -33.8318 -0.460 -0.755 0.467 180 160 143 0
48.2750 56.8232 -33.8440 -0.460 -0.752 0.473 179 160 143 0
49.4903 51.8757 -33.0889 0.320 -0.941 -0.106 247 247 245 0
49.7004 51.9500 -33.1139 0.320 -0.941 -0.106 254 255 255 0
49.9751 52.4954 -33.2215 0.802 -0.596 -0.042 254 255 254 0
-47.2852 13.5442 -21.1146 0.672 -0.531 -0.517 234 217 200 0
-46.9314 24.8966 -23.0546 0.870 -0.255 0.422 235 223 207 0
-25.1092 34.1156 -25.9020 0.862 0.002 0.506 234 225 214 0
-23.4191 36.2730 -26.3666 0.666 -0.635 -0.392 227 215 201 0
-21.4488 36.8898 -26.5872 -0.271 -0.938 0.215 124 73 72 0
-17.7408 29.9543 -25.6338 -0.664 -0.735 0.135 120 65 65 0
-18.8041 32.7757 -26.0479 -0.389 -0.918 0.079 116 60 59 0
-18.3130 32.2295 -25.9846 -0.486 -0.818 0.309 114 56 55 0
-17.5748 31.1355 -25.8433 -0.637 -0.662 0.395 114 54 54 0
-9.0546 26.1068 -25.4964 0.620 -0.759 0.200 134 44 56 0
-8.8289 26.0892 -25.5068 0.511 -0.850 0.132 133 47 58 0
-8.6656 26.2300 -25.5402 0.487 -0.860 0.149 136 53 63 0
-8.5105 26.3927 -25.5769 0.460 -0.882 0.105 141 59 69 0
-7.4538 26.4818 -25.6544 0.355 -0.872 0.338 131 48 58 0
-1.6541 27.7650 -26.2139 0.432 -0.877 0.211 128 43 42 0
-1.2250 27.7552 -26.2376 0.319 -0.908 -0.270 123 40 39 0
-0.3060 28.9189 -26.4886 0.663 -0.747 0.039 125 51 49 0
-0.1226 29.0188 -26.5163 0.039 -0.994 0.103 126 53 49 0
0.0255 29.2371 -26.5619 0.158 -0.986 0.054 119 48 42 0
0.2323 29.2603 -26.5781 0.372 -0.900 0.226 113 42 36 0
0.4291 29.3168 -26.5993 0.237 -0.848 0.473 107 37 30 0
0.6294 29.3616 -26.6187 0.166 -0.862 0.479 103 36 27 0
1.4372 31.0232 -26.9473 0.041 -0.444 0.895 121 60 42 0
2.6422 33.7599 -27.4811 0.487 -0.047 0.872 133 79 49 0
3.3046 32.8908 -27.3733 0.189 -0.090 0.978 134 81 49 0
6.0113 35.1021 -27.9070 0.833 -0.405 0.377 130 67 51 0
7.6644 39.5894 -28.7632 0.314 -0.928 0.202 88 37 36 0
7.8976 39.5378 -28.7682 0.189 -0.982 0.008 85 36 34 0
7.8596 40.8113 -28.9813 0.849 -0.446 0.284 83 38 35 0
10.3122 52.7319 -31.1413 0.925 -0.364 0.105 216 209 192 0
10.4665 53.2615 -31.2400 0.920 -0.379 0.104 217 210 194 0
10.7677 52.9013 -31.1969 0.919 -0.363 0.154 218 211 195 0
11.9123 48.7520 -30.5630 0.404 -0.340 0.849 219 212 197 0
12.2826 47.8829 -30.4380 -0.021 -0.752 0.658 220 212 198 0
12.5422 47.7022 -30.4228 0.573 -0.819 0.019 220 213 197 0
12.7217 48.0363 -30.4899 0.525 -0.849 0.062 219 213 197 0
38.2797 64.0101 -34.6998 0.415 -0.736 0.535 189 177 163 0
38.4969 63.6906 -34.6586 0.560 -0.595 0.577 193 181 167 0
39.1951 59.3593 -33.9677 -0.207 -0.978 -0.020 191 177 161 0
41.9441 60.6210 -34.3433 0.072 -0.929 -0.363 187 174 158 0
43.8685 42.0301 -31.3142 0.709 -0.105 0.697 183 168 149 0
45.2483 46.1441 -32.0912 0.601 -0.171 0.781 183 165 151 0
46.2110 44.3889 -31.8514 0.793 -0.517 0.323 181 159 145 0
-57.3404 31.0334 -23.7199 -0.718 -0.552 0.425 234 221 205 0
-23.8821 38.7375 -26.9942 -0.376 -0.884 0.279 158 123 117 0
-22.0338 36.4596 -26.7132 -0.128 -0.807 0.577 135 91 88 0
-17.9581 30.8677 -25.9965 -0.493 -0.870 -0.006 116 57 59 0
-17.5338 30.9758 -26.0397 -0.603 -0.689 0.402 115 52 55 0
-16.9852 30.2886 -25.9545 -0.577 -0.543 0.611 113 49 55 0
-11.9186 26.5601 -25.6140 0.069 -0.889 0.453 121 44 56 0
-8.7842 25.9081 -25.6861 0.463 -0.781 0.419 133 46 57 0
-8.6264 26.0621 -25.7216 0.463 -0.780 0.422 132 48 58 0
-8.5061 26.3135 -25.7716 0.480 -0.870 0.114 135 51 62 0
-7.2261 26.3867 -25.8590 0.066 -0.972 0.224 130 46 55 0
-6.3097 26.8424 -25.9905 0.376 -0.853 0.362 146 60 68 0
-6.0921 26.8407 -26.0029 0.203 -0.860 0.469 143 58 65 0
-5.8991 26.9058 -26.0254 0.200 -0.860 0.469 139 53 61 0
-4.1977 26.9762 -26.1370 0.064 -0.853 0.518 130 38 47 0
-0.3208 28.8952 -26.6917 0.663 -0.747 0.039 125 51 50 0
-0.0978 28.8641 -26.6994 0.013 -0.987 0.158 119 47 45 0
0.0673 29.0249 -26.7366 0.002 -0.999 0.042 111 39 34 0
0.2545 29.1129 -26.7625 0.335 -0.926 0.172 106 35 32 0
0.4655 29.1209 -26.7763 0.189 -0.846 0.498 104 33 30 0
6.0583 34.8174 -28.0767 0.833 -0.417 0.364 120 57 43 0
6.2524 34.9151 -28.1048 0.860 -0.329 0.391 121 59 47 0
7.8880 39.4971 -28.9833 0.220 -0.971 0.088 83 34 34 0
10.0846 51.1262 -31.0984 0.991 -0.131 -0.034 212 205 187 0
10.2308 51.6781 -31.2013 0.985 -0.144 0.092 214 207 189 0
10.1911 53.3529 -31.4851 0.983 -0.163 0.080 215 208 192 0
10.4808 53.0698 -31.4537 0.925 -0.364 0.105 216 209 193 0
10.7667 52.8021 -31.4247 0.919 -0.363 0.154 217 210 194 0
11.9277 48.5527 -30.7667 0.135 -0.673 0.727 219 212 196 0
12.4988 47.8778 -30.6848 0.413 -0.892 -0.184 218 212 196 0
12.7577 47.6991 -30.6694 0.468 -0.861 0.201 217 212 196 0
23.0545 30.0945 -28.2646 -0.474 -0.768 -0.430 213 205 191 0
31.7515 43.9878 -31.1470 0.209 -0.942 -0.262 204 192 178 0
31.9562 44.0073 -31.1623 0.249 -0.923 -0.292 203 191 177 0
37.9170 60.9907 -34.4125 0.010 -0.434 0.901 192 179 166 0
39.1480 58.5224 -34.0629 0.277 -0.961 0.024 192 176 161 0
43.7017 46.3480 -32.2496 0.820 -0.149 0.552 185 169 153 0
-54.0546 26.9661 -23.4513 -0.718 -0.552 0.425 234 222 205 0
-36.1520 6.5271 -20.9612 -0.146 -0.569 0.810 235 221 209 0
-24.7261 33.2246 -26.2321 0.747 0.004 0.664 231 225 211 0
-24.7701 33.7995 -26.3288 0.729 0.008 0.684 231 224 211 0
-23.2384 37.3234 -27.0259 0.673 -0.476 -0.566 154 119 113 0
-18.1526 30.7059 -26.1785 -0.553 -0.823 -0.125 117 60 63 0
-17.4750 30.7773 -26.2301 -0.579 -0.736 0.351 115 50 55 0
-16.8627 29.9496 -26.1227 -0.495 -0.499 0.711 112 47 53 0
-16.4546 29.5651 -26.0800 -0.492 -0.499 0.713 111 46 52 0
-6.6695 25.9906 -26.0304 0.334 -0.916 0.221 138 52 60 0
-6.4663 26.6099 -26.1490 0.412 -0.824 0.388 140 54 63 0
-6.2706 26.6674 -26.1703 0.418 -0.811 0.409 142 56 65 0
0.2256 29.1373 -26.9733 0.181 -0.790 0.586 109 36 36 0
0.4090 29.2391 -27.0015 0.200 -0.710 0.676 109 37 39 0
0.6356 29.1945 -27.0070 0.238 -0.559 0.794 110 39 40 0
1.5396 30.5107 -27.2866 0.543 -0.817 0.193 113 49 38 0
4.1588 31.9244 -27.6825 0.557 -0.574 0.600 128 66 43 0
5.9253 34.3776 -28.2084 0.843 -0.387 0.374 105 42 31 0
7.0803 40.0675 -29.2575 0.103 -0.883 -0.459 93 35 37 0
10.0049 50.0990 -31.1587 0.988 -0.144 0.048 214 205 189 0
10.1076 50.8897 -31.3011 0.988 -0.144 0.060 211 204 187 0
10.2170 51.6567 -31.4399 0.987 -0.153 0.055 213 206 188 0
10.5567 52.5060 -31.6062 0.940 -0.191 -0.283 215 208 192 0
10.7109 53.0382 -31.7070 0.972 -0.232 -0.041 216 209 193 0
12.1965 48.2233 -30.9620 0.042 -0.965 0.259 218 211 195 0
12.3914 48.4629 -31.0147 0.294 -0.954 -0.059 218 212 196 0
12.6579 48.2428 -30.9921 0.446 -0.893 0.061 216 213 196 0
13.2748 48.7668 -31.1183 0.025 -0.980 -0.200 219 211 198 0
13.4313 49.2814 -31.2162 -0.089 -0.987 -0.136 218 210 197 0
13.7629 48.6000 -31.1178 0.020 -0.967 -0.253 218 210 197 0
13.6677 52.5424 -31.7929 -0.423 -0.736 -0.528 218 210 197 0
16.2831 48.6834 -31.2784 -0.016 -0.862 -0.507 218 209 199 0
16.6018 47.9538 -31.1709 -0.135 -0.970 0.203 216 207 198 0
16.8151 48.0682 -31.2030 -0.187 -0.977 0.105 215 206 197 0
22.6994 34.2054 -29.1512 -0.154 -0.976 -0.155 210 202 189 0
27.4714 27.9118 -28.3415 -0.536 -0.525 0.661 210 198 186 0
31.9497 44.0781 -31.3918 0.249 -0.923 -0.292 202 190 177 0
37.8909 60.4749 -34.5666 0.023 -0.443 0.896 194 180 167 0
39.1489 58.6156 -34.3186 0.228 -0.973 0.020 193 177 162 0
44.1323 46.7485 -32.5591 0.886 -0.110 0.450 183 168 151 0
-24.3842 33.9529 -26.6081 0.368 -0.246 0.897 231 222 211 0
-24.8523 36.9053 -27.0962 -0.166 -0.985 -0.053 231 221 205 0
-23.4772 37.2183 -27.2297 0.608 -0.453 -0.652 155 127 119 0
-23.3394 37.4602 -27.2798 0.586 -0.462 -0.666 147 113 107 0
-16.7527 29.6385 -26.2940 -0.495 -0.496 0.713 114 47 54 0
-8.3096 26.2347 -26.1853 0.079 -0.921 0.382 128 46 55 0
-7.8613 26.2042 -26.2058 0.094 -0.934 0.344 124 41 49 0
-4.1634 26.7387 -26.5114 0.051 -0.883 0.466 135 48 55 0
0.2093 29.1192 -27.1777 0.454 -0.765 0.458 109 37 40 0
0.4362 29.0742 -27.1829 0.200 -0.710 0.676 108 37 41 0
0.6650 29.0216 -27.1869 0.100 -0.730 0.676 109 39 42 0
1.5338 29.7017 -27.3554 0.510 -0.417 0.752 113 48 40 0
1.5910 30.2540 -27.4550 0.414 -0.533 0.738 114 49 40 0
4.3388 31.9805 -27.9139 0.045 -0.563 0.825 117 55 36 0
7.1408 34.6417 -28.5390 -0.037 -0.856 0.516 105 46 43 0
7.0235 40.2478 -29.5100 0.601 -0.714 -0.358 90 34 36 0
7.8199 38.5826 -29.2653 0.086 -0.809 -0.582 87 34 36 0
7.8644 39.4365 -29.4168 -0.062 -0.988 -0.143 85 35 35 0
8.0761 39.4888 -29.4381 0.029 -0.968 0.249 83 35 35 0
10.2710 52.6658 -31.8623 0.988 -0.127 0.093 215 207 191 0
10.4291 53.1728 -31.9598 0.991 -0.117 0.068 215 208 192 0
11.9425 49.7278 -31.4459 0.598 -0.682 0.421 217 210 194 0
12.4191 48.1827 -31.2038 0.259 -0.966 -0.018 217 212 195 0
12.4530 49.4666 -31.4297 0.685 -0.657 0.315 217 213 196 0
13.0062 48.9025 -31.3630 0.026 -0.971 -0.240 218 212 197 0
13.6518 46.1288 -30.9164 0.143 -0.985 0.092 218 210 197 0
14.3023 54.7816 -32.4628 0.630 0.037 0.776 216 207 198 0
16.2558 48.7884 -31.5298 -0.018 -0.888 -0.459 217 208 199 0
24.8883 18.0981 -26.6731 -0.778 -0.627 0.042 211 199 188 0
40.5514 46.7608 -32.5717 0.978 -0.120 -0.172 185 172 155 0
-54.8947 27.1816 -23.9099 -0.712 -0.616 0.336 230 216 203 0
-49.6645 22.4561 -23.3748 -0.694 -0.636 -0.337 237 225 212 0
-16.6226 29.2836 -26.4577 -0.467 -0.617 0.633 110 45 49 0
-7.9902 25.9056 -26.3536 0.440 -0.872 0.217 127 45 54 0
0.2603 28.8756 -27.3463 0.123 -0.747 0.654 106 36 39 0
0.4635 28.9096 -27.3639 0.200 -0.710 0.676 104 37 40 0
0.6917 28.8578 -27.3678 0.100 -0.730 0.676 106 39 41 0
0.9662 28.6465 -27.3461 -0.050 -0.562 0.826 110 42 43 0
1.1205 28.8453 -27.3899 -0.211 -0.599 0.773 109 41 41 0
1.3537 28.7726 -27.3904 -0.205 -0.597 0.776 110 45 43 0
1.2927 29.7251 -27.5548 0.705 -0.408 0.580 111 44 41 0
1.5522 29.5634 -27.5410 0.692 -0.534 0.486 111 44 39 0
1.5095 30.4683 -27.6980 0.545 -0.756 0.363 113 46 39 0
6.7719 37.2118 -29.1856 0.318 -0.946 0.064 100 40 39 0
6.9976 37.1855 -29.1938 0.543 -0.806 0.236 96 37 38 0
7.1911 37.3063 -29.2261 0.543 -0.806 0.236 96 37 39 0
7.3368 37.6513 -29.2952 0.640 -0.722 0.263 92 34 36 0
7.3945 38.4152 -29.4330 -0.325 -0.825 0.463 88 32 33 0
7.6284 38.3555 -29.4358 -0.318 -0.827 0.464 86 32 33 0
7.4572 40.2336 -29.7570 0.192 -0.910 -0.366 83 32 31 0
8.0717 38.3472 -29.4596 0.511 -0.382 0.770 84 35 34 0
8.3028 39.3790 -29.6545 0.719 -0.268 0.642 84 36 36 0
10.3087 53.7947 -32.3086 0.973 -0.197 -0.121 214 207 189 0
13.1243 46.4984 -31.1832 -0.256 -0.879 0.401 216 210 194 0
13.3635 46.4281 -31.1845 -0.256 -0.879 0.401 216 210 196 0
13.6859 45.7963 -31.0915 -0.079 -0.851 0.519 215 210 196 0
13.9390 45.6183 -31.0745 0.321 -0.945 -0.063 216 211 197 0
14.1491 45.7298 -31.1061 -0.049 -0.972 -0.230 215 211 196 0
14.3891 45.6340 -31.1029 0.384 -0.705 0.596 216 210 196 0
25.6012 22.5346 -27.6709 -0.120 -0.805 -0.581 210 200 188 0
37.2087 60.6811 -35.0524 -0.016 -0.745 0.667 191 178 163 0
40.5584 46.9028 -32.8153 0.975 -0.118 -0.187 186 173 156 0
40.8444 32.7619 -30.3401 0.874 -0.242 -0.421 186 170 155 0
42.6217 38.7812 -31.5018 -0.257 -0.959 -0.117 183 170 153 0
48.0832 48.6530 -33.5518 0.972 -0.234 -0.012 174 155 141 0
-47.7627 12.9564 -22.0153 0.637 -0.611 -0.471 227 214 200 0
-48.2132 20.6127 -23.3526 -0.661 -0.633 -0.403 233 221 209 0
-29.1064 11.6457 -22.8333 -0.045 -0.683 0.729 237 228 219 0
-10.7654 25.6547 -26.3601 0.462 -0.822 0.334 138 52 61 0
-7.9593 25.7579 -26.5366 0.409 -0.906 0.111 130 48 60 0
-7.4754 26.1983 -26.6423 0.075 -0.997 0.001 144 59 70 0
-7.2964 26.3004 -26.6705 -0.029 -0.988 0.151 139 53 62 0
0.2979 28.6772 -27.5215 -0.174 -0.864 0.473 103 36 38 0
0.5251 28.6290 -27.5257 -0.174 -0.864 0.473 102 36 38 0
0.7768 28.4963 -27.5163 -0.234 -0.810 0.538 107 41 43 0
1.0587 28.2577 -27.4897 0.127 -0.793 0.596 109 41 43 0
1.2376 28.3695 -27.5197 0.136 -0.786 0.603 104 37 37 0
1.1757 29.3164 -27.6847 0.617 -0.547 0.566 106 41 39 0
1.5544 29.4819 -27.7355 0.670 -0.588 0.453 109 41 38 0
1.4506 30.6020 -27.9291 0.101 -0.712 0.695 110 43 37 0
5.5344 33.0592 -28.5965 -0.111 -0.549 0.828 113 54 40 0
7.0168 37.0135 -29.3838 0.480 -0.841 0.250 94 34 36 0
7.2370 37.0098 -29.3956 0.410 -0.891 0.196 92 33 35 0
7.9228 36.8727 -29.4098 0.140 -0.295 0.945 85 31 32 0
8.7351 40.4685 -30.0956 0.982 -0.187 -0.004 76 35 36 0
8.8314 41.1180 -30.2166 0.864 -0.318 -0.391 75 36 37 0
9.5939 55.0253 -32.7348 0.995 0.009 -0.099 213 205 185 0
13.3992 46.0884 -31.3587 -0.287 -0.860 0.422 215 209 196 0
13.7082 45.5437 -31.2791 0.326 -0.944 -0.057 215 210 197 0
13.8881 45.8604 -31.3456 0.189 -0.981 -0.040 212 210 195 0
14.1609 45.5445 -31.3048 0.229 -0.972 -0.043 212 210 197 0
14.3902 45.5213 -31.3136 -0.167 -0.984 0.058 213 210 197 0
26.3761 52.2408 -33.1849 -0.375 -0.626 0.683 210 196 185 0
37.1995 60.5634 -35.2761 0.002 -0.761 0.649 191 178 162 0
40.6868 48.8390 -33.3859 0.977 -0.118 -0.178 185 172 156 0
46.0082 57.3679 -35.2037 -0.441 -0.797 -0.413 181 166 149 0
46.6487 55.4333 -34.8955 0.864 -0.234 0.445 178 165 149 0
-24.1057 30.7798 -26.7458 -0.475 -0.876 0.078 235 225 213 0
-8.0846 24.8973 -26.5824 0.078 -0.883 0.463 127 47 57 0
-7.9949 25.7822 -26.7465 0.374 -0.907 0.194 129 47 59 0
-7.7846 25.8013 -26.7616 0.383 -0.906 0.179 135 52 65 0
-7.5810 25.8371 -26.7794 0.040 -0.972 0.230 140 55 67 0
-6.9285 25.8325 -26.8150 -0.001 -1.000 -0.031 139 52 61 0
4.5823 31.6301 -28.4996 0.504 -0.645 0.574 98 38 35 0
5.6464 32.5127 -28.7177 -0.065 -0.525 0.849 109 51 40 0
6.7190 35.3160 -29.2815 0.373 -0.862 0.343 89 28 28 0
7.0128 36.9475 -29.5912 0.428 -0.871 0.241 91 31 35 0
7.6272 36.1288 -29.4783 -0.032 -0.496 0.868 88 29 33 0
9.3166 42.0112 -30.6301 0.934 -0.229 0.275 74 46 45 0
9.4499 42.5006 -30.7255 0.944 -0.214 0.251 74 48 47 0
8.9412 51.6494 -32.3418 0.974 0.009 0.228 112 93 86 0
13.3867 46.0681 -31.5865 -0.245 -0.850 0.467 214 207 195 0
13.8845 45.7809 -31.5627 0.070 -0.963 -0.260 214 209 197 0
14.1904 45.2379 -31.4821 0.375 -0.927 -0.032 213 208 196 0
14.5178 44.5296 -31.3731 -0.041 -0.986 -0.162 212 207 195 0
14.8143 44.0189 -31.2978 -0.195 -0.935 -0.295 214 209 197 0
21.7645 27.1139 -28.6466 0.536 -0.817 -0.212 213 205 194 0
22.8976 22.8958 -27.9515 0.934 -0.347 -0.082 210 203 192 0
40.7682 36.4881 -31.3923 -0.122 -0.987 0.105 188 172 154 0
46.7200 50.5473 -34.2519 0.914 -0.293 -0.281 180 164 149 0
48.1016 48.7899 -34.0131 0.970 -0.245 -0.015 175 157 144 0
-47.9661 13.0703 -22.4372 0.640 -0.608 -0.471 224 210 196 0
-37.0631 4.9646 -21.5680 -0.366 -0.292 0.884 232 219 204 0
-17.8171 28.1339 -26.8383 0.116 -0.905 0.409 117 60 63 0
-7.9461 25.5885 -26.9217 0.721 -0.636 0.275 131 46 59 0
-7.5402 25.6629 -26.9576 0.061 -0.937 0.343 140 54 66 0
-7.3172 25.6468 -26.9670 -0.198 -0.977 0.072 141 55 66 0
0.5449 27.0036 -27.6478 0.072 -0.749 0.659 108 38 43 0
0.8160 28.2184 -27.8834 0.355 -0.886 0.298 104 36 39 0
3.2126 29.4745 -28.2438 0.225 -0.920 0.322 102 38 35 0
3.8039 30.4392 -28.4517 0.300 -0.792 0.532 90 28 25 0
4.3029 30.9748 -28.5765 0.580 -0.400 0.710 99 40 36 0
6.6806 35.4049 -29.5123 0.302 -0.935 0.184 85 26 25 0
6.8652 35.5518 -29.5491 0.461 -0.855 0.238 84 28 27 0
7.0706 35.6059 -29.5703 0.435 -0.872 0.226 86 29 30 0
7.2482 35.7871 -29.6130 0.246 -0.955 0.168 88 29 33 0
7.7429 35.5067 -29.5894 -0.122 -0.447 0.886 91 32 36 0
7.9918 35.3538 -29.5754 0.093 -0.420 0.903 94 35 39 0
9.2878 42.0710 -30.8667 0.958 -0.260 0.125 72 44 43 0
9.7303 54.0102 -33.0589 0.981 -0.056 -0.184 211 201 184 0
9.6476 57.4611 -33.6809 0.999 0.035 -0.003 212 205 188 0
13.8598 45.8443 -31.8044 0.070 -0.963 -0.260 216 208 197 0
14.7664 44.2520 -31.5654 0.017 -0.983 -0.180 215 208 197 0
22.5914 22.2445 -28.0020 0.973 -0.221 -0.061 211 201 192 0
26.4934 21.8020 -28.1373 -0.513 -0.847 0.137 209 198 185 0
31.4774 49.9429 -33.5222 -0.420 -0.364 0.831 203 191 176 0
33.4866 38.4406 -31.5447 -0.154 -0.961 0.229 199 186 173 0
40.7684 36.5178 -31.5980 -0.109 -0.988 0.110 188 171 156 0
40.9755 36.8218 -31.6647 -0.565 -0.819 0.103 189 171 157 0
42.3425 39.8896 -32.2972 -0.059 -0.950 -0.307 183 170 153 0
45.5922 57.4973 -35.6738 -0.464 -0.562 0.685 181 168 151 0
44.6732 44.3915 -33.2434 0.837 -0.301 -0.458 179 165 149 0
47.2186 53.1270 -34.9701 -0.494 -0.528 0.691 178 162 146 0
-48.0676 13.1268 -22.6489 0.637 -0.611 -0.471 224 209 195 0
-50.6057 23.6769 -24.4445 -0.668 -0.644 -0.372 230 218 206 0
-25.0044 36.3335 -28.1660 0.145 -0.910 -0.388 231 220 208 0
-17.8068 28.0441 -27.0399 0.116 -0.905 0.409 118 59 61 0
-12.5076 25.9013 -26.9369 0.079 -0.935 0.345 124 39 50 0
-6.9769 25.8254 -27.2256 0.333 -0.929 -0.161 148 60 69 0
-6.7835 25.8873 -27.2475 0.352 -0.925 -0.140 155 68 77 0
-6.5731 25.9037 -27.2621 0.327 -0.932 -0.159 151 62 74 0
-4.0115 25.9561 -27.4118 0.339 -0.862 0.378 138 53 61 0
-2.4188 26.2840 -27.5591 0.094 -0.920 0.381 136 51 62 0
0.6920 27.8499 -28.0164 0.098 -0.694 0.714 109 37 41 0
0.8351 28.0812 -28.0667 0.384 -0.887 0.257 107 36 39 0
3.0379 29.2645 -28.4042 0.316 -0.898 0.305 97 33 30 0
3.2110 29.4056 -28.4395 0.225 -0.920 0.322 96 32 32 0
3.8159 30.3174 -28.6398 0.300 -0.792 0.532 89 26 24 0
4.9100 31.0164 -28.8278 0.542 -0.597 0.592 91 30 30 0
6.6197 35.5934 -29.7606 0.254 -0.964 0.077 81 25 23 0
6.8301 35.6265 -29.7782 0.296 -0.954 0.055 81 26 25 0
7.2387 35.7473 -29.8227 0.182 -0.983 -0.007 84 28 30 0
8.2566 35.0380 -29.7483 0.100 -0.416 0.904 95 38 42 0
8.5726 35.5872 -29.8663 0.073 -0.390 0.918 80 30 29 0
8.7940 35.5593 -29.8733 0.083 -0.717 0.692 78 30 28 0
8.7177 41.4274 -30.9451 0.947 -0.201 0.251 71 32 37 0
9.7004 54.0816 -33.3192 0.998 -0.021 -0.059 210 200 184 0
13.8572 45.7583 -32.0204 0.055 -0.963 -0.264 214 206 195 0
14.1137 45.5560 -31.9974 0.055 -0.925 -0.376 214 206 195 0
14.4300 44.9322 -31.9003 -0.032 -0.999 -0.006 215 207 196 0
27.2569 20.2108 -28.0692 -0.599 -0.787 0.150 209 197 184 0
27.2039 47.5709 -33.0831 -0.564 -0.826 -0.018 207 195 181 0
30.3481 38.3328 -31.5612 0.983 -0.055 -0.176 204 192 178 0
30.6769 43.8961 -32.5993 0.788 -0.455 0.415 201 192 177 0
31.4717 49.6963 -33.7063 -0.425 -0.342 0.838 203 191 177 0
32.9362 44.1878 -32.7764 0.734 -0.096 0.672 197 188 173 0
33.2760 37.3747 -31.5457 -0.317 -0.879 -0.356 196 187 172 0
33.4818 38.4902 -31.7615 -0.142 -0.965 0.222 196 187 172 0
38.4432 58.3208 -35.6691 0.748 -0.097 0.657 195 178 165 0
39.0071 60.7090 -36.1379 0.373 -0.703 0.606 193 177 163 0
39.7470 54.0069 -34.9495 0.975 -0.220 0.022 190 176 163 0
39.9661 44.1320 -33.1508 0.991 -0.094 -0.092 189 175 161 0
44.4199 43.8042 -33.3344 0.872 -0.266 -0.410 181 167 152 0
48.1733 50.9370 -34.8476 0.873 -0.483 -0.067 178 159 145 0
47.5783 43.1460 -33.3865 -0.555 -0.739 -0.382 172 156 143 0
-33.4296 4.1159 -21.9806 -0.677 -0.631 -0.377 236 224 210 0
-26.1447 37.5076 -28.5579 0.335 -0.808 -0.485 233 222 208 0
-17.8010 27.9639 -27.2428 0.365 -0.752 0.548 118 59 62 0
-15.7078 26.9355 -27.1658 -0.465 -0.771 0.435 112 43 51 0
-8.0023 25.0398 -27.2322 0.436 -0.877 0.202 137 48 61 0
-7.9182 25.3817 -27.3000 0.235 -0.954 0.186 137 46 59 0
-2.4148 26.2024 -27.7501 0.121 -0.921 0.371 139 53 64 0
0.6286 27.9911 -28.2461 0.633 -0.753 0.181 114 41 45 0
1.4237 27.4404 -28.1872 0.178 -0.849 0.497 111 43 45 0
3.0280 29.2267 -28.6049 0.240 -0.908 0.344 96 30 31 0
3.2122 29.3266 -28.6334 0.236 -0.907 0.350 94 29 31 0
3.4115 29.3710 -28.6524 0.236 -0.907 0.350 93 28 31 0
3.6468 30.0780 -28.7960 0.160 -0.810 0.564 89 24 25 0
3.8339 30.1728 -28.8237 0.310 -0.853 0.421 88 25 25 0
4.9389 30.8239 -29.0041 0.389 -0.807 0.444 93 33 33 0
5.2980 31.0844 -29.0718 0.471 -0.782 0.409 84 24 23 0
6.2650 32.3648 -29.3613 0.790 -0.605 0.102 96 39 36 0
6.4170 32.6267 -29.4180 0.586 -0.589 0.557 93 37 34 0
6.5929 32.7881 -29.4574 0.572 -0.456 0.681 91 37 34 0
7.3218 33.3378 -29.5987 0.313 -0.795 0.519 81 27 26 0
7.0848 35.3756 -29.9631 0.214 -0.947 0.240 80 27 28 0
7.2955 35.4047 -29.9799 0.204 -0.950 0.235 79 26 29 0
8.6960 34.9080 -29.9639 -0.187 -0.948 -0.259 78 28 28 0
8.8234 35.3312 -30.0491 0.146 -0.732 0.665 78 30 31 0
9.7319 52.3640 -33.2520 0.990 -0.137 -0.018 209 198 184 0
12.0788 48.2466 -32.6168 -0.162 -0.986 0.039 214 205 193 0
12.2915 48.3773 -32.6525 -0.442 -0.894 -0.074 215 206 194 0
13.0657 46.3675 -32.3223 0.009 -0.934 -0.358 214 207 195 0
13.3577 45.9514 -32.2611 0.183 -0.848 -0.497 214 206 194 0
27.1922 47.6438 -33.3239 -0.568 -0.823 -0.014 208 196 182 0
30.3308 39.0151 -31.8962 0.985 -0.053 -0.162 203 193 178 0
30.4177 47.2733 -33.4300 0.870 -0.475 0.135 201 192 177 0
39.0148 60.9468 -36.4274 0.016 -0.630 0.777 193 177 164 0
41.5185 58.0564 -36.0279 -0.546 -0.807 0.225 185 171 159 0
-48.2720 13.2411 -23.0739 0.637 -0.611 -0.471 224 211 197 0
-47.3009 20.1246 -24.4128 -0.670 -0.654 -0.351 231 219 206 0
-26.5014 36.6135 -28.6108 0.875 -0.378 0.303 233 223 209 0
-14.5626 26.3496 -27.3321 -0.288 -0.867 0.407 117 42 51 0
-1.4232 26.3408 -28.0351 0.129 -0.898 0.421 130 43 52 0
-1.2538 26.4723 -28.0687 0.105 -0.812 0.573 130 43 51 0
-1.0532 26.5065 -28.0859 0.095 -0.810 0.578 131 44 51 0
0.5776 28.0903 -28.4694 0.719 -0.692 0.067 121 49 53 0
3.4969 28.9772 -28.7918 0.017 -0.948 0.318 91 26 30 0
3.4339 30.0056 -28.9806 0.257 -0.807 0.532 88 23 27 0
3.8423 30.0652 -29.0137 0.298 -0.850 0.435 86 23 24 0
4.0729 29.9929 -29.0125 0.793 -0.453 0.407 98 37 37 0
4.7584 30.6222 -29.1670 0.500 -0.857 0.126 89 31 30 0
4.9326 30.7722 -29.2043 0.503 -0.852 0.144 97 37 37 0
5.3030 30.9867 -29.2643 0.471 -0.782 0.409 86 24 25 0
6.6216 32.5838 -29.6336 0.626 -0.482 0.613 92 38 35 0
6.7640 32.8920 -29.6988 0.863 -0.354 0.360 88 35 32 0
7.7414 34.2674 -30.0084 0.699 -0.538 0.472 75 24 28 0
8.4171 35.1305 -30.2060 0.877 -0.474 0.073 79 27 29 0
8.6730 34.9347 -30.1831 -0.176 -0.948 -0.266 78 28 29 0
8.7497 41.0841 -31.3369 0.925 -0.275 0.261 71 32 37 0
8.8760 41.5904 -31.4383 0.911 -0.374 0.176 68 32 36 0
9.2844 41.8132 -31.5018 0.953 -0.304 0.003 70 40 42 0
9.3551 42.6330 -31.6589 0.967 -0.256 0.011 71 42 42 0
9.4278 43.4577 -31.8170 0.961 -0.276 -0.003 76 48 47 0
9.6881 51.1159 -33.2627 0.972 -0.092 0.217 168 154 142 0
9.7403 52.2119 -33.4704 0.990 -0.139 -0.030 203 192 178 0
9.8842 52.7912 -33.5864 0.994 -0.106 0.037 208 201 185 0
13.3124 47.6731 -32.8134 -0.480 -0.875 -0.063 214 206 194 0
13.7334 46.3881 -32.5957 -0.013 -0.929 -0.369 213 206 194 0
27.1788 47.7601 -33.5732 -0.534 -0.827 -0.174 207 195 182 0
39.7009 61.1450 -36.7470 0.009 -0.620 0.785 190 176 165 0
46.6822 41.9721 -33.5369 0.536 -0.565 0.627 178 161 145 0
-48.8296 12.9754 -23.2020 0.460 -0.798 -0.388 255 255 255 0
-32.9765 3.7102 -22.2946 -0.673 -0.639 -0.372 225 215 204 0
-45.8513 24.4777 -25.5312 -0.663 -0.716 0.219 237 225 211 0
-26.5044 37.0509 -28.9312 0.818 -0.414 0.399 232 223 208 0
-12.6606 25.5377 -27.4929 0.005 -0.904 0.427 122 39 47 0
-10.3446 24.7686 -27.4706 0.230 -0.882 0.411 126 38 52 0
-8.2214 24.3610 -27.5064 -0.316 -0.945 0.088 142 54 66 0
-8.0776 24.5449 -27.5487 0.329 -0.940 0.094 142 55 65 0
-4.8447 25.0877 -27.8227 0.432 -0.902 -0.015 139 53 64 0
-4.7051 25.2940 -27.8691 0.271 -0.959 0.089 142 56 66 0
-3.3353 25.0255 -27.8911 0.385 -0.917 0.104 146 63 73 0
-2.4728 24.9717 -27.9267 -0.146 -0.885 0.443 137 53 62 0
-0.9138 25.9978 -28.2032 0.351 -0.767 0.537 141 54 61 0
-0.7256 26.0678 -28.2264 0.351 -0.767 0.537 136 49 55 0
-0.5373 26.1378 -28.2496 0.351 -0.767 0.537 133 45 51 0
-0.3517 26.2166 -28.2743 0.283 -0.777 0.562 129 41 48 0
0.4663 27.6813 -28.5942 -0.030 -0.885 0.465 122 48 54 0
0.5767 28.0211 -28.6642 0.715 -0.697 0.056 124 51 56 0
1.6504 27.2386 -28.5735 -0.037 -0.982 0.184 115 48 50 0
1.8627 27.2289 -28.5829 -0.037 -0.982 0.184 108 39 42 0
3.4726 28.9935 -29.0014 0.223 -0.916 0.333 89 24 29 0
3.8518 29.9530 -29.2027 0.275 -0.907 0.320 87 24 27 0
4.7555 30.5570 -29.3646 0.391 -0.860 0.327 89 31 30 0
4.9451 30.6449 -29.3913 0.386 -0.859 0.336 95 36 35 0
5.1296 30.7542 -29.4217 0.489 -0.748 0.448 93 33 33 0
5.3080 30.8890 -29.4566 0.471 -0.782 0.409 85 23 24 0
6.6695 32.2962 -29.7945 0.681 -0.570 0.460 87 34 32 0
8.4248 35.0097 -30.3998 0.396 -0.902 -0.174 75 25 28 0
8.6532 34.9457 -30.3999 -0.165 -0.943 -0.289 77 27 30 0
9.3136 41.5688 -31.6850 0.951 -0.297 0.091 71 39 41 0
9.4309 42.1397 -31.7990 0.946 -0.306 0.106 72 42 42 0
9.7137 50.8666 -33.4613 0.971 -0.087 0.221 163 150 138 0
9.7574 52.0093 -33.6793 0.980 -0.175 0.092 195 185 170 0
12.4717 48.5105 -33.1629 -0.571 -0.807 0.151 209 205 193 0
13.5715 47.3781 -33.0076 -0.429 -0.874 -0.227 212 206 192 0
19.5919 50.8441 -33.9813 0.631 -0.744 0.217 209 202 192 0
19.8056 51.0123 -34.0244 -0.168 -0.774 0.611 210 203 193 0
20.0309 51.0610 -34.0456 0.144 -0.878 0.457 212 203 194 0
29.7210 29.9521 -30.5755 0.864 -0.173 -0.473 205 193 179 0
38.5470 56.1041 -35.9802 0.334 -0.923 -0.192 193 178 165 0
39.4550 60.8535 -36.9249 0.007 -0.628 0.778 193 176 164 0
45.8602 50.0739 -35.2301 0.637 -0.450 -0.626 177 164 149 0
45.8093 40.9095 -33.4976 0.538 -0.837 -0.095 176 163 146 0
46.6204 41.4615 -33.6449 0.641 -0.740 0.203 176 160 144 0
-48.4774 13.3560 -23.5009 0.637 -0.611 -0.471 222 210 198 0
-48.2247 13.9139 -23.6205 0.727 -0.495 -0.476 227 215 201 0
-33.8058 4.4281 -22.5703 -0.727 -0.687 0.010 228 218 208 0
-18.9345 30.6655 -28.3511 -0.007 -0.514 0.858 115 54 58 0
-12.8582 25.4121 -27.6692 0.020 -0.925 0.380 121 38 47 0
-12.6499 25.4463 -27.6867 0.005 -0.904 0.427 123 40 49 0
-10.0170 24.9709 -27.7344 0.198 -0.980 -0.003 135 47 61 0
-8.0544 24.4188 -27.7323 0.335 -0.920 0.202 142 54 65 0
-4.8666 25.0805 -28.0258 0.432 -0.902 -0.015 138 55 65 0
-3.3492 24.9972 -28.0897 0.385 -0.917 0.104 150 65 75 0
-2.4715 24.8991 -28.1171 -0.093 -0.916 0.391 138 53 62 0
-1.9587 24.6217 -28.0912 -0.068 -0.933 0.354 144 57 69 0
-1.5738 24.7240 -28.1308 0.189 -0.879 0.437 138 52 61 0
-0.9055 25.9015 -28.3903 0.325 -0.752 0.573 157 70 78 0
-0.0620 25.8894 -28.4323 0.632 -0.771 -0.081 129 40 49 0
1.1026 28.3241 -28.9574 0.243 -0.910 0.335 116 49 51 0
2.8239 28.2111 -29.0263 0.589 -0.542 0.599 97 33 35 0
3.5612 27.8112 -28.9889 0.583 -0.779 0.231 90 25 31 0
4.7645 30.4447 -29.5539 0.376 -0.866 0.328 87 30 29 0
4.9574 30.5192 -29.5782 0.376 -0.866 0.328 89 32 31 0
5.1540 30.5790 -29.5999 0.555 -0.631 0.542 89 31 31 0
5.3208 30.7596 -29.6431 0.451 -0.771 0.449 84 24 24 0
6.3097 31.9369 -29.9194 0.332 -0.854 0.400 84 29 29 0
6.6825 32.1606 -29.9816 0.681 -0.570 0.460 86 35 32 0
7.9791 34.9952 -30.5899 0.854 -0.482 -0.193 72 25 28 0
8.2615 34.6806 -30.5447 0.888 -0.458 0.037 71 24 27 0
9.4586 41.9011 -31.9835 0.945 -0.281 0.168 72 41 42 0
11.6582 38.3493 -31.4222 0.977 -0.133 0.167 139 124 115 0
9.7482 50.5668 -33.6500 0.993 -0.071 0.095 158 144 133 0
9.7588 51.8984 -33.9043 0.980 -0.175 0.092 190 179 165 0
20.3755 25.5070 -29.4330 0.570 -0.749 0.338 212 206 194 0
31.5973 67.2950 -37.9853 0.152 -0.281 0.947 198 189 174 0
32.4611 31.4719 -31.2045 0.574 -0.358 0.737 201 189 173 0
37.7921 53.9712 -35.7718 0.673 -0.297 0.678 192 178 163 0
38.0199 54.2256 -35.8322 0.687 -0.274 0.673 193 179 166 0
39.4351 60.5500 -37.1117 -0.024 -0.617 0.786 192 176 165 0
39.7309 53.9626 -35.8720 0.965 -0.244 0.095 190 173 163 0
40.0434 55.6131 -36.2029 0.047 -0.933 -0.358 189 172 162 0
46.0277 41.1839 -33.7677 -0.495 -0.515 0.700 177 163 147 0
46.6215 41.4686 -33.8532 0.690 -0.700 0.184 174 159 143 0
-28.0120 39.8562 -29.8707 0.171 -0.912 0.374 232 225 211 0
-18.9575 29.6368 -28.3756 -0.724 -0.574 0.383 121 62 69 0
-16.4672 27.8205 -28.1557 -0.746 -0.473 0.469 115 49 57 0
-10.6318 24.7984 -27.8777 0.112 -0.988 0.110 132 44 58 0
-10.3028 24.5345 -27.8440 0.244 -0.820 0.518 133 45 59 0
-6.0697 24.7913 -28.1134 0.750 -0.650 0.125 142 55 67 0
-4.8945 25.0902 -28.2320 0.223 -0.973 0.063 138 55 65 0
-2.0156 24.0972 -28.1906 0.018 -0.973 0.231 141 58 67 0
-1.5756 24.6604 -28.3219 0.208 -0.867 0.452 150 65 74 0
-0.8952 25.7994 -28.5763 0.390 -0.747 0.539 168 81 89 0
-0.1596 25.4608 -28.5494 0.599 -0.793 -0.115 135 45 54 0
-0.0953 25.9266 -28.6424 0.549 -0.822 -0.148 130 40 49 0
0.3685 27.8632 -29.0390 0.324 -0.944 0.067 123 49 56 0
0.5614 27.9279 -29.0615 0.324 -0.944 0.067 123 50 56 0
1.1762 27.9993 -29.1072 0.358 -0.925 0.127 117 46 51 0
2.8049 27.4506 -29.0863 0.248 -0.821 0.515 101 37 38 0
3.5596 27.7435 -29.1818 0.583 -0.777 0.238 90 25 31 0
4.8001 30.2268 -29.7240 0.318 -0.878 0.358 82 26 27 0
5.0012 30.2675 -29.7423 0.322 -0.879 0.351 85 29 30 0
6.3092 31.8597 -30.1165 0.307 -0.857 0.414 81 26 26 0
8.2162 34.8104 -30.7833 0.881 -0.455 0.131 70 23 28 0
7.9129 40.4983 -31.8616 0.879 -0.210 -0.429 71 26 27 0
8.2261 41.1794 -32.0089 0.732 -0.560 -0.387 69 27 29 0
9.8022 50.1556 -33.8174 0.988 -0.063 0.141 155 140 130 0
9.7104 52.0763 -34.1821 0.982 -0.158 0.107 184 173 160 0
10.1258 52.4883 -34.2829 0.986 -0.071 0.150 205 198 182 0
20.3737 25.4257 -29.6100 0.570 -0.749 0.338 211 204 193 0
28.8819 39.8655 -32.8298 -0.286 -0.718 -0.635 206 192 179 0
29.6641 31.8973 -31.3378 0.874 -0.174 -0.453 204 192 177 0
37.2932 52.4358 -35.6850 0.334 -0.860 0.385 195 179 166 0
38.9810 56.1783 -36.4926 0.405 -0.828 -0.388 190 174 163 0
39.1225 54.7125 -36.2180 0.189 -0.981 -0.044 192 175 165 0
42.2704 35.0104 -32.5919 0.655 -0.689 -0.310 182 167 154 0
45.5766 38.8924 -33.5104 0.169 -0.391 0.905 176 163 146 0
-19.8152 29.8668 -28.5981 -0.593 -0.632 0.499 126 77 78 0
-19.4584 29.6209 -28.5687 -0.633 -0.664 0.399 124 72 76 0
-19.2756 29.7365 -28.6005 -0.722 -0.556 0.412 121 65 71 0
-18.8691 29.3819 -28.5526 -0.721 -0.572 0.390 118 60 67 0
-1.9241 24.3807 -28.4530 -0.084 -0.891 0.447 141 57 67 0
-1.5670 24.5658 -28.5073 0.208 -0.867 0.452 144 59 69 0
-1.0524 25.5635 -28.7275 0.493 -0.831 0.257 168 82 89 0
-0.8801 25.6819 -28.7594 0.385 -0.756 0.530 172 85 93 0
-0.1803 25.4573 -28.7517 0.602 -0.789 -0.125 137 47 56 0
1.2756 26.8700 -29.1009 0.331 -0.762 0.557 117 44 49 0
1.7490 26.6829 -29.0889 0.495 -0.678 0.543 108 34 41 0
8.2447 40.9972 -32.2023 0.528 -0.711 -0.464 70 28 30 0
10.0015 51.6882 -34.3684 0.995 -0.080 0.062 204 195 181 0
10.1074 52.4929 -34.5301 0.995 -0.070 0.065 204 197 182 0
20.3517 25.5219 -29.8203 0.387 -0.887 0.251 212 203 194 0
24.6342 33.0240 -31.4971 -0.276 -0.949 -0.153 206 196 183 0
25.2161 33.0523 -31.5326 0.322 -0.761 0.563 205 195 183 0
37.1525 60.4817 -37.4721 0.126 -0.655 -0.745 194 180 167 0
46.4223 55.3174 -36.9462 -0.163 -0.906 0.390 178 161 151 0
46.6565 55.5385 -37.0012 -0.353 -0.914 0.198 180 163 153 0
45.4353 37.6679 -33.4686 0.255 -0.158 0.954 175 162 146 0
45.6921 38.3124 -33.6070 -0.096 -0.581 0.808 175 162 145 0
-27.2809 38.2761 -30.0891 0.418 -0.550 0.723 234 225 212 0
-24.2924 35.9281 -29.7810 -0.749 -0.576 0.328 158 130 126 0
-19.7388 29.6394 -28.7804 -0.598 -0.635 0.489 125 76 78 0
-19.4664 29.5686 -28.7803 -0.625 -0.631 0.459 124 71 76 0
-10.0591 24.3411 -28.2346 0.546 -0.557 0.626 132 45 59 0
-9.4152 24.3670 -28.2724 0.308 -0.565 0.765 137 49 63 0
-8.3128 24.3255 -28.3204 0.246 -0.958 0.148 138 46 59 0
-1.5723 24.5132 -28.7002 0.296 -0.898 0.325 145 58 69 0
2.1024 27.5674 -29.4857 0.265 -0.940 0.213 115 44 48 0
3.1656 28.2759 -29.6786 0.085 -0.988 -0.133 95 33 38 0
7.7410 32.8819 -30.8140 -0.228 -0.734 0.640 70 25 28 0
8.2085 34.6796 -31.1901 0.440 -0.893 -0.094 67 23 26 0
8.4816 34.4043 -31.1500 0.881 -0.415 0.228 68 23 28 0
9.6483 52.2299 -34.7026 0.997 0.019 0.081 174 163 150 0
9.5489 54.2351 -35.0905 0.997 -0.043 -0.064 205 195 180 0
9.5867 55.4714 -35.3347 0.997 -0.043 -0.064 204 196 180 0
46.4758 55.8199 -37.2799 0.501 -0.826 -0.259 178 161 151 0
47.1364 57.9785 -37.7366 -0.123 -0.982 -0.146 179 162 152 0
-22.4598 33.1604 -29.5625 -0.791 -0.537 0.293 145 107 106 0
-17.1075 27.9967 -28.8107 -0.597 -0.443 0.669 115 53 60 0
-9.9467 24.0022 -28.3811 0.511 -0.573 0.641 133 44 58 0
-9.1133 24.0921 -28.4408 0.299 -0.954 0.003 139 50 62 0
-1.5724 24.4445 -28.8901 0.296 -0.898 0.325 146 58 70 0
-1.4231 24.6269 -28.9337 0.359 -0.878 0.317 142 55 65 0
-1.2361 24.6951 -28.9565 0.359 -0.878 0.317 141 55 64 0
2.0802 27.5728 -29.6926 0.262 -0.944 0.198 113 41 45 0
8.1880 34.6925 -31.4081 0.440 -0.893 -0.094 66 24 26 0
9.5946 53.8628 -35.2702 0.997 0.039 0.061 201 193 176 0
9.4269 57.8072 -36.0419 0.999 0.040 0.023 201 199 178 0
24.5374 34.1797 -32.1296 -0.533 -0.799 -0.279 208 197 184 0
24.8084 46.2810 -34.5365 0.736 -0.549 0.396 205 195 184 0
28.6301 40.7679 -33.6385 -0.400 -0.811 -0.427 203 191 177 0
34.9774 67.1177 -39.1692 -0.163 -0.950 0.267 191 179 165 0
-24.5117 31.7521 -29.4100 -0.419 -0.898 0.136 235 227 213 0
-23.0939 33.8709 -29.9035 -0.786 -0.521 0.333 152 116 114 0
-17.2232 27.6777 -28.9597 -0.360 -0.520 0.774 113 52 59 0
-4.1104 25.0119 -29.0805 0.520 -0.853 0.054 155 66 78 0
-4.2050 25.8906 -29.2511 -0.141 -0.767 0.626 155 67 79 0
-4.1119 26.2392 -29.3253 -0.445 -0.761 0.473 154 66 78 0
-1.1621 25.0435 -29.2336 0.246 -0.870 0.426 147 57 67 0
2.0720 27.5289 -29.8906 0.262 -0.944 0.198 111 37 43 0
4.5873 28.2938 -30.1685 0.313 -0.737 0.599 79 18 25 0
5.0015 29.1262 -30.3552 -0.009 -0.997 0.083 77 18 25 0
7.1218 31.6955 -30.9736 0.610 -0.636 0.474 73 26 26 0
7.2716 31.9685 -31.0355 0.576 -0.640 0.508 72 26 26 0
7.4520 32.1091 -31.0725 0.780 -0.456 0.430 70 26 27 0
8.9148 39.6170 -32.6438 0.192 -0.929 0.317 67 27 28 0
24.4464 32.5126 -31.9991 0.000 -0.962 0.275 207 197 185 0
28.8354 40.4349 -33.7987 0.018 -0.942 0.334 201 192 175 0
29.0296 40.7775 -33.8768 -0.057 -0.923 0.380 201 191 175 0
29.2277 41.0024 -33.9315 -0.004 -0.920 0.392 203 191 177 0
29.6431 40.6063 -33.8732 -0.323 -0.942 0.088 201 189 178 0
30.0281 41.7531 -34.1212 0.971 -0.084 -0.225 202 188 177 0
35.4943 68.8328 -39.7979 0.247 -0.756 0.606 194 182 168 0
47.2122 69.1821 -40.4509 0.042 -0.902 -0.429 181 164 153 0
45.7956 45.8620 -35.7262 0.024 -0.732 0.681 174 158 145 0
-35.2701 4.8529 -23.6927 -0.546 -0.813 -0.200 235 221 210 0
-25.0142 32.6542 -29.7965 -0.501 -0.807 0.311 235 228 212 0
-17.0940 27.3336 -29.1150 -0.359 -0.513 0.780 114 54 60 0
-6.8249 25.3176 -29.2145 0.439 -0.880 -0.182 150 56 70 0
-6.3367 24.5937 -29.0928 0.527 -0.846 -0.079 146 52 66 0
-6.1442 24.6535 -29.1143 0.550 -0.832 -0.072 150 58 72 0
-4.5253 25.5129 -29.3671 0.534 -0.841 0.087 155 67 79 0
-4.2980 25.4762 -29.3709 0.496 -0.844 0.202 155 68 79 0
-4.3140 26.1326 -29.5023 -0.103 -0.698 0.709 155 69 78 0
-4.2706 26.6257 -29.6037 -0.413 -0.787 0.459 155 68 77 0
-4.4651 27.8114 -29.8329 -0.613 -0.724 0.316 155 70 79 0
3.9357 27.5265 -30.1892 0.906 -0.421 -0.038 83 22 28 0
4.4507 28.7454 -30.4600 0.507 -0.857 0.093 79 18 26 0
5.2304 28.9733 -30.5443 -0.055 -0.993 0.104 79 19 29 0
7.1217 31.6163 -31.1697 0.526 -0.718 0.456 73 27 27 0
7.2474 31.9955 -31.2522 0.567 -0.604 0.559 73 28 28 0
7.5098 31.7710 -31.2199 0.591 -0.690 0.418 71 27 27 0
7.9383 31.7433 -31.2354 0.111 -0.991 0.069 67 27 28 0
9.5731 53.7784 -35.7536 0.981 0.110 0.163 143 153 126 0
9.0796 59.6634 -36.9144 0.957 0.142 0.254 129 150 118 0
30.3523 33.6807 -32.7291 -0.647 -0.662 -0.378 202 188 177 0
35.2149 67.4928 -39.7779 0.311 -0.866 0.392 192 183 167 0
35.9870 45.8437 -35.4560 0.363 -0.651 0.666 192 180 165 0
43.5722 67.7334 -40.2378 0.789 -0.042 0.613 182 170 154 0
46.2479 55.6801 -37.9421 0.899 -0.394 -0.190 178 162 151 0
48.2088 61.7161 -39.2543 0.857 -0.280 -0.432 176 160 147 0
-50.0967 15.9177 -25.4063 0.753 -0.614 -0.236 233 220 205 0
-34.8456 4.5448 -23.8378 -0.417 -0.789 -0.452 235 221 210 0
-24.6295 31.8396 -29.8814 -0.330 -0.944 -0.003 236 227 213 0
-20.5168 30.9726 -29.9055 -0.279 -0.774 0.569 121 71 74 0
-19.9779 30.3558 -29.8064 -0.298 -0.802 0.518 118 66 70 0
-16.9110 26.8748 -29.2483 -0.138 -0.774 0.618 114 53 60 0
-7.0359 24.6659 -29.2802 0.085 -0.687 0.722 151 54 67 0
-6.3508 24.5638 -29.2928 0.626 -0.778 0.051 148 54 68 0
-6.1719 24.6603 -29.3211 0.480 -0.566 0.670 152 60 74 0
-4.6067 25.6740 -29.6033 0.492 -0.868 0.070 152 68 77 0
-4.3433 25.5360 -29.5881 0.415 -0.908 0.054 152 68 77 0
-3.1350 25.1279 -29.5640 -0.272 -0.714 0.645 166 85 95 0
-0.3905 27.8260 -30.2459 0.991 0.025 -0.133 133 60 67 0
4.4628 28.6237 -30.6442 0.462 -0.882 0.091 82 21 29 0
5.0080 28.9491 -30.7369 -0.002 -0.999 0.032 78 18 28 0
5.2393 28.8623 -30.7305 -0.045 -0.991 0.126 80 21 31 0
7.5043 31.7152 -31.4205 0.569 -0.693 0.443 72 27 28 0
7.6835 31.8593 -31.4585 0.613 -0.612 0.500 68 25 26 0
9.5080 55.5098 -36.3531 0.950 0.138 0.279 102 124 91 0
9.1316 59.2427 -37.0933 0.954 0.144 0.262 98 128 93 0
35.2095 67.5272 -40.0462 0.321 -0.874 0.366 194 185 168 0
48.3080 62.5763 -39.6779 0.963 -0.271 0.014 174 160 145 0
48.6482 63.5964 -39.9017 0.955 -0.296 0.007 173 159 144 0
-49.5900 13.2955 -25.1085 0.741 -0.489 -0.461 255 255 255 0
-50.6572 15.6263 -25.5349 0.561 -0.752 -0.346 229 214 204 0
-50.5116 15.7497 -25.5673 0.561 -0.752 -0.346 229 217 203 0
-50.3509 16.1467 -25.6564 0.739 -0.584 -0.335 230 217 204 0
-35.7269 5.3064 -24.1378 -0.541 -0.819 -0.190 235 222 210 0
-35.1173 4.8261 -24.0687 -0.193 -0.726 -0.660 236 222 211 0
-34.7114 4.5935 -24.0405 -0.401 -0.763 -0.507 238 223 211 0
-31.8398 2.6097 -23.7720 -0.448 -0.599 -0.664 232 221 211 0
-24.9338 32.3573 -30.2031 -0.280 -0.943 0.182 236 227 214 0
-20.7239 30.8304 -30.0927 -0.396 -0.797 0.456 130 80 83 0
-20.4245 30.7120 -30.0828 -0.299 -0.782 0.546 122 72 75 0
-19.9437 30.2152 -30.0041 -0.298 -0.802 0.518 120 68 72 0
-16.0390 26.4176 -29.4135 -0.598 -0.749 0.287 112 48 54 0
-10.1037 24.1168 -29.2275 -0.495 -0.864 0.092 139 46 57 0
-9.6751 23.6066 -29.1435 0.216 -0.671 0.709 140 46 58 0
-9.3797 23.9472 -29.2275 0.568 -0.543 0.619 136 42 56 0
-4.6337 25.6813 -29.8115 0.258 -0.962 0.085 150 67 75 0
3.8910 28.3302 -30.7649 0.020 -0.923 0.384 86 25 32 0
4.1026 28.3233 -30.7736 0.482 -0.847 0.225 83 22 29 0
4.5039 28.3904 -30.8067 0.615 -0.767 0.180 79 19 27 0
5.0071 28.8768 -30.9306 0.499 -0.732 0.463 76 18 26 0
5.2216 28.8568 -30.9368 -0.018 -0.994 0.111 79 21 29 0
5.5756 29.9648 -31.1810 0.497 -0.404 0.768 77 22 28 0
6.9487 31.2895 -31.5187 0.299 -0.912 0.281 75 26 29 0
7.1428 31.3645 -31.5434 0.313 -0.945 0.096 73 24 27 0
7.6279 32.9878 -31.8996 -0.073 -0.881 0.468 65 23 26 0
7.7505 33.4026 -31.9905 0.206 -0.969 0.134 65 24 28 0
23.6238 40.9012 -34.2918 0.228 -0.300 0.926 205 195 185 0
28.7637 42.1713 -34.7996 0.099 -0.701 -0.706 201 189 174 0
33.8852 59.6933 -38.6384 -0.268 -0.597 0.756 193 182 166 0
38.2422 65.2781 -39.9930 -0.314 -0.942 -0.122 191 179 163 0
42.4672 35.2867 -34.0477 0.780 -0.310 0.543 182 168 155 0
42.6719 35.5433 -34.1102 0.899 -0.253 0.357 181 167 153 0
48.3868 63.2603 -40.0676 0.931 -0.328 0.158 175 162 145 0
48.7185 64.1968 -40.2756 0.931 -0.334 0.146 173 160 144 0
-50.7277 15.6452 -25.7508 0.565 -0.752 -0.338 230 215 205 0
-50.5976 15.7864 -25.7862 0.561 -0.752 -0.346 230 217 205 0
-50.4367 15.8932 -25.8160 0.565 -0.752 -0.338 231 216 204 0
-36.0194 6.7012 -24.6007 -0.518 -0.629 -0.579 237 220 209 0
-25.0086 32.4313 -30.4464 -0.015 -0.872 0.490 236 227 213 0
-20.6948 30.7008 -30.2937 -0.396 -0.797 0.456 128 78 82 0
-20.3845 30.5596 -30.2792 -0.299 -0.782 0.546 122 72 75 0
-19.9882 30.2380 -30.2316 -0.314 -0.774 0.550 120 67 71 0
-15.6344 25.9691 -29.5558 -0.595 -0.792 0.137 111 44 50 0
-13.3055 24.3102 -29.3235 0.126 -0.989 0.077 122 40 52 0
-13.0962 24.3405 -29.3397 -0.046 -0.998 -0.044 121 39 51 0
-12.3687 24.2010 -29.3455 -0.378 -0.862 0.337 121 41 50 0
-11.3572 23.9027 -29.3319 0.133 -0.794 0.593 131 45 58 0
-11.2477 24.1622 -29.3908 0.508 -0.616 0.602 129 42 54 0
-9.4989 23.6406 -29.3661 -0.052 -0.827 0.560 135 42 56 0
-9.3522 23.8132 -29.4088 0.572 -0.540 0.617 137 42 56 0
-6.7830 24.4335 -29.6593 0.032 -0.728 0.685 155 54 67 0
-4.6572 25.6787 -30.0180 0.330 -0.857 -0.396 152 70 76 0
4.0658 28.3880 -30.9934 0.382 -0.917 0.113 83 22 29 0
4.2399 28.5239 -31.0298 -0.040 -0.999 0.001 81 20 28 0
5.2041 28.8501 -31.1431 0.026 -0.999 0.034 81 21 31 0
5.4190 29.6697 -31.3229 0.659 -0.432 0.616 81 23 30 0
5.5866 29.8431 -31.3667 0.661 -0.433 0.613 78 22 27 0
5.9661 29.1513 -31.2417 0.361 -0.920 -0.153 73 19 22 0
6.1485 29.2606 -31.2730 0.252 -0.960 -0.124 70 17 19 0
6.1692 30.0435 -31.4359 0.375 -0.876 0.305 69 17 20 0
6.9334 31.2763 -31.7272 0.313 -0.945 0.096 76 27 29 0
7.1304 31.3394 -31.7496 0.313 -0.945 0.096 71 23 25 0
7.7269 33.4281 -32.2100 0.191 -0.972 0.140 65 24 28 0
8.5605 33.5308 -32.2709 0.321 -0.783 0.532 64 23 27 0
27.2945 60.3425 -38.7077 0.986 -0.148 -0.078 199 190 174 0
33.1091 27.3346 -32.1574 0.373 -0.824 -0.426 197 185 169 0
38.2435 65.4184 -40.2785 -0.318 -0.942 -0.107 191 179 163 0
38.4256 64.2038 -40.0359 -0.308 -0.950 0.060 190 178 162 0
42.2075 34.4270 -34.0572 0.787 -0.335 0.518 182 168 154 0
42.4209 34.7951 -34.1435 0.787 -0.335 0.518 183 169 155 0
42.6357 35.1668 -34.2306 0.787 -0.334 0.519 182 168 154 0
43.1637 36.9026 -34.6147 0.904 -0.221 0.366 182 166 155 0
45.5261 43.4363 -36.0785 -0.131 -0.892 0.432 176 163 147 0
45.4338 40.9052 -35.5506 0.304 -0.895 0.326 176 163 146 0
48.3875 63.2668 -40.3161 0.928 -0.364 0.077 175 162 146 0
48.6917 63.9671 -40.4754 0.936 -0.331 0.122 175 162 145 0
-50.8097 15.6770 -25.9692 0.562 -0.756 -0.336 230 215 204 0
-50.6669 15.8041 -26.0024 0.565 -0.752 -0.338 229 217 203 0
-50.5212 15.9283 -26.0352 0.565 -0.752 -0.338 231 217 204 0
-32.9039 2.7821 -24.1208 -0.659 -0.749 0.059 236 223 213 0
-29.4552 0.7960 -23.8686 -0.479 -0.653 -0.586 234 227 219 0
-24.8043 31.9664 -30.5908 -0.037 -0.894 0.446 236 227 213 0
-28.0957 39.8615 -32.0833 -0.818 -0.563 0.117 234 223 208 0
-21.4780 31.2386 -30.5954 -0.715 -0.633 0.298 140 97 96 0
-20.3515 30.4217 -30.4779 -0.321 -0.788 0.526 123 71 75 0
-19.5492 29.2582 -30.2729 -0.615 -0.709 0.344 121 66 71 0
-19.9779 30.6478 -30.5427 -0.033 -0.790 0.613 118 63 68 0
-13.8577 24.9808 -29.6481 -0.106 -0.893 0.437 121 39 51 0
-11.2793 24.1701 -29.6002 0.211 -0.865 0.455 128 44 56 0
-11.0031 24.0377 -29.5856 0.071 -0.951 0.302 132 45 55 0
-9.7120 23.5639 -29.5474 -0.350 -0.843 0.408 135 43 54 0
-7.0673 23.9837 -29.7594 0.463 -0.885 0.043 157 56 68 0
