ply
format ascii 1.0
element vertex 841
property float x
property float y
property float z
property float nx
property float ny
property float nz
property uchar diffuse_red
property uchar diffuse_green
property uchar diffuse_blue
property uchar class
end_header
47.0262 43.8526 -41.3248 0.053 -0.992 -0.118 169 155 144 0
48.7875 52.9526 -43.7118 0.079 -0.983 -0.167 169 154 142 0
49.0103 53.0415 -43.7450 -0.354 -0.924 -0.146 169 153 140 0
49.2088 52.9718 -43.7369 -0.354 -0.924 -0.146 169 152 139 0
49.4058 52.8947 -43.7269 -0.354 -0.924 -0.146 108 98 90 0
49.6005 52.8063 -43.7139 -0.444 -0.885 -0.139 51 50 50 0
50.3457 52.2758 -43.6154 -0.558 -0.797 -0.230 255 255 255 0
-52.6637 15.3263 -29.5384 0.377 -0.901 -0.216 255 255 255 0
-34.0709 10.2388 -29.1247 0.867 -0.214 0.450 234 225 215 0
-27.7994 36.5287 -36.1236 0.577 -0.789 -0.211 233 223 213 0
-19.7784 26.9318 -34.0584 0.354 -0.924 -0.145 134 78 84 0
-16.8172 25.9803 -33.9565 -0.597 -0.634 0.491 119 46 58 0
-14.5079 26.9672 -34.3178 -0.017 -0.816 0.578 121 40 53 0
-6.7951 22.8627 -33.6379 0.666 -0.414 0.621 135 39 53 0
-1.2068 23.0329 -33.9467 -0.157 -0.931 0.331 125 41 58 0
2.1292 24.3442 -34.4394 0.683 -0.700 0.209 87 23 35 0
4.4113 27.6727 -35.3962 0.698 -0.712 0.075 70 12 21 0
6.0904 32.5887 -36.7290 0.432 -0.735 -0.522 61 7 13 0
6.2153 33.0305 -36.8475 0.071 -0.646 -0.760 59 9 14 0
7.4435 30.1007 -36.1591 0.009 -0.997 0.072 57 14 17 0
9.0856 33.7722 -37.1729 0.934 -0.255 0.251 64 36 33 0
8.3993 40.1958 -38.7776 0.193 -0.781 0.593 70 41 36 0
8.4888 40.9918 -38.9847 0.229 -0.910 -0.345 72 45 41 0
8.6289 41.5057 -39.1224 0.694 -0.537 -0.480 73 48 43 0
9.4756 41.9012 -39.2634 0.304 -0.893 -0.331 77 59 51 0
10.9487 44.2389 -39.9292 0.167 -0.443 0.881 55 96 51 0
11.1457 44.4696 -39.9974 0.123 -0.440 0.890 54 97 51 0
11.3585 44.5944 -40.0393 0.350 -0.298 0.888 55 98 52 0
26.1906 50.6398 -42.2847 -0.197 -0.889 -0.413 196 186 176 0
32.7083 32.0217 -37.8487 -0.014 -0.973 -0.230 190 182 169 0
36.1901 33.9445 -38.5042 0.181 -0.972 -0.151 191 177 164 0
40.5797 47.1063 -42.0675 0.812 -0.155 0.563 184 171 162 0
40.8546 47.8303 -42.2651 0.816 -0.156 0.556 184 171 162 0
40.8205 39.2352 -40.0727 0.569 -0.259 0.780 184 170 159 0
46.4484 42.5622 -41.1880 0.910 -0.324 -0.258 169 156 145 0
46.7556 43.3414 -41.4012 0.883 -0.334 -0.330 169 156 144 0
48.7934 52.9949 -43.9585 0.079 -0.983 -0.167 169 154 142 0
49.4112 52.9313 -43.9716 -0.354 -0.924 -0.146 108 98 92 0
49.6059 52.8418 -43.9581 -0.444 -0.885 -0.139 50 50 50 0
50.2460 52.9366 -44.0126 -0.437 -0.864 -0.249 254 255 255 0
-52.7123 15.3169 -29.7515 0.361 -0.911 -0.200 255 255 255 0
-34.2646 10.1398 -29.2889 0.852 -0.426 0.303 233 225 215 0
-34.0976 10.2148 -29.3160 0.767 -0.215 0.604 233 224 215 0
-26.9662 36.3210 -36.3541 -0.151 -0.988 -0.026 232 220 206 0
-27.2869 37.5104 -36.6444 -0.043 -0.994 0.099 230 219 207 0
-27.0407 37.5366 -36.6627 -0.024 -0.992 0.120 229 218 207 0
-26.5431 37.5768 -36.6964 -0.015 -0.990 0.137 182 155 151 0
-26.2857 37.5783 -36.7089 -0.014 -0.991 0.134 160 125 123 0
-19.9466 27.2195 -34.3470 0.211 -0.928 -0.308 133 77 84 0
-16.7830 25.8269 -34.1380 -0.587 -0.633 0.505 119 46 57 0
-13.4770 24.9322 -34.0636 -0.336 -0.923 -0.190 119 39 52 0
-12.9267 25.7729 -34.3053 0.682 -0.579 -0.447 130 50 63 0
-5.8382 22.4628 -33.7884 0.543 -0.597 0.590 131 35 49 0
-5.6665 22.5750 -33.8253 0.564 -0.579 0.589 129 33 47 0
-0.3306 22.7700 -34.1261 0.170 -0.968 0.186 105 32 49 0
1.4251 23.0675 -34.2849 0.625 -0.780 0.044 88 25 36 0
1.9894 24.0123 -34.5540 0.757 -0.649 0.073 88 25 38 0
2.0978 24.3804 -34.6536 0.637 -0.769 -0.056 87 25 37 0
4.0263 28.3373 -35.7602 0.333 -0.604 -0.724 74 14 25 0
4.5945 27.6918 -35.6212 -0.172 -0.703 0.690 68 11 20 0
6.0101 32.8794 -37.0196 0.498 -0.748 -0.439 61 7 12 0
6.0842 33.5729 -37.2012 0.073 -0.654 -0.753 60 9 14 0
6.2736 33.7092 -37.2451 0.145 -0.676 -0.722 60 10 16 0
6.8438 34.1174 -37.3767 0.396 -0.586 -0.707 57 15 17 0
8.4264 41.2408 -39.2800 0.259 -0.836 -0.484 71 45 40 0
9.6864 41.8895 -39.5058 -0.019 -0.878 -0.479 78 67 53 0
9.2913 45.8198 -40.4963 -0.494 -0.854 -0.164 76 72 53 0
11.1827 44.0882 -40.1406 0.282 -0.536 0.796 54 97 51 0
11.3715 44.3757 -40.2233 0.252 -0.421 0.871 55 98 52 0
13.2594 38.8676 -38.8977 0.056 -0.071 0.996 58 108 59 0
35.7139 50.2274 -42.8694 0.873 -0.271 -0.405 190 178 165 0
41.2787 39.9620 -40.4951 0.677 -0.347 0.650 183 171 159 0
43.5820 59.9677 -45.7399 -0.382 -0.585 0.715 181 169 157 0
43.9362 55.0528 -44.4946 -0.542 -0.556 0.630 177 165 153 0
47.6974 69.3533 -48.3431 0.826 -0.329 -0.459 173 162 153 0
45.6393 39.5817 -40.6023 0.392 -0.909 -0.141 173 161 149 0
48.7995 53.0390 -44.2060 0.074 -0.988 -0.132 169 154 142 0
49.0209 53.1160 -44.2362 -0.346 -0.925 -0.154 169 153 140 0
49.2195 53.0450 -44.2273 -0.354 -0.924 -0.146 169 152 140 0
49.4167 52.9678 -44.2167 -0.354 -0.924 -0.146 108 98 93 0
49.6141 52.8944 -44.2072 -0.340 -0.931 -0.130 50 50 50 0
-52.7800 15.3293 -29.9697 0.390 -0.897 -0.209 255 255 255 0
-33.8821 9.5429 -29.3511 0.800 -0.372 0.471 231 222 213 0
-33.8622 9.8227 -29.4244 0.730 -0.469 0.496 233 224 215 0
-27.0870 36.4868 -36.6355 -0.236 -0.962 0.138 233 220 207 0
-27.3491 37.5560 -36.8998 -0.073 -0.990 0.119 229 220 207 0
-26.5708 37.5518 -36.9349 -0.014 -0.991 0.134 189 162 158 0
-26.3077 37.5416 -36.9445 -0.027 -0.990 0.140 163 126 126 0
-22.9721 32.0887 -35.6891 -0.816 -0.576 0.054 145 100 104 0
-19.8682 26.9744 -34.5106 -0.178 -0.984 0.029 133 78 87 0
-13.5593 23.9821 -34.0298 0.460 -0.874 0.155 117 39 52 0
-13.7201 24.9061 -34.2613 -0.297 -0.939 -0.172 119 41 54 0
-13.5492 25.0323 -34.3019 -0.324 -0.924 -0.202 118 40 53 0
-10.6044 24.2875 -34.2461 0.217 -0.635 -0.742 119 36 48 0
-5.6177 22.3561 -33.9783 0.860 -0.511 -0.009 130 33 48 0
-0.8362 23.0141 -34.3706 0.241 -0.848 0.472 115 38 55 0
-0.5608 22.7761 -34.3219 0.206 -0.966 0.159 110 36 53 0
6.0403 32.6346 -37.1783 0.479 -0.718 -0.505 60 7 12 0
6.0520 33.6306 -37.4364 -0.055 -0.710 -0.702 62 9 15 0
6.2836 33.5597 -37.4289 -0.040 -0.702 -0.711 61 10 16 0
7.2438 29.8563 -36.5156 0.152 -0.983 0.099 59 10 16 0
7.4438 29.9044 -36.5374 0.176 -0.977 0.122 60 14 19 0
7.6523 29.9085 -36.5481 -0.016 -0.991 0.133 59 15 18 0
9.6360 42.0848 -39.7895 -0.113 -0.891 -0.440 78 69 54 0
9.8705 42.0452 -39.7902 -0.060 -0.745 -0.665 70 69 48 0
10.0006 42.6697 -39.9577 -0.456 -0.888 0.047 61 71 45 0
10.4615 42.6481 -39.9735 -0.433 -0.901 0.038 58 84 49 0
11.3980 42.4813 -39.9739 0.498 -0.566 0.657 55 98 53 0
18.2632 63.8667 -45.8239 0.285 -0.796 -0.534 199 194 182 0
23.9158 49.9306 -42.4822 -0.446 -0.793 0.415 200 192 181 0
38.8620 41.4749 -40.9896 0.010 -0.289 0.957 186 174 160 0
40.9568 38.7409 -40.3799 0.916 -0.325 0.236 181 170 160 0
41.1326 38.5834 -40.3473 0.810 -0.337 0.481 181 171 160 0
49.0237 53.1373 -44.4781 -0.339 -0.930 -0.144 169 153 140 0
49.4215 53.0001 -44.4611 -0.340 -0.931 -0.130 108 98 93 0
49.6190 52.9266 -44.4512 -0.340 -0.931 -0.130 50 50 50 0
-27.1448 36.5233 -36.8870 -0.229 -0.964 0.135 231 218 206 0
-26.6013 37.5327 -37.1749 -0.039 -0.988 0.147 195 168 163 0
-26.3302 37.5058 -37.1804 -0.160 -0.976 0.146 163 127 126 0
-23.3548 32.8233 -36.0972 -0.791 -0.611 0.035 145 102 105 0
-12.9679 21.9621 -33.7450 0.833 -0.490 -0.258 118 38 51 0
-13.5668 24.9993 -34.5087 -0.293 -0.936 -0.194 121 43 56 0
-10.7559 24.6042 -34.5349 0.229 -0.635 -0.738 120 34 47 0
-8.0167 23.0734 -34.2620 0.182 -0.967 -0.179 129 34 50 0
-3.2338 22.6520 -34.3719 0.086 -0.920 0.382 127 35 50 0
-2.8815 23.5184 -34.6138 0.167 -0.881 -0.443 126 38 54 0
-1.4500 22.9170 -34.5229 0.504 -0.830 0.238 122 41 56 0
0.5562 25.3324 -35.2443 0.293 -0.896 -0.335 89 27 39 0
3.5189 29.4161 -36.4443 0.386 -0.720 -0.576 73 12 28 0
3.8485 28.9163 -36.3292 0.601 -0.554 -0.576 71 10 26 0
6.2810 32.4128 -37.3519 -0.482 -0.874 -0.065 61 8 14 0
7.9390 29.4130 -36.6466 0.823 -0.448 -0.350 57 16 17 0
8.0058 30.1444 -36.8402 0.846 -0.533 -0.024 57 17 18 0
8.3584 30.4920 -36.9469 0.831 -0.556 0.009 58 24 24 0
8.5297 31.8267 -37.3025 0.957 -0.278 0.083 58 29 26 0
9.3025 42.6127 -40.1479 0.209 -0.853 -0.479 76 65 51 0
9.5946 42.2236 -40.0599 -0.113 -0.891 -0.440 75 68 52 0
9.7836 42.4734 -40.1337 0.015 -0.836 -0.548 65 66 45 0
9.9149 43.0952 -40.3017 -0.440 -0.897 0.030 61 74 47 0
10.6617 44.2411 -40.6345 0.529 -0.568 0.631 53 93 51 0
11.3712 42.5403 -40.2241 0.196 -0.741 0.642 55 98 53 0
24.5127 52.0883 -43.3152 0.192 -0.939 -0.285 198 187 181 0
37.0390 58.2164 -45.4871 0.854 -0.276 -0.441 185 175 163 0
36.1293 33.2273 -38.9354 0.640 -0.082 0.764 185 175 163 0
38.3763 29.1268 -37.9704 0.913 -0.388 -0.126 187 175 163 0
45.1348 40.0703 -41.1318 -0.428 -0.851 0.304 171 161 151 0
45.3001 39.8860 -41.0914 -0.404 -0.860 0.311 171 161 150 0
45.4459 39.5674 -41.0151 0.609 -0.758 -0.234 171 161 149 0
45.9454 40.4136 -41.2585 0.932 -0.287 -0.221 170 160 148 0
-27.8977 37.4510 -37.3412 0.182 -0.959 0.215 231 220 208 0
-27.2371 37.1600 -37.2949 0.311 -0.946 -0.086 229 218 206 0
-26.6299 37.5092 -37.4141 -0.099 -0.989 0.114 202 176 171 0
-26.3547 37.4743 -37.4174 -0.160 -0.976 0.146 162 129 127 0
-23.4576 32.9621 -36.3651 -0.793 -0.609 -0.007 147 104 106 0
-22.9183 32.3385 -36.2259 -0.840 -0.543 -0.018 143 96 99 0
-12.9596 21.8690 -33.9313 0.711 -0.694 0.110 120 38 52 0
-13.3667 23.9009 -34.4459 0.629 -0.757 -0.178 119 41 54 0
-13.2984 25.9094 -34.9760 0.764 -0.449 -0.464 126 45 59 0
-12.0373 23.8814 -34.5012 -0.611 -0.686 0.396 125 45 58 0
-10.0061 24.2826 -34.6987 0.527 -0.794 -0.302 126 39 53 0
-2.7509 23.6915 -34.8732 -0.195 -0.774 0.603 124 37 54 0
-2.5360 23.6735 -34.8782 -0.192 -0.770 0.609 122 36 53 0
-2.3050 23.6017 -34.8699 -0.173 -0.726 0.665 120 36 53 0
0.0966 24.6515 -35.2544 0.528 -0.849 0.007 96 28 42 0
2.5131 24.9061 -35.4310 0.127 -0.931 0.343 81 18 29 0
3.0506 25.2244 -35.5389 0.361 -0.747 0.559 80 16 33 0
2.8344 29.5130 -36.6544 0.909 -0.413 -0.056 76 13 29 0
3.5037 29.3894 -36.6523 0.844 -0.536 -0.019 72 11 27 0
3.7496 29.2473 -36.6263 0.859 -0.512 0.013 72 11 26 0
7.8436 29.8037 -36.9582 0.958 -0.282 -0.041 56 16 18 0
7.9725 30.2178 -37.0727 0.954 -0.298 0.024 57 17 21 0
8.1559 30.3543 -37.1169 0.808 -0.389 0.442 58 21 23 0
8.3495 44.0564 -40.7209 0.691 -0.585 -0.425 73 52 43 0
8.5562 45.6321 -41.1438 0.638 -0.566 -0.522 73 60 48 0
9.2594 42.7589 -40.4218 0.188 -0.920 -0.343 72 63 50 0
11.6017 42.3936 -40.4324 0.576 -0.327 0.749 56 99 53 0
11.1025 47.5090 -41.7519 -0.168 -0.265 0.950 55 101 55 0
24.4082 54.7781 -44.2636 -0.317 -0.948 -0.018 198 189 180 0
24.7139 52.6380 -43.7160 -0.276 -0.689 -0.670 198 188 179 0
31.5395 24.0764 -36.5318 -0.479 -0.876 0.054 190 180 168 0
36.7604 57.4787 -45.5333 0.837 -0.298 -0.460 186 176 164 0
36.2416 32.1601 -38.8665 0.598 -0.090 0.796 186 176 164 0
38.6855 41.8630 -41.5234 0.241 -0.970 -0.033 186 175 161 0
39.8226 31.2221 -38.7830 -0.195 -0.779 -0.596 179 171 161 0
47.9704 67.8228 -48.7567 0.828 -0.560 0.035 175 161 153 0
45.4308 39.4670 -41.2011 0.555 -0.808 -0.200 171 161 148 0
46.8642 42.7759 -42.1345 0.886 -0.383 -0.261 169 155 144 0
48.8363 53.2933 -44.9837 -0.307 -0.943 -0.132 170 154 143 0
49.0339 53.2098 -44.9708 -0.339 -0.930 -0.144 169 152 142 0
49.4311 53.0649 -44.9508 -0.340 -0.931 -0.130 108 98 92 0
-53.5935 18.1308 -31.3290 0.240 -0.942 -0.234 232 226 218 0
-53.4085 18.2148 -31.3595 0.472 -0.716 -0.515 233 226 217 0
-28.0064 37.5897 -37.6204 0.178 -0.922 0.343 229 221 208 0
-27.2305 37.0640 -37.5163 0.277 -0.950 -0.148 231 218 206 0
-27.1528 37.4371 -37.6184 -0.330 -0.939 0.098 229 213 204 0
-26.3629 37.4084 -37.6462 -0.165 -0.968 0.188 166 135 131 0
-26.0820 37.3604 -37.6462 -0.165 -0.968 0.188 158 121 119 0
-23.3286 32.6082 -36.5140 -0.820 -0.571 0.039 151 108 110 0
-13.6298 25.0010 -34.9392 -0.101 -0.994 0.049 122 41 54 0
-13.2456 25.7026 -35.1418 0.978 -0.172 -0.115 124 42 56 0
-13.2270 26.2117 -35.2772 0.998 -0.068 -0.003 123 42 57 0
-4.0081 22.9553 -34.8306 -0.148 -0.985 0.094 124 34 46 0
-3.6750 22.5728 -34.7445 -0.590 -0.736 0.333 124 33 46 0
-3.3946 22.3489 -34.6979 -0.603 -0.736 0.308 127 36 51 0
1.7310 23.8806 -35.3329 -0.038 -0.999 -0.033 87 25 38 0
2.3293 24.7347 -35.5855 0.021 -0.948 0.318 78 17 29 0
2.5550 24.6575 -35.5752 0.015 -0.999 0.046 78 16 27 0
3.9709 27.3223 -36.3430 0.802 -0.059 0.595 71 11 24 0
6.2274 28.4211 -36.7347 0.624 -0.555 0.550 64 9 15 0
6.1118 30.9666 -37.4022 0.822 -0.235 0.518 59 8 13 0
7.9582 30.1928 -37.2806 0.959 -0.279 -0.051 57 21 23 0
8.1156 30.4651 -37.3596 0.934 -0.356 -0.012 59 25 26 0
8.6697 32.0119 -37.7933 0.940 -0.318 0.124 61 32 29 0
9.0008 42.8131 -40.6626 0.225 -0.902 -0.369 71 59 47 0
9.4395 42.9498 -40.7184 0.040 -0.971 -0.236 62 61 41 0
9.8562 47.7825 -42.0142 0.704 -0.287 0.650 53 90 48 0
10.2029 48.6589 -42.2614 0.856 -0.320 0.407 53 96 49 0
18.7277 60.4126 -45.7503 0.424 -0.897 -0.125 196 192 180 0
24.9289 52.7989 -44.0168 -0.294 -0.688 -0.663 196 187 179 0
25.1774 52.2377 -43.8796 0.293 -0.902 0.318 195 185 178 0
25.3950 52.7234 -44.0177 -0.225 -0.970 -0.088 194 184 178 0
25.6419 52.1241 -43.8704 -0.296 -0.917 -0.267 195 185 178 0
45.4514 39.6220 -41.4561 0.506 -0.851 0.140 172 160 147 0
48.8364 53.2972 -45.2220 -0.271 -0.954 -0.127 170 154 143 0
49.0391 53.2462 -45.2176 -0.339 -0.930 -0.144 170 152 142 0
49.2376 53.1712 -45.2067 -0.340 -0.931 -0.130 170 152 141 0
49.4360 53.0973 -45.1961 -0.340 -0.931 -0.130 109 99 93 0
-28.7009 38.9201 -38.1915 0.140 -0.946 0.292 229 221 208 0
-23.3510 32.5760 -36.7405 -0.827 -0.561 0.039 151 110 110 0
-22.6805 31.6727 -36.5299 -0.825 -0.563 0.058 145 99 101 0
-13.3876 23.8017 -34.8475 0.567 -0.813 -0.133 120 38 52 0
-13.2253 26.1306 -35.4745 0.997 -0.074 -0.004 121 40 55 0
-9.0008 22.0464 -34.5750 0.371 -0.922 -0.106 124 36 50 0
-8.8108 22.1083 -34.5999 0.196 -0.981 -0.002 125 34 49 0
-7.2926 22.6110 -34.8011 0.260 -0.932 0.252 132 33 47 0
-3.9973 22.8441 -35.0094 -0.081 -0.887 0.455 128 40 52 0
-3.7086 22.5987 -34.9569 -0.426 -0.679 0.598 124 35 49 0
-3.4358 22.3989 -34.9159 -0.520 -0.800 0.300 124 35 49 0
-3.3429 22.7592 -35.0159 0.155 -0.629 0.761 121 35 48 0
1.9408 23.7793 -35.5219 0.537 -0.762 0.362 84 22 36 0
1.9616 24.4799 -35.7093 0.739 -0.666 0.102 83 21 34 0
2.3196 24.6873 -35.7804 0.087 -0.906 0.413 78 18 30 0
3.9384 26.4940 -36.3331 0.793 -0.060 0.607 73 13 24 0
4.0525 26.8882 -36.4431 0.793 -0.060 0.607 72 12 24 0
5.7306 31.6663 -37.7892 0.486 -0.848 0.211 61 7 12 0
5.9401 31.6905 -37.8050 0.159 -0.802 0.575 61 10 14 0
7.7440 30.1165 -37.4661 0.911 -0.308 -0.276 59 20 26 0
9.2098 42.8258 -40.9137 0.867 -0.469 0.170 63 58 42 0
9.3122 43.6201 -41.1297 0.880 -0.474 0.029 55 56 37 0
9.7353 46.8898 -42.0187 0.784 -0.178 0.595 54 86 46 0
10.0992 47.6219 -42.2297 0.660 -0.279 0.697 51 92 48 0
10.2501 48.2096 -42.3928 0.709 -0.240 0.663 54 96 48 0
10.5319 47.9143 -42.3267 0.871 0.073 0.486 56 96 49 0
14.2356 61.9614 -46.2297 0.924 0.093 0.370 82 130 86 0
17.6644 64.0850 -46.9471 0.100 -0.832 -0.545 193 190 175 0
34.0600 33.6572 -39.5765 -0.262 -0.946 0.193 187 177 164 0
34.9534 36.2300 -40.3009 -0.229 -0.904 -0.360 185 178 164 0
38.7587 42.8813 -42.2401 0.379 -0.888 0.262 185 176 164 0
38.3101 28.4906 -38.3901 -0.051 -0.999 0.008 183 174 159 0
48.8362 53.2990 -45.4600 0.062 -0.988 -0.142 169 153 142 0
49.2404 53.1915 -45.4493 -0.010 -0.983 -0.185 168 151 142 0
49.4503 53.1911 -45.4585 -0.010 -0.983 -0.185 108 98 93 0
49.6600 53.1907 -45.4677 -0.010 -0.983 -0.185 51 50 51 0
-27.4191 36.7558 -37.9187 -0.137 -0.975 -0.174 228 218 206 0
-7.3004 22.5564 -34.9953 0.260 -0.932 0.252 131 32 46 0
-6.2522 22.5895 -35.0502 0.392 -0.898 -0.200 127 33 49 0
-5.3009 23.5217 -35.3418 0.027 -0.998 -0.051 122 30 44 0
-3.9920 22.7499 -35.1923 -0.081 -0.887 0.455 132 44 58 0
-3.6898 22.4630 -35.1286 -0.426 -0.683 0.594 128 40 54 0
-3.4234 22.2827 -35.0920 -0.549 -0.783 0.292 123 35 49 0
-2.9688 23.4804 -35.4330 -0.191 -0.857 -0.478 118 29 47 0
1.9333 23.7240 -35.7133 0.535 -0.745 0.398 80 18 31 0
2.3550 24.4660 -35.9307 0.110 -0.915 0.389 78 18 30 0
2.5448 24.5277 -35.9555 0.011 -1.000 0.023 81 21 33 0
5.2042 28.1403 -37.0405 -0.226 -0.912 -0.341 67 10 21 0
5.3674 28.3475 -37.1032 0.008 -1.000 0.006 67 10 21 0
5.8219 29.1496 -37.3381 -0.533 -0.845 -0.042 68 11 19 0
5.9615 31.4909 -37.9718 0.114 -0.782 0.612 61 10 15 0
9.0174 42.4764 -41.0503 0.846 -0.464 0.263 61 53 40 0
9.1633 42.9920 -41.1949 0.872 -0.356 0.337 56 53 36 0
9.2807 43.6951 -41.3885 0.907 -0.314 0.282 52 57 34 0
9.9171 45.5809 -41.9218 0.536 -0.741 0.404 54 87 45 0
10.1137 47.3971 -42.4173 0.711 -0.179 0.680 50 92 47 0
11.3705 45.2326 -41.8922 -0.094 -0.252 0.963 54 99 52 0
14.1961 59.7407 -45.9048 0.846 0.095 0.524 78 130 82 0
17.8379 61.6959 -46.5886 0.264 -0.061 0.963 194 191 176 0
34.2491 33.7611 -39.8211 -0.163 -0.954 0.252 186 177 162 0
36.2404 29.5926 -38.7912 0.172 -0.397 0.901 185 175 165 0
38.4968 42.1782 -42.2635 0.561 -0.827 0.034 186 177 162 0
38.7407 42.7122 -42.4173 0.324 -0.932 0.164 186 176 163 0
38.9391 42.6734 -42.4156 0.097 -0.995 0.008 185 175 162 0
45.6341 39.5859 -41.8818 0.412 -0.911 -0.013 171 159 147 0
45.8474 39.7512 -41.9354 0.553 -0.830 0.067 174 162 148 0
48.8459 53.3668 -45.7163 -0.370 -0.928 -0.038 168 152 142 0
49.2474 53.2385 -45.6996 -0.010 -0.983 -0.185 168 150 142 0
49.4574 53.2381 -45.7087 -0.010 -0.983 -0.185 106 96 91 0
49.6672 53.2376 -45.7178 -0.010 -0.983 -0.185 51 50 50 0
50.3285 53.4394 -45.8008 -0.304 -0.917 -0.260 254 255 255 0
-11.2742 23.8667 -35.3860 0.252 -0.924 0.289 119 36 49 0
-6.3265 22.7257 -35.2925 -0.011 -0.999 -0.036 127 33 49 0
-5.5926 23.6788 -35.5815 0.342 -0.863 -0.372 120 30 45 0
-4.5024 22.3153 -35.2608 0.499 -0.799 0.336 123 35 49 0
-4.2420 22.1602 -35.2302 0.508 -0.814 0.282 122 34 48 0
-3.9494 22.5414 -35.3458 -0.195 -0.836 0.513 126 38 52 0
-3.6713 22.3279 -35.3002 -0.296 -0.738 0.607 123 35 50 0
-3.4676 22.3421 -35.3129 -0.539 -0.834 0.113 121 33 48 0
-2.9024 23.1893 -35.5660 0.626 -0.675 0.391 116 28 47 0
-2.7329 23.3160 -35.6076 0.634 -0.674 0.380 113 28 47 0
2.3050 24.5747 -36.1657 -0.035 -0.997 0.074 76 16 28 0
2.5129 24.5669 -36.1726 -0.035 -0.997 0.074 78 18 30 0
2.7247 24.5430 -36.1753 -0.127 -0.866 0.484 78 18 30 0
2.9382 24.5113 -36.1760 -0.127 -0.866 0.484 77 17 29 0
3.1511 24.4805 -36.1769 -0.090 -0.820 0.565 74 16 28 0
3.3007 24.7028 -36.2434 0.491 -0.848 0.199 70 12 24 0
5.7717 31.2781 -38.1253 0.261 -0.734 0.627 61 9 15 0
6.0065 31.1791 -38.1088 0.101 -0.808 0.581 61 11 17 0
6.9995 31.5434 -38.2501 0.962 -0.270 0.029 57 17 18 0
7.7254 35.6342 -39.3857 0.748 -0.547 0.375 61 30 25 0
7.8278 36.2696 -39.5617 0.896 -0.164 0.412 62 33 26 0
7.9436 36.8436 -39.7216 0.911 -0.140 0.388 66 39 31 0
7.9328 38.1302 -40.0685 0.963 -0.120 0.242 69 44 35 0
8.8122 42.2092 -41.2075 0.876 -0.437 0.204 65 52 40 0
9.0082 42.4141 -41.2714 0.854 -0.452 0.259 58 50 36 0
9.1441 42.9908 -41.4329 0.884 -0.367 0.290 53 51 33 0
9.7733 44.8725 -41.9681 0.561 -0.711 0.424 56 84 46 0
9.9425 45.2909 -42.0883 0.562 -0.699 0.442 54 87 46 0
10.7128 46.4176 -42.4258 0.787 0.095 0.610 55 97 49 0
10.8259 47.2638 -42.6591 0.786 0.090 0.612 55 98 50 0
14.6674 59.9390 -46.2469 0.896 0.126 0.426 84 129 85 0
17.5623 61.7484 -46.8607 0.307 -0.073 0.949 193 189 175 0
18.1293 61.0176 -46.6881 0.288 -0.072 0.955 193 190 175 0
18.5239 59.1600 -46.2038 0.062 -0.102 0.993 195 192 177 0
18.7878 58.9688 -46.1636 0.068 -0.102 0.992 196 192 179 0
35.2591 22.6308 -37.0694 0.863 -0.006 0.505 187 174 164 0
38.7356 42.7033 -42.6380 -0.114 -0.993 -0.034 184 175 160 0
38.9323 42.6438 -42.6304 0.168 -0.983 0.080 184 175 160 0
47.0070 53.8627 -46.0086 0.310 -0.945 -0.110 172 159 150 0
45.6126 39.4403 -42.0553 0.513 -0.851 0.112 171 159 146 0
45.8073 39.4765 -42.0735 0.529 -0.833 0.162 173 161 147 0
49.2543 53.2856 -45.9502 -0.010 -0.983 -0.185 168 151 142 0
49.4645 53.2851 -45.9592 -0.010 -0.983 -0.185 107 97 92 0
49.6745 53.2847 -45.9682 -0.010 -0.983 -0.185 51 50 50 0
-27.1119 36.4913 -38.3531 -0.114 -0.967 0.229 228 218 206 0
-17.2581 26.3007 -36.0053 -0.680 -0.702 0.213 122 56 63 0
-14.4574 26.7016 -36.2342 -0.171 -0.985 0.011 118 38 51 0
-13.8680 25.8206 -36.0200 -0.574 -0.773 0.272 119 37 51 0
-11.3623 24.0147 -35.6364 0.598 -0.765 0.237 118 35 48 0
-11.1905 24.1364 -35.6769 0.598 -0.765 0.237 119 35 48 0
-10.6652 23.3510 -35.4859 0.085 -0.967 0.242 119 35 48 0
-4.2346 22.6954 -35.5831 0.283 -0.841 0.462 117 29 43 0
-3.6488 22.1807 -35.4683 -0.296 -0.738 0.607 116 28 44 0
-2.2690 23.0866 -35.7736 0.060 -0.980 0.188 110 29 47 0
-0.8976 22.6621 -35.7169 0.471 -0.860 0.196 100 30 48 0
2.7273 24.4478 -36.3575 -0.199 -0.806 0.557 77 17 29 0
2.9455 24.3971 -36.3531 -0.199 -0.806 0.557 74 14 26 0
3.0937 24.6237 -36.4210 -0.241 -0.832 0.499 71 13 25 0
3.3158 24.5563 -36.4122 0.167 -0.856 0.490 71 13 25 0
3.4750 24.7416 -36.4694 0.527 -0.820 0.223 70 12 24 0
5.3032 29.4078 -37.8159 -0.339 -0.939 -0.061 66 13 23 0
7.2999 32.0855 -38.6293 0.881 -0.463 -0.098 60 21 21 0
7.7006 35.6616 -39.6184 0.697 -0.545 0.466 62 32 24 0
7.8832 38.2952 -40.3421 0.749 -0.196 0.633 68 43 33 0
8.9586 42.5963 -41.5572 0.864 -0.470 0.181 56 50 33 0
9.5095 44.9402 -42.2178 0.538 -0.741 0.402 57 81 48 0
9.7735 44.7482 -42.1769 0.561 -0.711 0.424 56 83 46 0
9.9540 45.0919 -42.2781 0.624 -0.628 0.465 55 85 46 0
11.4700 45.9174 -42.5674 -0.183 -0.322 0.929 52 100 50 0
11.7969 46.9423 -42.8599 -0.009 -0.226 0.974 56 106 55 0
14.7998 58.4897 -46.1271 0.885 0.129 0.447 82 130 83 0
35.9592 28.2085 -38.8028 0.249 -0.177 0.952 184 174 163 0
38.7459 42.8872 -42.9118 0.028 -0.976 -0.216 184 174 162 0
47.3715 53.4261 -46.1457 0.238 -0.970 -0.047 170 160 148 0
45.6022 39.3738 -42.2505 0.510 -0.845 0.163 170 159 147 0
45.8026 39.4497 -42.2797 0.522 -0.842 0.135 171 159 146 0
49.2631 53.3451 -46.2047 -0.019 -0.983 -0.183 169 152 143 0
49.4732 53.3425 -46.2130 -0.019 -0.983 -0.183 108 99 93 0
49.6818 53.3318 -46.2190 -0.010 -0.983 -0.185 51 50 50 0
50.5156 54.5938 -46.5977 -0.375 -0.898 -0.228 254 255 255 0
-53.3634 15.4738 -31.7366 0.436 -0.869 -0.235 255 255 255 0
-21.9051 20.7014 -34.4981 0.433 -0.447 0.783 232 226 214 0
-27.0798 36.3432 -38.5602 0.070 -0.967 0.246 228 218 206 0
-20.3130 27.3244 -36.3781 -0.143 -0.990 -0.017 141 87 94 0
-19.2615 28.1054 -36.6363 -0.710 -0.630 0.314 134 67 77 0
-18.8911 27.8049 -36.5698 -0.694 -0.485 0.532 129 61 72 0
-17.9982 26.8525 -36.3469 -0.663 -0.516 0.542 126 58 68 0
-16.2976 25.5987 -36.0757 0.572 -0.686 0.450 121 49 60 0
-15.8898 25.7079 -36.1228 -0.625 -0.389 0.676 120 47 57 0
-11.5373 23.8265 -35.7920 0.434 -0.874 0.217 121 39 51 0
-11.4637 24.1963 -35.8963 0.510 -0.828 0.232 121 39 50 0
-11.2661 24.2533 -35.9203 -0.255 -0.897 -0.361 121 38 49 0
-10.7889 23.5929 -35.7598 0.232 -0.889 0.394 119 36 47 0
-10.5574 23.5585 -35.7601 0.187 -0.926 0.328 118 34 47 0
-7.3894 22.5756 -35.6251 0.272 -0.960 0.061 127 33 46 0
-7.1957 22.6291 -35.6480 0.272 -0.960 0.061 125 32 46 0
-7.0516 22.8219 -35.7068 0.116 -0.963 0.242 124 32 46 0
-4.2606 22.6966 -35.7906 0.502 -0.849 0.166 118 29 43 0
-4.1435 22.9802 -35.8732 -0.048 -0.999 -0.011 116 28 42 0
-2.5335 23.1883 -35.9982 -0.328 -0.880 0.343 111 28 45 0
-0.9980 22.9217 -35.9902 0.484 -0.838 0.253 101 28 47 0
0.3115 24.1311 -36.3766 -0.157 -0.801 0.578 89 22 37 0
1.8083 23.9453 -36.3891 0.771 -0.542 0.335 78 16 30 0
2.2518 24.6105 -36.5899 -0.362 -0.889 0.281 75 15 27 0
2.3699 24.9530 -36.6886 -0.087 -0.992 0.095 76 16 28 0
3.3328 25.2300 -36.8052 0.173 -0.654 0.736 72 12 24 0
4.0005 25.0243 -36.7771 0.859 -0.267 0.436 71 12 24 0
5.2722 31.4146 -38.5799 0.779 -0.627 -0.003 60 7 15 0
5.7242 30.3061 -38.2956 0.774 -0.630 -0.064 60 9 16 0
7.2532 32.2229 -38.8849 0.892 -0.452 -0.012 61 22 21 0
7.4467 35.7361 -39.8546 0.745 -0.294 0.599 61 30 24 0
7.6561 35.7941 -39.8793 0.533 -0.349 0.771 63 33 24 0
7.8934 38.1292 -40.5285 0.766 -0.232 0.599 65 39 28 0
7.0886 43.8768 -42.0675 0.544 -0.679 0.493 65 42 29 0
7.9947 44.0608 -42.1562 0.703 -0.376 -0.603 63 46 33 0
8.7613 42.2791 -41.7010 0.851 -0.518 0.086 58 49 33 0
9.4788 45.0117 -42.4792 0.344 -0.858 0.381 53 81 44 0
9.9823 47.8863 -43.2873 -0.293 -0.546 0.785 53 91 46 0
10.7514 47.5179 -43.2190 -0.273 -0.125 0.954 55 98 50 0
11.8724 46.2586 -42.9217 0.030 -0.193 0.981 55 103 53 0
15.3409 26.7277 -37.7231 0.276 -0.666 -0.693 60 110 59 0
22.1697 55.2484 -45.8178 0.725 -0.662 0.188 198 190 180 0
34.2656 38.7534 -41.8149 0.598 -0.765 0.239 186 178 167 0
41.8525 28.8077 -39.4139 -0.430 -0.823 0.372 177 164 156 0
46.9358 51.8163 -45.9261 0.324 -0.610 0.723 168 158 148 0
47.2396 52.4887 -46.1230 0.687 -0.600 0.411 168 158 146 0
47.4986 52.8297 -46.2273 0.693 -0.596 0.406 170 159 147 0
49.2700 53.3919 -46.4560 -0.019 -0.983 -0.183 168 151 142 0
49.4802 53.3892 -46.4642 -0.019 -0.983 -0.183 108 98 93 0
49.6918 53.3965 -46.4752 0.026 -0.982 -0.185 51 50 50 0
50.5256 54.6548 -46.8548 -0.375 -0.898 -0.228 254 255 255 0
-53.4314 15.4858 -31.9576 0.428 -0.876 -0.224 255 255 255 0
-18.3960 27.1463 -36.6348 -0.680 -0.530 0.507 128 57 69 0
-17.9136 26.5867 -36.5007 -0.663 -0.509 0.548 128 57 69 0
-17.4845 26.1410 -36.3958 -0.663 -0.509 0.548 129 59 70 0
-16.3223 25.5797 -36.2897 0.539 -0.691 0.482 124 51 63 0
-15.6109 24.9850 -36.1555 -0.153 -0.762 0.629 122 47 57 0
-12.2413 24.4113 -36.1382 0.603 -0.728 0.327 120 38 50 0
-11.7161 24.2018 -36.1024 -0.110 -0.552 0.826 120 38 50 0
-9.5440 22.5376 -35.7345 -0.199 -0.971 0.135 126 38 52 0
-7.2017 22.5696 -35.8412 0.274 -0.958 0.087 122 31 44 0
-7.0869 22.8445 -35.9218 0.370 -0.913 0.171 123 32 47 0
-4.1640 22.9648 -36.0770 0.035 -0.998 -0.055 116 28 42 0
-3.9019 22.8050 -36.0440 -0.067 -0.995 0.068 116 28 42 0
-1.1100 23.2200 -36.2750 0.001 -1.000 -0.022 100 27 46 0
-0.0532 23.8702 -36.4983 0.079 -0.865 0.495 91 23 38 0
0.0908 24.0954 -36.5664 -0.107 -0.937 0.333 89 21 36 0
1.1152 24.9058 -36.8325 0.195 -0.799 0.569 80 18 33 0
1.4945 24.2655 -36.6719 0.452 -0.849 0.273 79 17 32 0
1.6958 24.2852 -36.6857 -0.089 -0.877 0.472 78 16 31 0
1.9501 24.1034 -36.6463 -0.027 -0.849 0.527 76 14 28 0
2.2379 24.5792 -36.7894 0.009 -0.941 -0.337 74 14 26 0
2.6276 24.6681 -36.8302 -0.012 -0.961 -0.276 74 14 26 0
2.9057 24.3839 -36.7635 0.333 -0.925 0.182 73 13 25 0
2.9694 24.9465 -36.9212 0.262 -0.789 0.556 74 14 26 0
3.6435 25.5597 -37.1183 0.641 -0.515 0.569 72 12 24 0
7.5669 34.9937 -39.8821 0.972 -0.099 0.213 62 30 24 0
7.7099 35.4004 -40.0001 0.519 -0.334 0.787 62 33 23 0
7.7649 37.4975 -40.5803 0.510 -0.520 0.685 65 37 26 0
7.1383 43.4843 -42.2040 0.452 -0.610 0.651 63 39 27 0
9.4592 45.0126 -42.7221 0.339 -0.848 0.406 51 82 42 0
11.2941 46.9029 -43.3197 -0.241 -0.131 0.962 55 101 51 0
21.9516 54.5775 -45.8800 0.825 -0.439 0.355 197 189 179 0
22.1793 54.7942 -45.9492 0.751 -0.652 0.107 199 192 182 0
22.3994 55.1752 -46.0634 0.744 -0.575 0.340 197 190 180 0
22.6255 55.4538 -46.1496 0.311 -0.933 -0.180 196 189 179 0
22.8422 55.9569 -46.2973 0.668 -0.617 0.416 198 190 180 0
29.5016 61.1433 -48.0048 0.992 -0.073 -0.099 191 184 171 0
34.1901 18.8605 -36.5485 0.643 0.034 0.765 186 178 166 0
36.0364 21.7971 -37.4348 0.842 0.008 0.539 186 175 160 0
36.3229 23.4432 -37.9005 0.855 -0.003 0.519 186 175 162 0
37.2267 28.5362 -39.3418 0.812 0.041 0.583 183 175 164 0
46.8287 51.0480 -45.9467 0.493 -0.678 0.546 168 158 149 0
47.0507 51.1419 -45.9818 0.475 -0.676 0.564 167 157 147 0
47.2652 51.1815 -46.0017 0.472 -0.669 0.574 168 157 146 0
49.4873 53.4360 -46.7159 -0.019 -0.983 -0.183 107 97 92 0
49.6975 53.4334 -46.7239 -0.019 -0.983 -0.183 51 50 51 0
49.9087 53.4382 -46.7341 -0.021 -0.983 -0.185 247 247 244 0
50.5124 54.5718 -47.0717 -0.386 -0.894 -0.227 254 255 255 0
-17.9098 26.5020 -36.7005 -0.711 -0.491 0.503 130 59 73 0
-15.6537 25.0088 -36.3793 -0.088 -0.851 0.517 121 45 56 0
-11.7666 24.2533 -36.3300 0.172 -0.537 0.826 120 40 50 0
-7.0502 22.6648 -36.0839 0.398 -0.909 0.121 126 34 49 0
-4.1796 22.9344 -36.2771 0.746 -0.665 0.035 118 30 44 0
-3.9317 22.8182 -36.2551 0.056 -0.997 0.044 118 30 44 0
-1.2362 23.5656 -36.5737 -0.114 -0.991 -0.064 99 27 47 0
1.5305 24.0474 -36.8215 0.214 -0.976 -0.028 78 16 31 0
1.7162 24.1247 -36.8506 -0.009 -0.830 0.558 77 15 30 0
1.9447 24.0401 -36.8366 -0.013 -0.840 0.542 76 14 29 0
2.2806 24.3303 -36.9310 -0.032 -0.975 0.219 74 12 26 0
2.4636 24.4192 -36.9632 0.313 -0.921 0.231 73 13 25 0
3.4104 24.7441 -37.0924 0.005 -1.000 0.026 74 14 25 0
3.6445 24.6275 -37.0697 0.379 -0.913 -0.155 72 12 24 0
5.1513 27.9170 -38.0446 0.144 -0.408 0.902 67 11 20 0
6.1635 32.0972 -39.2463 0.878 -0.373 -0.299 59 17 19 0
7.6249 40.6560 -41.6813 0.839 -0.411 -0.358 63 40 27 0
9.4587 44.8930 -42.9326 0.328 -0.849 0.414 52 82 42 0
15.1915 61.6695 -47.8242 0.908 0.126 0.399 103 137 97 0
18.6923 56.1353 -46.4330 0.214 -0.082 0.973 194 189 177 0
29.4885 60.3612 -48.0510 0.978 -0.098 -0.182 191 183 170 0
46.9100 51.6475 -46.3520 0.321 -0.723 -0.612 169 159 150 0
47.3865 52.0498 -46.4833 0.043 -0.826 -0.561 166 156 146 0
47.3338 45.9957 -44.8013 0.379 -0.789 -0.484 170 156 145 0
49.4944 53.4829 -46.9679 -0.019 -0.983 -0.183 107 97 92 0
49.7047 53.4802 -46.9758 -0.019 -0.983 -0.183 50 50 51 0
-16.1254 26.0260 -36.8635 -0.559 -0.824 0.093 122 46 58 0
-15.8242 25.8566 -36.8284 -0.553 -0.833 -0.004 123 47 58 0
-4.1875 22.8802 -36.4710 -0.080 -0.994 0.080 117 29 43 0
-3.9316 22.7399 -36.4422 -0.015 -0.999 0.050 116 29 41 0
-2.0208 23.3194 -36.6819 0.168 -0.973 0.156 109 30 46 0
-0.3781 26.3452 -37.5941 -0.744 -0.668 0.019 86 20 33 0
2.1437 23.9818 -37.0366 0.070 -0.819 0.569 75 13 28 0
2.2744 24.2694 -37.1223 -0.008 -0.972 0.234 74 12 27 0
2.4160 24.5190 -37.1978 0.407 -0.717 0.565 73 12 26 0
2.6810 24.2890 -37.1443 0.391 -0.844 0.367 73 13 25 0
2.8970 24.2480 -37.1416 0.186 -0.981 0.052 73 13 25 0
3.2207 24.5941 -37.2515 0.455 -0.880 -0.137 77 18 29 0
3.4173 24.6301 -37.2696 0.016 -0.999 0.051 75 16 28 0
3.6313 24.5950 -37.2685 0.446 -0.891 -0.091 71 13 26 0
7.4355 45.5798 -43.2858 0.444 -0.811 -0.382 60 43 27 0
8.3198 48.8968 -44.2485 0.957 -0.138 0.255 54 75 40 0
18.6031 57.0985 -46.9586 0.285 -0.146 0.947 194 189 177 0
23.1377 54.1082 -46.3080 0.757 -0.342 0.558 196 189 179 0
25.7663 62.8869 -48.8675 0.684 -0.439 0.583 191 184 175 0
35.8139 49.4648 -45.5272 -0.326 -0.563 0.759 183 175 164 0
46.8420 51.1629 -46.4508 0.533 -0.481 -0.696 169 159 150 0
50.0859 53.2314 -47.1608 -0.328 -0.933 -0.149 254 255 255 0
-15.8985 25.9532 -37.0737 -0.507 -0.862 -0.027 124 50 59 0
-11.6046 23.6936 -36.6108 0.146 -0.635 0.759 119 35 45 0
-9.1897 23.6612 -36.6988 0.116 -0.919 0.377 126 34 47 0
-2.6100 23.7935 -37.0006 0.498 -0.778 -0.384 111 31 44 0
2.2580 24.2482 -37.3243 0.414 -0.698 0.584 75 13 28 0
2.4276 24.3892 -37.3708 0.407 -0.717 0.565 74 12 27 0
2.6491 24.3288 -37.3627 0.362 -0.803 0.474 74 12 27 0
2.9035 24.1374 -37.3190 0.152 -0.987 0.051 73 12 27 0
6.2176 32.6873 -39.8571 0.753 -0.460 -0.470 62 20 21 0
7.3557 45.9203 -43.6247 0.141 -0.989 -0.036 57 42 24 0
10.5949 41.8059 -42.5977 -0.346 -0.866 0.361 52 91 44 0
13.4617 42.4290 -42.8883 -0.035 -0.581 0.813 65 112 60 0
13.8344 41.2722 -42.5779 0.062 -0.322 0.945 65 113 59 0
15.0495 52.9171 -45.9020 0.931 0.075 0.356 76 124 73 0
15.1456 54.3265 -46.3022 0.920 0.076 0.385 79 127 76 0
21.3598 64.9377 -49.5366 -0.434 -0.723 0.537 197 188 181 0
29.4672 60.1662 -48.5206 0.973 -0.115 -0.200 191 183 170 0
38.4710 50.4923 -46.1618 0.942 -0.096 0.320 181 173 161 0
46.6023 70.5249 -52.1231 0.815 0.012 0.579 176 163 154 0
48.5750 52.9927 -47.2714 -0.277 -0.939 -0.202 172 154 142 0
50.0905 53.2595 -47.4073 -0.309 -0.932 -0.191 254 255 255 0
-27.1966 36.7002 -39.8899 -0.531 -0.802 0.272 224 214 204 0
-16.4451 25.0382 -37.0145 0.680 -0.730 0.064 130 54 69 0
-16.2237 26.1009 -37.3242 -0.577 -0.816 0.009 126 50 61 0
-15.6666 25.8681 -37.2803 -0.584 -0.810 0.055 127 52 62 0
-9.2402 23.7198 -36.9271 0.207 -0.451 0.868 124 32 47 0
-5.5238 22.3121 -36.6760 -0.148 -0.988 0.048 124 33 47 0
-5.3248 22.3470 -36.6938 -0.152 -0.987 0.060 121 32 46 0
-4.3652 21.3648 -36.4537 0.091 -0.995 -0.042 119 31 45 0
-3.9374 25.2389 -37.5677 0.930 0.096 0.356 109 25 38 0
0.7397 23.6685 -37.3087 0.237 -0.963 0.125 81 17 31 0
0.8990 23.8410 -37.3638 0.222 -0.969 0.113 79 16 30 0
1.1118 23.8191 -37.3661 0.256 -0.960 0.112 78 15 30 0
1.3475 23.7111 -37.3448 0.348 -0.932 0.099 79 17 32 0
2.2201 24.3090 -37.5488 -0.118 -0.975 0.186 75 13 28 0
2.4187 24.3388 -37.5651 0.510 -0.725 0.462 75 13 28 0
2.6150 24.3768 -37.5837 0.709 -0.668 0.226 75 13 28 0
2.8413 24.2969 -37.5700 0.190 -0.981 0.032 75 13 28 0
3.1210 28.2171 -38.6911 -0.349 -0.926 0.145 69 9 24 0
3.1963 28.7861 -38.8552 -0.178 -0.942 0.286 69 10 22 0
6.0470 31.3286 -39.6883 0.804 -0.249 -0.540 59 19 19 0
5.9832 32.6732 -40.0665 0.559 -0.416 -0.717 60 18 20 0
6.1503 32.9160 -40.1419 0.572 -0.401 -0.716 60 18 19 0
7.3306 41.9562 -42.7485 0.998 0.062 -0.022 65 41 24 0
8.3953 48.1822 -44.5536 0.759 -0.650 -0.044 52 78 39 0
8.7255 50.6904 -45.2769 0.861 -0.386 0.332 52 88 43 0
10.0062 47.0861 -44.3072 0.053 -0.958 0.281 52 92 45 0
11.5256 44.7428 -43.7040 0.602 -0.782 -0.161 60 104 51 0
12.3664 45.3925 -43.9213 0.790 -0.350 -0.504 64 108 57 0
14.0296 43.1892 -43.3635 0.730 -0.540 0.418 68 115 61 0
14.3183 42.6803 -43.2308 0.639 -0.557 0.531 69 116 62 0
14.5230 42.8591 -43.2896 0.639 -0.557 0.531 70 117 64 0
14.1411 50.0790 -45.3188 0.932 -0.254 -0.257 74 119 68 0
15.1018 52.2642 -45.9757 0.928 0.074 0.365 76 125 71 0
21.3540 64.7714 -49.7652 -0.434 -0.723 0.537 194 187 179 0
23.1395 53.4818 -46.6394 0.739 -0.307 0.599 194 187 177 0
23.3608 53.8293 -46.7466 0.702 -0.290 0.650 193 186 178 0
23.6162 53.3643 -46.6251 0.423 -0.254 0.870 193 186 178 0
39.3874 53.9766 -47.4244 0.962 -0.231 0.146 182 174 163 0
50.1021 53.3316 -47.6670 -0.305 -0.930 -0.206 254 255 255 0
-51.7494 15.5443 -33.1458 0.918 -0.274 -0.286 233 224 216 0
-9.3779 23.4314 -37.0535 0.478 -0.740 0.474 122 30 45 0
-5.1007 22.2302 -36.8786 -0.130 -0.983 0.126 119 31 45 0
-4.2619 22.8727 -37.0946 -0.138 -0.985 -0.101 113 25 39 0
-3.8808 24.3109 -37.5195 0.889 -0.253 0.382 109 25 37 0
-4.2111 28.0976 -38.5860 0.901 0.150 0.408 108 27 41 0
0.8256 23.2760 -37.4088 0.633 -0.496 0.594 83 19 33 0
0.7212 24.4054 -37.7267 0.051 -0.992 0.112 82 18 32 0
0.9449 24.3480 -37.7191 0.170 -0.972 0.161 81 17 31 0
1.2279 24.0700 -37.6509 -0.041 -0.982 0.186 81 17 31 0
1.7596 23.6273 -37.5455 -0.269 -0.953 0.139 74 12 27 0
1.8456 24.0792 -37.6777 0.332 -0.877 0.348 74 12 27 0
2.2651 24.0520 -37.6864 0.055 -0.998 0.023 75 13 28 0
2.4508 24.1299 -37.7159 0.810 -0.585 0.034 75 13 28 0
2.7519 24.5626 -37.8510 0.555 -0.805 0.212 74 12 27 0
3.1188 28.1364 -38.8841 -0.328 -0.933 0.149 69 8 24 0
3.4190 27.7700 -38.7914 0.232 -0.964 -0.131 70 9 23 0
7.2439 41.0448 -42.7252 0.986 -0.131 -0.102 68 41 24 0
8.3552 48.3039 -44.8380 0.763 -0.632 -0.132 51 78 38 0
10.0232 46.8458 -44.4877 0.129 -0.936 0.328 53 93 45 0
11.5036 44.7690 -43.9536 0.584 -0.792 -0.174 60 104 51 0
12.4526 46.3637 -44.4454 0.690 -0.410 -0.597 66 110 58 0
12.6761 50.1388 -45.5302 0.904 -0.377 -0.201 70 115 60 0
14.4021 58.6838 -48.0336 -0.483 -0.823 0.299 79 126 72 0
15.4118 56.2155 -47.3695 0.936 0.077 0.342 86 130 77 0
15.6494 61.5433 -48.8975 0.843 0.085 0.531 117 143 106 0
35.9883 49.0347 -46.1285 -0.260 -0.697 0.668 182 173 164 0
46.8466 70.5782 -52.6948 0.906 -0.175 0.385 180 168 156 0
47.1025 70.6801 -52.7338 0.684 -0.204 0.700 178 166 155 0
47.3409 70.6398 -52.7317 0.689 -0.194 0.698 179 167 155 0
49.5227 53.6711 -47.9802 -0.019 -0.983 -0.183 109 100 94 0
49.7338 53.6683 -47.9876 -0.019 -0.983 -0.183 50 50 51 0
50.5542 54.8255 -48.3496 -0.434 -0.847 -0.308 254 255 255 0
-54.0820 17.0001 -33.6944 0.834 -0.457 -0.310 227 219 214 0
-26.5670 36.3038 -40.2968 -0.333 -0.933 -0.140 221 211 202 0
-26.2526 36.1863 -40.2752 -0.365 -0.919 -0.146 220 207 198 0
-25.6341 35.9680 -40.2365 -0.493 -0.858 -0.143 194 173 167 0
-19.9450 27.5180 -38.0316 -0.298 -0.923 -0.242 140 82 92 0
-13.4067 24.6343 -37.4567 -0.141 -0.798 -0.586 122 39 54 0
-8.6720 23.7909 -37.3977 0.084 -0.884 -0.460 126 34 50 0
-8.4711 23.8347 -37.4180 0.109 -0.884 -0.454 126 35 49 0
-8.1775 25.4346 -37.8884 0.856 -0.069 0.512 123 32 45 0
-4.6766 22.7731 -37.2600 -0.057 -0.994 -0.097 116 28 43 0
-3.7024 25.0118 -37.9400 0.903 0.109 0.416 109 26 40 0
0.8552 24.5931 -37.9960 -0.421 -0.874 0.244 79 15 28 0
1.8726 23.8933 -37.8345 0.137 -0.955 0.264 76 12 27 0
2.2582 23.9940 -37.8783 0.322 -0.896 0.307 75 13 27 0
3.3590 27.9295 -39.0501 0.247 -0.963 0.105 71 9 23 0
5.5963 28.2842 -39.2383 0.626 -0.556 0.547 63 12 20 0
5.2918 31.6489 -40.1921 0.395 -0.453 -0.799 62 14 20 0
7.2003 41.1722 -42.9986 0.999 -0.046 -0.015 68 40 23 0
8.1530 47.9377 -44.9767 -0.065 -0.988 -0.143 49 74 34 0
8.3939 47.9412 -44.9870 -0.311 -0.940 0.142 50 78 37 0
12.5750 47.0835 -44.9025 0.920 -0.292 -0.263 68 113 57 0
13.6654 45.8701 -44.5964 0.759 -0.248 0.602 74 118 62 0
13.9164 45.7164 -44.5620 0.744 -0.314 0.590 75 120 65 0
14.2226 45.0947 -44.3955 0.568 -0.431 0.701 77 122 68 0
14.5291 44.4480 -44.2217 0.713 -0.363 0.600 78 121 70 0
16.1833 55.7623 -47.5323 0.920 0.158 0.358 104 133 91 0
46.6443 68.9121 -52.4827 0.807 -0.262 0.530 181 170 157 0
48.4562 69.9080 -52.8384 0.964 -0.266 -0.022 173 162 153 0
49.5289 53.7122 -48.2324 -0.010 -0.983 -0.185 107 99 93 0
49.7404 53.7115 -48.2404 -0.010 -0.983 -0.185 51 50 51 0
-54.2406 16.8206 -33.8617 0.827 -0.475 -0.299 67 65 63 0
-26.3487 36.3033 -40.5524 -0.382 -0.914 -0.134 219 208 198 0
-15.1826 25.5718 -37.8782 -0.465 -0.879 -0.103 124 45 57 0
-5.9929 23.4479 -37.6149 0.019 -0.900 0.435 123 30 48 0
-5.7305 23.3049 -37.5836 0.020 -0.880 0.474 125 32 50 0
-5.4652 23.1511 -37.5493 -0.017 -0.954 0.300 123 31 48 0
-5.2623 23.1795 -37.5653 0.516 -0.856 -0.034 120 30 46 0
-5.0860 23.2874 -37.6031 0.516 -0.856 -0.034 118 30 46 0
-3.6364 22.0853 -37.3112 -0.676 -0.702 0.226 110 26 39 0
-3.9780 23.7925 -37.7913 0.807 -0.286 0.517 110 26 41 0
-3.6068 24.6287 -38.0469 0.903 0.109 0.416 110 28 42 0
0.6466 23.0146 -37.7428 0.556 -0.799 0.231 81 18 29 0
1.0039 23.9652 -38.0310 0.192 -0.870 0.454 80 16 27 0
1.2140 23.9545 -38.0359 0.141 -0.937 0.321 77 14 24 0
1.4161 23.9725 -38.0489 0.120 -0.939 0.324 78 15 26 0
2.9489 27.7847 -39.2084 -0.081 -0.994 0.076 68 6 21 0
3.3963 27.6849 -39.1967 0.216 -0.974 0.073 71 8 22 0
4.7124 33.2231 -40.8465 0.254 -0.643 -0.723 62 12 21 0
5.0988 32.4481 -40.6374 -0.790 -0.418 0.449 61 14 20 0
4.9599 34.1194 -41.1149 -0.818 -0.477 0.321 61 15 19 0
5.2415 33.8317 -41.0425 -0.745 -0.458 0.486 61 17 19 0
5.7073 32.6582 -40.7213 0.735 -0.387 -0.556 63 19 19 0
5.7357 33.5691 -40.9855 0.739 -0.406 -0.538 64 20 20 0
7.1935 41.0973 -43.2156 0.999 -0.046 -0.015 70 41 23 0
7.2162 43.5545 -43.9262 0.998 0.047 -0.043 66 44 26 0
8.5827 48.1418 -45.3034 -0.089 -0.980 -0.179 50 82 39 0
16.8800 39.1919 -43.0344 -0.300 -0.696 0.652 90 131 71 0
26.8945 38.3361 -43.1689 0.358 -0.892 -0.275 189 181 170 0
47.5433 66.5611 -52.1088 0.964 -0.266 -0.005 173 163 154 0
43.6938 25.8950 -40.2155 0.849 -0.032 0.527 174 161 153 0
44.1638 28.0093 -40.8442 0.849 -0.032 0.527 173 160 152 0
49.3243 53.7612 -48.4794 0.010 -0.982 -0.191 165 152 141 0
49.5361 53.7600 -48.4871 -0.010 -0.983 -0.185 106 98 92 0
49.7478 53.7593 -48.4950 -0.010 -0.983 -0.185 50 50 51 0
-54.3133 16.8370 -34.0889 0.827 -0.475 -0.299 67 65 63 0
-17.6985 27.0561 -38.4364 -0.024 -0.665 -0.746 131 58 71 0
-8.4422 23.6019 -37.7800 0.339 -0.759 0.555 123 35 48 0
-4.0636 22.6753 -37.6752 0.738 -0.624 0.256 108 25 38 0
-3.5874 24.4871 -38.2199 0.393 -0.490 0.778 112 31 45 0
0.3586 23.2237 -38.0008 0.230 -0.747 0.624 78 15 26 0
1.4003 23.9477 -38.2505 0.406 -0.868 -0.286 82 16 27 0
1.5914 24.0065 -38.2748 0.456 -0.818 -0.350 82 16 29 0
2.4894 23.7274 -38.2274 0.409 -0.870 0.276 75 12 25 0
4.2713 35.1533 -41.6165 0.632 -0.050 0.774 63 13 22 0
4.4890 35.1797 -41.6324 -0.501 -0.435 0.748 62 15 21 0
5.8327 34.0620 -41.3579 0.830 -0.324 -0.453 63 22 19 0
7.0480 44.3807 -44.4038 0.998 0.032 -0.055 65 45 23 0
10.8799 47.0947 -45.3370 0.792 -0.425 0.438 65 105 49 0
11.1364 46.9610 -45.3077 0.748 -0.654 0.116 65 107 54 0
16.9151 38.7038 -43.1241 -0.307 -0.693 0.652 102 129 65 0
16.7321 52.1915 -47.0389 0.937 0.158 0.312 117 138 96 0
27.0569 40.4375 -44.0094 -0.021 -0.993 -0.120 189 180 171 0
30.1786 22.4711 -38.9029 0.828 -0.474 -0.300 188 179 169 0
35.2248 22.8958 -39.2161 0.829 -0.552 0.086 181 171 161 0
46.7086 63.6763 -51.5049 0.964 -0.258 0.063 180 168 156 0
49.3308 53.8055 -48.7335 0.015 -0.983 -0.182 165 153 140 0
49.5433 53.8079 -48.7422 -0.010 -0.983 -0.185 106 99 92 0
49.7552 53.8072 -48.7499 -0.010 -0.983 -0.185 50 50 51 0
-54.3813 16.8480 -34.3150 0.823 -0.485 -0.296 68 66 64 0
-18.3441 25.8323 -38.2799 0.401 -0.905 -0.141 135 70 80 0
-8.3409 23.8408 -38.0678 0.394 -0.582 0.711 120 32 44 0
-3.8957 23.3791 -38.0974 0.774 -0.631 -0.050 107 25 39 0
3.8861 35.7898 -42.0180 0.839 0.149 0.523 63 12 21 0
5.7531 34.3477 -41.6651 0.865 -0.313 -0.392 66 25 21 0
5.9773 34.3300 -41.6683 0.863 -0.496 0.093 65 27 20 0
6.7491 44.6082 -44.7049 -0.144 -0.980 0.134 66 44 21 0
7.0363 44.3297 -44.6340 -0.064 -0.936 -0.345 60 42 18 0
10.3084 42.9394 -44.3484 0.561 -0.828 -0.003 56 94 47 0
11.0118 47.7042 -45.7690 0.369 -0.896 -0.246 68 109 53 0
19.6121 48.6471 -46.3637 0.007 -0.994 -0.113 192 186 173 0
25.7450 60.1001 -49.9428 -0.569 -0.822 -0.009 191 182 172 0
29.6625 25.3231 -39.9101 0.879 -0.477 -0.007 188 180 169 0
46.7408 62.1118 -51.3097 0.883 -0.092 0.460 177 164 154 0
49.5505 53.8556 -48.9976 0.006 -0.982 -0.191 106 99 92 0
49.7632 53.8586 -49.0063 0.006 -0.982 -0.191 50 50 51 0
-54.4596 16.8708 -34.5445 0.824 -0.483 -0.295 68 66 64 0
-25.9903 31.7076 -39.9551 0.765 -0.644 0.014 228 219 212 0
-25.9915 32.2128 -40.1038 0.788 -0.598 0.144 228 219 212 0
-18.4992 26.6114 -38.7276 0.762 -0.593 -0.261 135 69 80 0
-18.0316 26.0892 -38.5908 0.848 -0.467 -0.251 135 67 78 0
-14.0324 25.3008 -38.5047 0.280 -0.738 0.614 121 43 55 0
-4.2968 23.8826 -38.4426 0.785 -0.617 -0.064 106 26 39 0
-2.5677 22.4268 -38.0770 0.230 -0.937 -0.264 103 25 39 0
0.1570 23.7752 -38.5737 0.701 -0.691 -0.177 80 17 27 0
3.4788 27.0749 -39.6671 -0.456 -0.810 0.368 73 12 25 0
3.6904 27.9534 -39.9336 0.511 -0.835 0.204 70 12 23 0
3.6004 29.2330 -40.3072 0.525 -0.814 0.248 68 12 21 0
5.7001 33.4411 -41.6235 0.764 -0.644 -0.027 67 25 22 0
5.8530 33.7624 -41.7237 0.722 -0.673 0.162 66 27 20 0
5.8600 34.8035 -42.0307 0.853 -0.303 -0.426 66 29 20 0
6.6410 45.0896 -45.0892 -0.220 -0.920 0.323 61 43 19 0
6.9969 44.4336 -44.9089 -0.064 -0.936 -0.345 57 43 17 0
8.1904 45.7777 -45.3485 0.663 -0.748 0.041 55 75 34 0
11.1283 48.4384 -46.2396 0.628 -0.776 0.062 77 112 50 0
19.6150 48.4116 -46.5417 -0.543 -0.794 0.272 192 186 172 0
25.7422 59.7012 -50.0911 -0.550 -0.828 -0.111 191 182 173 0
47.8343 65.2250 -52.5254 0.859 -0.041 0.511 175 162 153 0
49.5581 53.9055 -49.2540 0.006 -0.982 -0.191 105 99 92 0
49.7709 53.9085 -49.2627 0.006 -0.982 -0.191 50 50 50 0
-27.5095 31.6576 -40.1248 0.108 -0.991 0.073 232 225 217 0
-26.7913 30.7438 -39.8797 0.001 -0.896 -0.444 231 224 214 0
-26.6338 30.9239 -39.9388 0.147 -0.963 -0.226 230 223 213 0
-18.5607 26.6710 -38.9686 0.488 -0.808 -0.329 137 71 83 0
-18.1986 26.3842 -38.8966 0.883 -0.427 -0.198 135 66 77 0
-17.9309 26.3049 -38.8827 0.616 -0.766 -0.184 137 66 77 0
-17.8079 26.5491 -38.9596 0.531 -0.843 -0.082 131 61 73 0
-17.5765 26.5505 -38.9683 0.551 -0.802 -0.230 129 59 69 0
-13.9467 25.0178 -38.6446 0.396 -0.754 0.523 122 46 56 0
-9.3808 22.9821 -38.2055 0.544 -0.659 0.520 125 37 52 0
-8.0290 21.6673 -37.8643 0.006 -0.760 0.650 124 37 51 0
-7.8390 21.7302 -37.8898 0.359 -0.577 0.733 125 38 50 0
-7.2533 23.0664 -38.3071 0.431 -0.850 -0.301 129 36 50 0
-6.8940 23.2641 -38.3786 0.430 -0.830 -0.356 135 41 56 0
-6.7172 23.3722 -38.4170 0.430 -0.830 -0.356 131 39 52 0
-3.3256 23.4207 -38.5536 0.759 -0.606 0.238 104 26 39 0
-2.2946 22.8129 -38.4105 0.184 -0.933 -0.309 100 23 39 0
0.1082 23.8655 -38.8091 0.202 -0.939 -0.280 81 18 28 0
1.8857 28.2735 -40.1799 0.225 -0.707 0.671 71 12 26 0
3.9849 26.6249 -39.7667 0.740 -0.589 0.325 70 11 22 0
3.5845 29.2088 -40.5184 0.514 -0.822 0.245 67 11 20 0
3.9306 32.4025 -41.4777 0.596 0.016 0.803 65 12 20 0
6.6302 45.0328 -45.3195 -0.222 -0.920 0.323 60 45 20 0
6.9635 44.5041 -45.1748 -0.013 -0.999 -0.032 55 44 18 0
7.3600 44.9478 -45.3206 0.634 -0.767 -0.100 52 53 24 0
15.7666 44.9420 -45.6216 0.978 0.038 0.205 212 191 80 0
17.1421 44.9020 -45.6593 0.994 0.075 0.084 186 178 103 0
25.7355 59.4709 -50.2880 -0.434 -0.840 -0.324 191 182 172 0
30.1627 22.9303 -39.6140 0.652 -0.515 -0.557 187 179 168 0
47.5987 63.4430 -52.2529 0.895 -0.058 0.441 176 163 154 0
-26.7709 31.1152 -40.2293 0.117 -0.968 -0.223 231 223 215 0
-25.2814 32.1372 -40.5871 0.501 -0.765 0.404 224 213 204 0
-18.8514 27.2368 -39.3531 -0.376 -0.897 -0.232 138 73 83 0
-18.1840 26.2756 -39.0899 0.098 -0.882 -0.461 138 71 81 0
-17.8777 26.1099 -39.0514 0.338 -0.941 -0.019 140 72 83 0
-17.7018 26.2345 -39.0948 0.600 -0.601 0.528 135 66 76 0
-17.4875 26.2734 -39.1140 0.489 -0.868 0.084 132 62 70 0
-16.3571 26.3281 -39.1704 -0.289 -0.667 0.687 130 54 68 0
-14.1018 24.7729 -38.7864 0.377 -0.796 0.474 125 47 59 0
-12.3531 25.4470 -39.0496 0.301 -0.952 0.052 124 38 51 0
-8.0523 21.6548 -38.0706 0.059 -0.785 0.616 121 33 46 0
0.0653 23.9349 -39.0390 0.086 -0.948 -0.305 79 16 29 0
6.4630 38.3379 -43.5636 0.716 -0.624 -0.313 72 42 21 0
7.5260 45.2423 -45.6616 0.171 -0.976 -0.134 56 63 30 0
12.1108 51.6505 -47.7363 0.963 -0.120 0.242 189 168 60 0
16.3268 43.8026 -45.5442 0.718 -0.363 -0.594 201 184 73 0
18.0989 49.5054 -47.3087 -0.719 -0.684 0.123 190 179 131 0
19.6185 47.9754 -46.9061 0.495 -0.855 -0.153 193 186 169 0
19.8062 48.5718 -47.0907 0.746 -0.665 0.035 192 186 172 0
34.6130 53.5350 -49.0970 0.656 -0.234 0.718 185 175 164 0
34.8587 53.9815 -49.2390 0.521 -0.359 0.774 186 175 166 0
48.3756 67.5684 -53.7727 0.933 -0.332 0.136 176 163 154 0
-27.1390 31.2675 -40.5012 0.094 -0.995 0.019 233 226 219 0
-27.0380 31.5613 -40.5930 0.003 -0.952 0.306 231 224 217 0
-26.1037 32.2000 -40.8174 0.679 -0.734 0.015 226 218 209 0
-25.5587 32.1127 -40.8102 0.549 -0.713 0.436 224 216 206 0
-25.2698 32.0341 -40.7967 0.501 -0.765 0.404 223 215 205 0
-17.8658 26.0072 -39.2456 0.397 -0.918 -0.021 137 71 81 0
-17.6631 26.0717 -39.2721 0.564 -0.727 0.391 133 65 76 0
-17.1484 25.4333 -39.0984 0.529 -0.693 0.490 133 64 73 0
-17.7931 27.9439 -39.8298 -0.558 -0.746 -0.364 131 59 72 0
-15.7609 24.3521 -38.8222 0.321 -0.417 0.850 128 54 69 0
-16.7224 27.0950 -39.6123 -0.746 -0.661 0.082 129 55 70 0
-12.2853 25.1996 -39.1981 0.069 -0.952 0.298 123 39 50 0
-2.4606 22.5151 -38.7354 0.586 -0.810 -0.038 99 23 35 0
-2.2801 22.6069 -38.7693 0.440 -0.883 -0.161 100 25 37 0
-0.0376 23.4809 -39.1101 0.432 -0.901 0.019 78 16 29 0
0.0783 23.8064 -39.2119 0.040 -0.949 -0.312 79 17 30 0
1.8882 28.0863 -40.5604 0.220 -0.608 0.763 70 11 20 0
6.2398 46.9528 -46.3781 0.193 -0.740 0.645 59 44 18 0
6.4624 47.0638 -46.4192 0.192 -0.744 0.640 55 46 17 0
7.1395 44.6151 -45.7075 0.567 -0.775 -0.279 53 50 20 0
7.3219 44.9292 -45.8082 -0.136 -0.988 -0.078 55 59 27 0
7.7808 45.0260 -45.8534 0.095 -0.974 -0.205 58 71 35 0
7.2688 52.4017 -48.0504 0.867 -0.384 -0.318 55 82 40 0
7.3529 53.4193 -48.3589 0.873 -0.425 -0.239 58 84 41 0
10.3594 45.1683 -45.9862 0.816 -0.578 0.028 107 121 51 0
10.9555 50.9964 -47.7572 0.811 -0.503 -0.300 174 158 53 0
11.1832 51.1209 -47.8026 0.963 -0.262 0.071 180 160 55 0
11.3260 51.8738 -48.0337 0.979 -0.205 0.012 183 160 56 0
11.4772 52.5834 -48.2520 0.979 -0.205 0.012 186 163 57 0
11.7083 52.7041 -48.2964 0.905 -0.412 -0.103 187 164 57 0
13.8995 43.0058 -45.4606 -0.691 -0.418 0.590 197 177 61 0
14.8857 42.3546 -45.2995 -0.443 -0.550 0.708 203 183 53 0
15.2086 43.4904 -45.6518 0.340 -0.721 -0.604 205 187 53 0
15.4253 43.5863 -45.6882 0.346 -0.713 -0.609 206 187 59 0
17.6221 52.1039 -48.3228 -0.689 -0.656 -0.308 188 174 101 0
19.1330 48.0862 -47.1691 -0.512 -0.856 -0.068 195 185 154 0
19.6110 47.8824 -47.1246 0.540 -0.800 -0.261 192 185 165 0
19.8677 47.5239 -47.0259 0.386 -0.644 -0.660 191 184 168 0
20.0214 48.6028 -47.3553 0.745 -0.665 0.061 191 185 172 0
25.9499 59.7612 -50.9134 -0.465 -0.885 0.033 189 180 172 0
35.4602 57.2434 -50.4897 0.381 0.050 0.923 182 172 162 0
-27.0769 31.5587 -40.8310 0.254 -0.966 -0.044 232 225 219 0
