ply
format ascii 1.0
element vertex 838
property float x
property float y
property float z
property float nx
property float ny
property float nz
property uchar diffuse_red
property uchar diffuse_green
property uchar diffuse_blue
property uchar class
end_header
28.1963 31.8712 -40.7427 0.909 -0.256 -0.329 193 183 171 0
28.3876 31.6435 -40.6898 0.910 -0.410 -0.062 193 183 171 0
29.9116 62.1619 -49.2640 0.944 -0.291 0.157 190 181 166 0
37.5493 34.7519 -42.0546 0.264 -0.852 0.451 182 172 162 0
41.3126 34.6961 -42.2444 0.108 -0.868 0.485 181 170 157 0
48.8307 53.7039 -47.9431 0.758 -0.640 -0.127 166 153 144 0
49.9946 54.2864 -48.1686 -0.002 -0.945 -0.327 246 246 243 0
-54.7665 16.9299 -32.2817 0.126 -0.978 -0.166 255 255 255 0
-52.0723 15.8129 -32.1145 0.349 -0.606 0.715 231 224 215 0
-51.5918 15.5336 -32.0623 0.337 -0.738 0.585 231 224 215 0
-31.8278 42.8152 -40.7731 -0.144 -0.962 0.232 231 222 213 0
-30.2657 42.3771 -40.7349 -0.470 -0.522 0.712 226 217 208 0
-15.6299 25.4941 -36.7968 0.095 -0.379 0.921 124 46 59 0
-15.1393 24.8446 -36.6414 0.430 -0.870 0.241 127 47 60 0
-14.8476 24.6761 -36.6100 0.422 -0.870 0.257 127 46 59 0
-8.7481 22.9738 -36.4629 0.601 -0.753 0.267 128 33 49 0
-7.3457 23.2307 -36.6107 -0.039 -0.882 0.469 121 29 44 0
-7.2956 23.7120 -36.7483 0.623 -0.760 0.184 120 28 43 0
-3.1527 22.5916 -36.6584 -0.191 -0.977 -0.097 108 26 41 0
-2.8834 22.3833 -36.6146 0.153 -0.988 -0.012 110 27 43 0
-2.8260 22.8871 -36.7588 0.292 -0.956 0.010 115 32 48 0
-2.5596 22.6863 -36.7170 0.131 -0.977 0.168 113 31 47 0
-2.3139 25.4549 -37.5058 0.454 -0.354 0.818 103 25 44 0
1.2168 23.1468 -37.0502 0.256 -0.533 0.806 77 15 32 0
3.4999 25.5716 -37.8529 0.492 -0.854 -0.172 68 9 22 0
5.6078 30.4013 -39.3198 0.560 -0.737 0.377 63 17 22 0
5.8784 30.1046 -39.2513 -0.177 -0.821 0.543 62 16 21 0
6.4239 30.5678 -39.4105 0.097 -0.934 0.343 60 19 18 0
7.0293 38.0209 -41.5311 0.964 -0.085 0.252 65 39 21 0
7.5728 37.4597 -41.4032 0.949 -0.117 -0.292 70 45 24 0
7.5035 40.5621 -42.2686 0.996 0.088 0.030 67 42 21 0
7.6164 45.6099 -43.6887 0.722 -0.614 -0.320 57 48 22 0
8.2236 46.2861 -43.9109 0.744 -0.627 -0.230 57 67 35 0
8.9426 46.2393 -43.9367 0.653 -0.525 0.546 53 80 40 0
9.4672 54.6826 -46.3303 -0.239 -0.612 0.754 55 98 48 0
9.7884 54.1510 -46.1987 0.070 -0.560 0.826 54 99 50 0
10.0548 54.0242 -46.1776 0.168 -0.591 0.789 56 100 51 0
10.3511 53.6577 -46.0910 -0.072 -0.682 0.728 59 103 54 0
10.2979 58.0838 -47.3279 0.110 -0.123 0.986 61 105 57 0
17.8071 59.1815 -48.0414 -0.387 -0.400 0.831 194 186 173 0
27.7933 30.8267 -40.6385 0.676 -0.701 0.226 192 182 170 0
49.9968 54.3135 -48.4182 -0.011 -0.940 -0.341 247 247 244 0
50.2095 54.3089 -48.4284 -0.014 -0.943 -0.333 254 255 254 0
-55.1427 19.0990 -33.0965 0.562 -0.650 -0.512 229 222 213 0
-51.9968 15.6542 -32.2935 0.338 -0.609 0.717 231 223 213 0
-34.1561 11.5195 -32.0831 0.411 -0.825 -0.388 231 222 215 0
-15.9478 25.0931 -36.8867 0.330 -0.647 0.687 125 48 61 0
-15.3686 25.3216 -36.9822 0.326 -0.613 0.720 124 45 58 0
-14.9150 24.7590 -36.8478 0.408 -0.885 0.225 125 45 58 0
-7.3467 23.1479 -36.7989 -0.058 -0.875 0.481 122 30 45 0
-7.3091 23.6657 -36.9469 0.648 -0.745 0.161 122 29 45 0
-7.1028 23.6867 -36.9639 0.622 -0.765 0.168 122 29 44 0
-2.9647 22.5672 -36.8698 0.176 -0.979 -0.098 109 26 42 0
-2.7999 22.7100 -36.9189 0.168 -0.986 -0.010 111 28 44 0
-2.5525 22.5731 -36.8936 0.063 -0.992 0.105 111 29 44 0
-0.9899 24.3784 -37.4864 -0.519 -0.833 0.194 91 20 37 0
1.1943 23.9429 -37.4806 -0.361 -0.905 0.225 79 17 33 0
2.1118 24.3829 -37.6539 0.886 -0.453 0.101 75 13 28 0
2.4388 24.7299 -37.7692 0.788 -0.440 0.430 73 13 27 0
3.0863 25.4765 -38.0145 -0.049 -0.918 0.395 71 10 25 0
3.2917 25.4802 -38.0265 0.323 -0.943 0.083 71 11 25 0
3.4918 25.5058 -38.0445 0.380 -0.920 0.093 68 9 22 0
6.5850 36.6145 -41.3431 0.819 -0.437 -0.372 65 33 21 0
7.0160 37.9688 -41.7482 0.973 -0.111 0.203 66 41 19 0
7.5275 37.5970 -41.6707 0.829 -0.212 -0.517 72 48 25 0
7.2823 43.1650 -43.2279 0.995 0.090 0.039 67 43 21 0
7.5944 45.6054 -43.9329 0.717 -0.608 -0.340 55 47 20 0
7.7879 45.8836 -44.0217 0.717 -0.608 -0.340 53 51 24 0
8.9438 46.0803 -44.1391 0.665 -0.528 0.528 52 80 39 0
9.5210 54.1116 -46.4351 -0.391 -0.679 0.622 56 98 49 0
9.8159 53.7730 -46.3554 0.066 -0.571 0.819 56 100 51 0
10.3565 53.4432 -46.2914 -0.072 -0.682 0.728 59 103 55 0
15.5089 56.3600 -47.3900 0.920 0.121 0.373 91 133 84 0
35.8550 64.5497 -50.7897 0.541 -0.725 0.426 186 176 166 0
41.2238 34.0494 -42.4753 0.394 -0.841 -0.370 178 169 154 0
41.4679 34.5172 -42.6204 0.781 -0.613 -0.122 179 169 157 0
45.1086 39.0141 -44.0836 0.314 -0.828 0.465 173 161 149 0
50.4394 54.4177 -48.7135 -0.012 -0.950 -0.312 254 255 255 0
50.5522 53.8438 -48.5577 -0.064 -0.971 -0.231 255 255 255 0
-51.8039 15.6501 -32.5221 0.159 -0.641 0.751 232 224 216 0
-32.1401 42.7117 -41.2494 -0.488 -0.853 0.185 231 222 213 0
-9.2095 22.9002 -36.8413 0.747 -0.635 0.195 120 29 44 0
-6.4591 23.5847 -37.1816 0.204 -0.809 0.552 124 32 47 0
-3.2669 22.7946 -37.1266 0.088 -0.992 -0.094 106 23 38 0
-3.0460 22.7508 -37.1259 0.102 -0.990 -0.095 108 25 41 0
1.1802 23.9032 -37.6774 -0.062 -0.865 0.498 78 16 31 0
2.6852 25.3267 -38.1615 0.009 -0.813 0.582 72 11 26 0
2.8983 25.2979 -38.1646 0.020 -0.818 0.575 72 12 27 0
3.1050 25.2958 -38.1750 0.020 -0.818 0.575 70 12 26 0
3.3114 25.2937 -38.1853 0.020 -0.818 0.575 69 10 24 0
3.5188 25.2868 -38.1944 0.243 -0.940 0.241 67 8 21 0
6.5583 36.6377 -41.5786 0.781 -0.498 -0.378 67 35 21 0
7.4252 38.0693 -42.0311 0.875 -0.170 -0.453 74 50 26 0
7.4455 39.2814 -42.3763 0.893 -0.147 -0.425 72 48 24 0
7.5422 45.7910 -44.2298 0.621 -0.639 -0.455 54 48 21 0
7.7267 46.1293 -44.3356 0.617 -0.641 -0.456 53 53 25 0
7.9261 46.3792 -44.4171 0.617 -0.641 -0.456 57 66 33 0
9.4962 54.1280 -46.7006 0.480 -0.768 0.425 58 97 49 0
9.9070 54.8166 -46.9179 0.650 -0.681 0.338 59 103 51 0
14.8549 45.2775 -44.4720 -0.043 -0.145 0.988 86 125 70 0
15.8464 58.0291 -48.1453 0.930 0.147 0.338 118 142 103 0
41.0947 34.5556 -42.8204 0.739 -0.491 0.462 181 170 156 0
41.3628 35.2159 -43.0221 0.762 -0.503 0.408 179 170 157 0
41.5259 35.0176 -42.9744 0.899 -0.439 -0.010 180 170 158 0
47.8489 64.9500 -51.8088 0.962 -0.231 0.144 175 160 153 0
48.2951 66.4185 -52.2494 0.044 -0.167 0.985 174 159 152 0
45.0336 38.5381 -44.1602 0.343 -0.825 -0.449 174 160 149 0
45.2405 38.6467 -44.2020 0.343 -0.825 -0.449 172 158 147 0
-31.4927 42.4033 -41.4567 -0.482 -0.839 0.253 228 223 212 0
-19.1339 27.5778 -37.8687 -0.485 -0.828 0.280 134 66 78 0
-9.7178 23.6305 -37.2355 0.007 -0.939 0.344 120 27 42 0
-4.8033 22.9470 -37.2985 0.037 -0.977 -0.208 114 26 41 0
1.5308 24.0468 -37.9459 -0.400 -0.859 0.320 76 14 27 0
3.5253 25.1571 -38.3681 0.230 -0.929 0.292 69 9 21 0
7.0968 33.5192 -40.9461 -0.218 -0.969 -0.112 67 36 21 0
7.3190 38.5627 -42.3994 0.890 -0.127 -0.438 72 47 24 0
7.3207 39.8907 -42.7791 0.891 -0.128 -0.436 70 46 24 0
7.6824 46.2669 -44.6207 0.644 -0.644 -0.412 53 54 25 0
7.8819 46.5179 -44.7029 0.604 -0.732 -0.316 56 68 34 0
10.2442 57.9720 -48.1011 0.871 -0.211 0.443 64 110 53 0
26.7471 41.1294 -44.1545 -0.043 -0.999 -0.012 189 180 172 0
27.9580 31.6015 -41.4947 0.994 -0.104 -0.019 190 181 170 0
31.5135 52.5966 -47.6828 0.914 -0.396 -0.085 187 179 167 0
33.1597 53.9528 -48.1570 -0.704 -0.685 -0.187 187 177 166 0
33.5581 52.7357 -47.8301 0.472 -0.869 0.148 185 176 164 0
33.5699 29.5132 -41.1928 0.875 -0.341 -0.343 187 176 165 0
33.8063 30.3820 -41.4536 0.875 -0.341 -0.343 186 174 164 0
43.4066 63.3188 -51.3729 -0.715 -0.697 -0.049 180 169 159 0
43.6334 63.2443 -51.3636 -0.696 -0.711 -0.098 179 168 159 0
41.3337 35.0167 -43.1741 0.759 -0.515 0.399 181 169 158 0
48.2064 65.8345 -52.3444 0.044 -0.167 0.985 174 160 152 0
50.6450 55.6295 -49.5556 0.090 -0.994 -0.054 254 255 255 0
-57.8491 22.7259 -34.6828 0.774 -0.392 -0.497 233 224 219 0
-30.9979 41.2903 -41.4229 -0.310 -0.861 0.404 227 223 211 0
-15.4833 24.8067 -37.4878 -0.366 -0.927 -0.082 128 50 64 0
-15.2196 24.7096 -37.4735 -0.375 -0.924 -0.071 130 50 65 0
-14.9462 24.5872 -37.4526 -0.370 -0.926 -0.072 128 47 62 0
-4.7013 24.5601 -37.9783 0.988 -0.155 0.003 113 24 42 0
-3.6526 22.5176 -37.4452 0.895 -0.381 -0.233 110 26 40 0
-1.4118 24.1179 -38.0223 -0.271 -0.912 0.308 108 37 51 0
-0.9976 23.3752 -37.8302 0.230 -0.896 0.380 115 44 58 0
0.2864 25.5779 -38.5309 0.595 -0.803 -0.046 77 17 27 0
1.5052 24.0527 -38.1555 0.324 -0.945 0.032 75 13 25 0
1.8471 24.3323 -38.2537 0.317 -0.948 -0.013 76 14 25 0
2.0377 24.3939 -38.2814 0.316 -0.949 0.000 75 13 24 0
2.4917 25.0733 -38.5005 0.532 -0.817 0.222 72 13 25 0
2.6727 25.1801 -38.5407 0.532 -0.817 0.222 72 12 24 0
3.2472 25.3707 -38.6254 0.333 -0.942 0.039 71 10 22 0
3.4873 25.2227 -38.5954 0.271 -0.926 0.264 70 10 22 0
5.7618 32.4358 -40.7894 -0.083 -0.874 -0.479 61 21 19 0
6.9416 34.2596 -41.3756 0.328 -0.944 0.014 68 38 21 0
7.2014 39.1217 -42.7882 0.893 -0.122 -0.433 70 45 22 0
7.1951 40.5030 -43.1853 0.892 -0.126 -0.434 69 47 25 0
6.9803 46.0356 -44.7661 -0.391 -0.918 0.067 60 46 23 0
9.5280 53.5547 -47.0624 -0.133 -0.709 0.692 62 97 49 0
9.8032 57.2288 -48.1339 0.550 -0.234 0.801 66 108 49 0
10.0148 57.5771 -48.2451 0.555 -0.236 0.798 66 110 49 0
10.2289 57.9135 -48.3531 0.577 -0.197 0.793 68 112 51 0
10.4631 58.0948 -48.4175 0.770 -0.222 0.599 73 113 52 0
10.8954 56.6449 -48.0228 0.158 0.099 0.982 74 112 50 0
26.3115 41.0690 -44.3437 0.005 -0.982 0.187 190 181 174 0
26.5264 40.6088 -44.2224 0.019 -1.000 0.018 190 181 174 0
26.7350 41.0889 -44.3714 -0.086 -0.996 0.003 189 180 172 0
27.7503 30.8332 -41.4733 0.978 -0.166 0.125 190 183 169 0
43.4617 63.8629 -51.7956 -0.658 -0.746 -0.101 180 170 160 0
41.7074 38.0928 -44.2890 0.828 -0.559 0.052 182 168 159 0
41.9403 38.4152 -44.3939 0.851 -0.525 0.014 179 166 157 0
42.3624 38.6975 -44.4971 0.377 -0.865 0.332 180 167 158 0
42.5654 38.7736 -44.5296 0.377 -0.865 0.332 177 167 157 0
46.3920 57.9309 -50.2413 0.960 -0.127 0.248 175 165 155 0
50.0366 54.6050 -49.4741 -0.069 -0.985 -0.159 246 247 245 0
-26.8339 34.7103 -39.9904 -0.191 -0.923 0.334 225 215 206 0
-15.7619 25.3986 -37.8642 -0.212 -0.700 0.682 127 49 63 0
-15.5079 25.3285 -37.8570 -0.212 -0.700 0.682 128 47 62 0
-15.2613 25.2755 -37.8544 -0.134 -0.662 0.737 128 47 61 0
-15.0173 25.2276 -37.8531 -0.134 -0.662 0.737 128 47 62 0
-11.9961 23.1776 -37.4151 0.382 -0.730 0.566 117 35 47 0
-11.9219 23.5519 -37.5273 0.312 -0.948 -0.057 117 34 46 0
-4.6312 24.9335 -38.3036 0.987 -0.158 0.006 111 23 40 0
-1.8824 24.2130 -38.2367 -0.221 -0.892 0.394 100 29 40 0
-1.0010 23.2955 -38.0163 0.230 -0.896 0.380 117 48 62 0
-0.8053 23.3355 -38.0380 0.206 -0.911 0.356 100 31 42 0
-0.6086 23.3719 -38.0587 0.206 -0.911 0.356 91 22 35 0
-0.4463 23.5350 -38.1143 0.150 -0.903 0.402 86 21 34 0
6.7562 33.9570 -41.5046 0.014 -0.998 0.066 69 37 21 0
6.9736 35.1801 -41.8701 0.281 -0.929 -0.242 70 41 20 0
7.2975 35.8425 -42.0787 0.999 -0.005 -0.037 67 41 18 0
7.1708 37.8554 -42.6552 0.953 -0.069 -0.294 68 42 20 0
7.0870 39.6613 -43.1739 0.891 -0.132 -0.435 70 45 23 0
7.0863 41.0143 -43.5658 0.897 -0.122 -0.426 68 47 24 0
7.0618 45.3934 -44.8330 0.805 -0.592 0.043 57 46 22 0
8.3421 46.3324 -45.1710 -0.355 -0.829 0.433 54 79 38 0
8.2065 52.1553 -46.8506 0.992 -0.118 -0.035 55 86 41 0
8.9312 54.0919 -47.4490 -0.232 -0.677 0.699 63 95 46 0
9.5342 53.3413 -47.2627 -0.126 -0.725 0.677 66 101 53 0
9.8636 52.7372 -47.1046 0.756 -0.648 0.092 65 101 50 0
10.3453 52.8450 -47.1607 0.750 -0.653 0.104 69 108 48 0
10.0623 57.0240 -48.3566 0.586 -0.219 0.780 72 110 49 0
10.2636 57.4554 -48.4919 0.577 -0.197 0.793 76 111 49 0
10.4854 57.7315 -48.5834 0.768 -0.224 0.600 85 113 48 0
19.1246 45.4117 -45.4604 -0.041 -0.997 -0.067 189 185 168 0
19.3493 45.4361 -45.4791 0.044 -0.984 -0.172 189 185 168 0
26.2981 41.1678 -44.6011 -0.000 -0.992 0.123 188 179 172 0
26.5128 40.7937 -44.5039 0.033 -0.999 0.015 190 181 174 0
26.7223 41.1628 -44.6216 -0.093 -0.996 0.016 189 180 172 0
28.6956 30.4047 -41.6072 0.904 -0.176 -0.391 187 180 168 0
30.7789 51.5176 -47.8301 -0.295 -0.896 0.331 187 179 168 0
41.9336 38.3987 -44.6055 0.851 -0.525 0.014 177 162 155 0
42.5506 38.6930 -44.7226 0.377 -0.865 0.332 177 167 158 0
43.4693 39.7762 -45.0837 0.452 -0.749 0.485 175 165 154 0
43.6099 39.3875 -44.9783 0.389 -0.855 0.343 175 165 154 0
44.0594 35.8531 -43.9778 0.340 -0.827 -0.449 173 160 152 0
44.4805 36.1734 -44.0923 0.206 -0.853 -0.479 172 158 150 0
50.1953 54.2949 -49.6360 0.160 -0.961 -0.227 255 255 255 0
50.7361 56.1813 -50.2103 0.032 -0.989 -0.146 255 255 255 0
-26.6432 34.7532 -40.2568 -0.294 -0.940 0.173 223 212 206 0
-15.9784 25.2939 -38.0435 0.407 -0.872 0.272 126 49 62 0
-15.7225 25.2202 -38.0350 -0.212 -0.700 0.682 126 48 62 0
-11.9435 23.5248 -37.7338 0.310 -0.949 -0.049 119 36 49 0
-4.2989 22.4105 -37.7993 0.144 -0.834 0.532 110 21 39 0
-4.6668 24.9589 -38.5235 0.968 -0.241 -0.067 109 24 40 0
-3.7667 22.7144 -37.9151 -0.182 -0.745 0.642 108 24 40 0
-3.2082 22.9366 -38.0084 -0.073 -0.777 0.625 103 24 38 0
-1.8670 24.0669 -38.4065 0.305 -0.945 0.115 102 29 43 0
-0.9663 23.0785 -38.1643 0.583 -0.812 -0.042 101 30 44 0
-0.4744 23.5459 -38.3257 0.126 -0.868 0.481 87 21 35 0
2.9249 25.6676 -39.1179 0.190 -0.978 -0.081 71 12 24 0
3.1397 25.6344 -39.1192 0.349 -0.915 -0.202 70 10 23 0
3.3097 25.7952 -39.1748 0.337 -0.940 -0.048 71 10 23 0
3.5109 25.8208 -39.1926 0.461 -0.879 -0.124 70 10 22 0
3.6948 25.9229 -39.2317 0.461 -0.879 -0.124 70 11 20 0
3.9165 25.8564 -39.2236 0.152 -0.953 -0.264 69 11 19 0
6.3347 33.7569 -41.6507 0.011 -0.975 0.221 67 33 21 0
6.5234 33.9158 -41.7066 -0.011 -0.989 0.146 69 36 22 0
6.7313 33.9724 -41.7338 -0.004 -0.995 0.103 70 38 22 0
6.7148 36.5058 -42.4716 0.096 -0.917 -0.388 70 40 19 0
6.6637 38.0551 -42.9207 0.204 -0.760 -0.617 69 41 19 0
6.9906 38.7693 -43.1456 0.990 -0.073 -0.124 67 41 19 0
6.9991 40.0439 -43.5177 0.983 -0.094 -0.160 67 43 20 0
7.0034 41.3707 -43.9048 0.892 -0.118 -0.435 66 45 21 0
8.9508 53.7849 -47.6238 0.816 -0.313 0.486 64 96 46 0
10.5147 57.3122 -48.7321 0.726 -0.230 0.648 117 130 60 0
17.8819 49.7510 -46.9038 -0.716 -0.696 0.050 188 181 153 0
19.0849 45.7614 -45.8020 0.136 -0.987 -0.091 192 185 166 0
19.3037 45.8896 -45.8506 -0.084 -0.987 -0.140 191 185 168 0
26.7110 40.9424 -44.7865 -0.099 -0.992 0.083 189 180 172 0
26.9181 42.2625 -45.1820 0.178 -0.984 -0.004 189 181 170 0
28.6762 47.3558 -46.7568 0.848 0.006 0.530 189 181 170 0
30.6005 53.9249 -48.7704 -0.397 -0.902 0.170 186 177 167 0
42.0632 57.6183 -50.4327 -0.044 -0.941 -0.335 180 170 161 0
43.0042 40.7126 -45.5517 0.504 -0.793 0.342 175 164 156 0
43.2114 40.7944 -45.5861 0.500 -0.791 0.352 175 165 155 0
43.8822 35.9445 -44.2063 0.332 -0.843 -0.423 176 161 154 0
44.0749 35.9826 -44.2272 0.352 -0.834 -0.425 176 161 154 0
49.9976 54.4045 -49.9010 0.154 -0.955 -0.254 246 247 245 0
50.2038 54.3583 -49.8981 0.160 -0.961 -0.227 255 254 255 0
-26.6811 34.7450 -40.4968 -0.294 -0.937 0.188 224 213 207 0
-11.9493 23.4568 -37.9291 0.296 -0.955 -0.022 122 39 53 0
-12.1818 25.2193 -38.4345 -0.179 -0.776 -0.604 124 36 50 0
-9.9402 23.3104 -37.9877 0.043 -0.975 0.217 119 32 48 0
-8.0334 23.3928 -38.1083 0.438 -0.851 -0.291 122 30 45 0
-4.2734 22.2415 -37.9606 0.166 -0.889 0.426 111 22 40 0
-4.1099 23.0622 -38.2098 -0.287 -0.661 0.694 108 22 41 0
-3.7732 22.6472 -38.1050 -0.177 -0.753 0.634 106 23 41 0
-2.4175 22.2819 -38.0663 0.272 -0.961 0.052 102 24 38 0
-1.8868 24.0446 -38.6105 0.363 -0.924 0.118 103 28 45 0
-0.7528 26.0383 -39.2529 0.454 -0.592 0.666 80 17 28 0
3.1127 25.6500 -39.3345 0.624 -0.781 -0.033 70 10 23 0
3.2795 25.8253 -39.3944 0.592 -0.806 0.006 72 10 23 0
3.4993 25.7700 -39.3893 0.660 -0.699 -0.274 72 11 23 0
3.8807 25.9136 -39.4507 0.152 -0.953 -0.264 71 11 21 0
3.1247 30.2572 -40.6872 0.657 -0.229 0.718 69 11 18 0
5.9020 33.6170 -41.8137 0.735 -0.614 0.289 67 30 22 0
6.2308 34.1940 -41.9997 -0.179 -0.949 0.261 68 35 21 0
6.4824 34.0174 -41.9606 -0.304 -0.941 0.146 70 38 24 0
6.6564 34.2611 -42.0409 -0.171 -0.976 -0.137 72 41 24 0
6.5184 37.4790 -42.9783 -0.305 -0.946 -0.111 73 43 23 0
6.5236 44.0735 -44.9139 0.718 -0.609 -0.335 65 44 20 0
9.9280 55.7337 -48.5081 0.678 -0.221 0.701 104 116 51 0
10.3601 56.3264 -48.7039 0.581 -0.233 0.780 139 145 70 0
10.5599 56.7648 -48.8427 0.540 -0.210 0.815 154 154 72 0
17.6006 50.1239 -47.2498 -0.726 -0.687 0.021 189 178 136 0
17.8668 49.7152 -47.1433 -0.723 -0.690 0.025 191 180 145 0
18.8597 45.4823 -45.9513 0.191 -0.973 -0.129 194 185 157 0
19.0835 45.5296 -45.9765 0.191 -0.973 -0.129 192 184 160 0
20.1765 46.2037 -46.2296 -0.056 -0.923 -0.380 189 186 169 0
27.3331 43.4146 -45.7730 0.960 -0.203 0.194 188 182 170 0
30.5901 53.9780 -49.0379 -0.499 -0.850 -0.170 188 180 169 0
32.6052 19.0845 -38.8993 0.232 -0.359 0.904 184 174 163 0
39.1596 32.4999 -43.1679 0.636 -0.043 0.771 181 168 160 0
42.0179 57.2584 -50.5786 -0.225 -0.961 -0.162 179 169 161 0
42.6815 59.1548 -51.1687 -0.262 -0.949 -0.174 179 168 160 0
42.9268 40.1556 -45.6052 0.565 -0.814 0.132 173 162 156 0
43.8753 35.9208 -44.4104 -0.250 -0.834 -0.492 176 161 154 0
49.9984 54.4240 -50.1504 0.160 -0.952 -0.261 246 247 245 0
50.2124 54.4219 -50.1606 0.160 -0.961 -0.227 255 254 255 0
50.4339 54.4644 -50.1843 0.160 -0.961 -0.227 255 255 255 0
-58.8667 23.6414 -35.8498 0.727 -0.384 -0.569 232 221 217 0
-26.6597 34.6120 -40.7032 -0.237 -0.970 -0.057 224 213 207 0
-9.6266 23.5532 -38.2895 -0.026 -0.939 0.342 127 39 55 0
-8.5498 22.3417 -37.9855 0.506 -0.838 -0.204 125 37 51 0
-8.3550 22.3931 -38.0105 0.550 -0.815 -0.185 124 36 50 0
-7.7940 21.3985 -37.7448 0.558 -0.784 0.273 126 38 52 0
-7.5520 23.7789 -38.4600 -0.004 -0.999 -0.050 129 32 49 0
-4.7496 22.3404 -38.1754 -0.104 -0.973 0.205 113 24 42 0
-4.5316 22.3123 -38.1780 -0.138 -0.929 0.342 113 24 42 0
-4.2733 22.1538 -38.1442 0.166 -0.889 0.426 112 23 41 0
-4.2404 22.7185 -38.3126 -0.291 -0.765 0.575 109 20 38 0
-3.6070 22.0166 -38.1370 0.071 -0.995 -0.072 105 21 40 0
-2.3895 22.0974 -38.2218 0.449 -0.888 0.103 101 24 40 0
-2.2169 22.2130 -38.2646 0.633 -0.759 0.153 100 24 41 0
-2.1906 23.5537 -38.6620 0.360 -0.918 -0.164 101 27 44 0
-0.8272 23.1387 -38.6077 0.629 -0.777 -0.022 88 23 34 0
-0.8774 26.4081 -39.5709 0.675 -0.404 0.617 80 17 28 0
2.5350 25.3624 -39.4329 0.359 -0.900 -0.247 73 12 27 0
3.0913 25.6415 -39.5432 0.624 -0.781 -0.033 73 12 26 0
3.1909 29.8513 -40.7917 0.676 -0.240 0.697 71 11 19 0
5.7505 34.2935 -42.2321 0.619 -0.768 -0.164 69 32 22 0
5.9189 34.5655 -42.3209 0.825 -0.566 -0.005 68 34 20 0
7.4966 46.7200 -45.9902 0.667 -0.743 0.055 56 70 34 0
9.9643 55.2786 -48.6420 0.651 -0.247 0.718 151 147 68 0
10.2275 55.1954 -48.6306 0.295 -0.166 0.941 162 155 69 0
10.4379 55.5284 -48.7395 0.295 -0.191 0.936 167 159 68 0
10.5859 56.3743 -48.9968 0.544 -0.209 0.812 170 160 63 0
17.5473 50.5922 -47.6374 -0.489 -0.825 -0.284 189 174 112 0
17.8313 49.9554 -47.4635 -0.504 -0.852 -0.142 190 176 121 0
18.6158 45.4807 -46.1810 0.200 -0.980 -0.020 194 179 137 0
18.8341 45.6110 -46.2304 0.207 -0.977 0.047 194 183 147 0
19.0487 45.8022 -46.2976 0.113 -0.993 -0.036 192 184 155 0
19.0745 48.9271 -47.2220 -0.195 -0.664 0.722 189 183 159 0
19.3116 48.8588 -47.2137 0.178 -0.779 0.601 188 184 162 0
30.5204 51.6171 -48.5898 -0.345 -0.875 0.340 187 179 168 0
37.1983 25.5945 -41.2372 -0.234 -0.721 -0.652 179 169 159 0
37.3672 25.5300 -41.2266 -0.234 -0.721 -0.652 179 168 158 0
39.0426 31.4491 -43.0590 0.611 -0.040 0.791 180 168 160 0
42.4151 40.7933 -45.9881 0.044 -0.792 0.609 177 166 157 0
42.6147 40.8126 -46.0038 0.086 -0.775 0.627 175 164 156 0
42.8570 41.1630 -46.1194 0.135 -0.751 0.646 174 163 158 0
42.8733 39.7811 -45.7121 0.422 -0.897 0.130 174 163 156 0
50.0109 54.5119 -50.4209 0.152 -0.961 -0.230 246 247 245 0
50.2317 54.5482 -50.4427 0.163 -0.960 -0.229 255 254 255 0
50.3336 52.6798 -49.8958 -0.290 -0.906 -0.310 255 255 255 0
-26.5807 34.8910 -41.0347 -0.246 -0.929 0.277 224 214 207 0
-17.1468 26.2066 -38.9204 -0.070 -0.995 0.077 131 58 73 0
-16.9194 26.2090 -38.9324 -0.072 -0.994 0.082 130 55 71 0
-15.7524 25.0434 -38.6437 -0.412 -0.630 0.658 124 47 61 0
-12.6349 25.6554 -38.9802 -0.534 -0.829 0.166 125 38 54 0
-8.3458 22.2828 -38.1901 0.339 -0.916 0.215 122 34 48 0
-8.4214 23.7205 -38.6138 0.351 -0.910 -0.221 120 32 46 0
-4.9846 22.3340 -38.3719 0.320 -0.917 -0.239 116 28 43 0
-4.1959 22.4876 -38.4567 0.142 -0.827 0.544 109 22 38 0
-3.9964 22.5180 -38.4756 0.343 -0.896 -0.282 109 21 39 0
-3.8764 22.8072 -38.5676 0.063 -0.991 -0.121 108 22 39 0
-3.6434 22.7291 -38.5559 -0.156 -0.986 -0.053 107 24 40 0
-2.2481 22.2304 -38.4768 0.652 -0.723 0.229 97 23 36 0
-1.7079 23.2316 -38.8013 0.279 -0.835 0.473 95 23 39 0
0.0542 24.3906 -39.2332 0.606 -0.759 0.238 78 17 29 0
0.3961 23.8796 -39.0982 0.601 -0.644 0.474 79 17 30 0
1.0489 25.3842 -39.5779 0.152 -0.802 0.577 84 21 29 0
2.4975 25.4204 -39.6605 0.429 -0.879 -0.207 74 12 24 0
2.6799 25.5265 -39.7011 0.594 -0.646 0.480 72 10 22 0
2.9913 27.7944 -40.3908 0.617 -0.268 0.740 91 30 41 0
3.1720 27.9286 -40.4396 0.641 -0.265 0.720 75 15 25 0
3.2604 29.4316 -40.8909 0.654 -0.248 0.715 70 10 20 0
5.8624 35.9250 -42.9504 0.995 -0.084 -0.061 69 37 20 0
6.4799 37.4415 -43.4319 0.841 -0.539 -0.041 72 42 18 0
6.7420 38.5085 -43.7621 0.594 -0.764 -0.252 72 44 20 0
7.5881 49.0899 -46.9500 0.208 -0.799 0.565 55 77 38 0
9.5902 54.1186 -48.5444 0.665 -0.158 0.730 151 147 64 0
10.4909 54.9297 -48.8302 0.270 -0.180 0.946 172 155 56 0
13.9019 42.2458 -45.2282 -0.428 -0.783 0.452 197 178 59 0
14.1602 41.9493 -45.1529 0.035 -0.622 0.783 197 177 57 0
14.3569 42.2162 -45.2420 -0.023 -0.561 0.827 199 179 58 0
14.5790 42.2495 -45.2629 -0.029 -0.557 0.830 201 180 60 0
14.7783 42.5023 -45.3479 0.180 -0.709 0.682 203 182 62 0
14.9819 42.7190 -45.4225 -0.011 -0.437 0.899 205 183 62 0
15.1532 43.2672 -45.5939 -0.085 -0.616 0.783 204 184 59 0
15.4024 43.0366 -45.5377 0.316 -0.584 0.748 205 185 61 0
15.6211 43.1122 -45.5710 0.316 -0.584 0.748 205 186 62 0
18.8047 45.7947 -46.5264 0.143 -0.979 -0.143 187 175 124 0
19.0743 48.6661 -47.3935 0.178 -0.779 0.601 191 184 148 0
19.3045 48.7016 -47.4154 0.178 -0.779 0.601 192 185 154 0
19.5246 48.9021 -47.4860 0.196 -0.613 0.765 191 186 158 0
19.7545 48.9454 -47.5102 0.196 -0.613 0.765 188 185 160 0
19.9983 48.7454 -47.4628 0.175 -0.651 0.738 187 185 162 0
34.3471 51.7273 -49.0607 0.197 -0.863 0.466 183 173 162 0
34.5614 51.5570 -49.0207 0.015 -0.647 0.762 181 171 161 0
32.9601 19.6756 -39.4627 0.829 -0.216 0.517 181 171 161 0
43.6731 59.9031 -51.9538 0.066 -0.786 -0.615 179 167 162 0
42.5929 42.2406 -46.6490 0.686 -0.727 0.033 178 166 159 0
42.7461 40.3405 -46.0917 0.788 -0.420 0.451 175 164 159 0
43.4198 29.1431 -42.7960 -0.542 -0.794 0.276 175 163 151 0
50.5364 55.0821 -50.8607 0.116 -0.948 -0.297 255 255 255 0
50.3481 52.7752 -50.1655 -0.281 -0.912 -0.297 255 255 255 0
-55.6277 16.9398 -34.4830 0.455 -0.850 -0.267 255 255 255 0
-28.2631 36.7188 -41.7443 0.893 -0.336 0.301 226 219 210 0
-16.5226 25.7231 -39.0302 -0.217 -0.867 0.448 128 52 70 0
-16.1537 25.3829 -38.9465 0.210 -0.932 0.296 128 52 69 0
-15.9393 25.4113 -38.9655 -0.280 -0.957 0.073 128 50 67 0
-8.3901 22.3242 -38.4123 0.412 -0.853 0.320 117 29 43 0
-1.8052 23.4825 -39.0820 0.448 -0.892 0.055 95 24 36 0
-1.5993 23.4910 -39.0947 0.460 -0.882 0.098 94 24 35 0
-1.4126 23.5676 -39.1267 0.468 -0.879 0.092 93 24 35 0
0.3662 23.8991 -39.3132 0.594 -0.605 0.531 78 16 31 0
1.0560 25.2588 -39.7539 0.152 -0.802 0.577 77 15 24 0
2.4651 25.4568 -39.8823 0.429 -0.879 -0.207 72 10 21 0
3.0232 27.5507 -40.5363 0.630 -0.254 0.734 79 21 28 0
6.2293 38.7126 -44.0336 0.829 -0.503 -0.246 70 40 14 0
6.2152 40.0728 -44.4399 0.748 -0.613 -0.254 71 43 17 0
7.3874 47.1193 -46.6059 0.697 -0.549 -0.461 56 72 36 0
7.7998 49.1515 -47.2342 0.247 -0.779 0.577 58 81 40 0
8.0357 49.2058 -47.2621 0.247 -0.779 0.577 59 86 40 0
9.4270 53.2994 -48.5553 0.666 -0.158 0.729 155 146 59 0
9.8393 53.9623 -48.7738 0.582 -0.147 0.799 166 150 53 0
10.3274 54.0634 -48.8280 0.569 -0.136 0.811 175 155 52 0
10.5474 54.3051 -48.9112 0.571 -0.128 0.811 178 158 53 0
10.8314 56.0807 -49.4564 0.801 -0.120 0.587 179 163 51 0
13.9160 41.9465 -45.3784 -0.468 -0.779 0.418 202 181 61 0
14.5605 42.2467 -45.4999 0.113 -0.546 0.830 204 183 61 0
14.7647 42.4525 -45.5715 0.013 -0.529 0.848 205 183 62 0
14.9944 42.4128 -45.5709 -0.189 -0.532 0.825 206 185 62 0
15.1706 42.9068 -45.7274 -0.113 -0.684 0.721 206 188 58 0
15.3988 42.8851 -45.7321 0.497 -0.581 0.645 206 188 58 0
15.6695 42.4176 -45.6055 0.316 -0.544 0.777 205 187 58 0
15.8599 42.7834 -45.7243 0.104 -0.511 0.853 206 186 61 0
16.0775 42.8659 -45.7596 -0.021 -0.523 0.852 207 188 65 0
16.2863 43.0466 -45.8239 0.047 -0.752 0.658 207 187 69 0
17.5611 43.9760 -46.1646 0.911 -0.265 -0.316 197 178 81 0
19.0697 48.4734 -47.5844 0.210 -0.792 0.574 186 175 126 0
19.2945 48.5913 -47.6307 0.196 -0.799 0.569 190 179 137 0
19.5201 48.6999 -47.6743 0.461 -0.794 0.395 192 184 147 0
19.7559 48.6394 -47.6677 0.494 -0.706 0.508 188 184 152 0
19.9860 48.6697 -47.6881 0.245 -0.788 0.565 188 184 157 0
20.1927 49.1196 -47.8328 0.177 -0.626 0.759 190 183 161 0
20.4003 49.5797 -47.9807 -0.063 -0.595 0.801 193 183 167 0
20.6267 49.7045 -48.0292 -0.025 -0.592 0.806 194 182 169 0
25.7642 44.7474 -46.7980 0.739 -0.219 -0.637 191 181 174 0
34.3314 51.6151 -49.2734 0.208 -0.861 0.464 185 175 163 0
39.6485 24.3322 -41.3705 0.720 -0.537 -0.439 177 166 163 0
42.7029 40.0409 -46.2209 0.813 -0.413 0.411 176 165 160 0
42.9105 40.1314 -46.2581 0.364 -0.885 -0.291 176 166 157 0
50.0306 54.6564 -50.9538 0.057 -0.950 -0.306 246 247 245 0
50.2487 54.6745 -50.9700 0.057 -0.950 -0.306 255 255 255 0
50.5097 54.9413 -51.0626 0.044 -0.960 -0.276 255 255 255 0
50.3630 52.8723 -50.4363 -0.281 -0.907 -0.313 255 255 255 0
-55.3868 16.5918 -34.6155 0.486 -0.833 -0.266 255 255 255 0
-16.6043 25.8346 -39.2827 -0.237 -0.831 0.502 127 53 70 0
-15.9085 25.2537 -39.1415 0.324 -0.945 -0.052 129 54 69 0
-15.7402 25.3929 -39.1916 0.080 -0.997 -0.016 128 52 67 0
-15.5934 25.5852 -39.2567 -0.190 -0.963 -0.191 128 49 64 0
-3.6956 22.7229 -38.9726 0.014 -0.965 -0.262 108 26 41 0
-2.1535 22.4359 -38.9611 0.803 -0.468 0.369 95 25 35 0
-0.2424 26.1234 -40.1644 0.207 -0.957 -0.201 78 16 31 0
0.5401 26.3689 -40.2763 0.103 -0.948 -0.301 78 16 29 0
0.7442 26.3968 -40.2946 0.103 -0.948 -0.301 76 14 26 0
0.9483 26.4248 -40.3130 0.103 -0.948 -0.301 76 13 26 0
1.0677 26.7930 -40.4296 0.215 -0.931 -0.294 77 15 27 0
2.0438 24.5283 -39.7950 0.756 -0.600 -0.262 75 13 23 0
2.4959 25.2279 -40.0277 0.613 -0.645 0.457 71 10 21 0
3.2256 27.4838 -40.7425 0.653 -0.244 0.717 70 13 19 0
4.4183 30.8117 -41.8026 0.077 -0.786 0.614 63 17 19 0
5.9670 41.3409 -45.0487 0.813 -0.415 -0.409 70 44 17 0
5.8965 43.0644 -45.5643 -0.242 -0.685 -0.687 70 42 17 0
6.1719 45.5950 -46.3397 -0.092 -0.683 0.725 63 45 20 0
7.0011 46.3818 -46.6170 -0.253 -0.912 -0.324 56 67 29 0
7.2435 46.3674 -46.6244 -0.232 -0.915 -0.330 55 71 32 0
7.3417 47.2621 -46.8986 0.700 -0.547 -0.458 56 73 37 0
10.5176 54.3656 -49.1921 0.747 -0.182 0.640 183 161 50 0
12.8271 47.3269 -47.1845 -0.119 -0.516 0.849 199 179 55 0
13.1493 46.5654 -46.9709 -0.125 -0.635 0.763 202 182 56 0
13.4846 45.6582 -46.7140 -0.224 -0.926 0.305 204 185 60 0
16.3365 44.8175 -46.5993 0.815 -0.318 -0.485 205 187 69 0
18.7514 46.0796 -47.0967 -0.008 -0.986 -0.164 188 171 92 0
19.0450 48.5911 -47.8673 0.185 -0.806 0.562 186 172 109 0
19.2752 48.6283 -47.8896 0.185 -0.806 0.562 187 173 120 0
19.5045 48.6804 -47.9165 0.389 -0.765 0.514 189 177 132 0
20.0092 47.9800 -47.7301 0.596 -0.533 0.601 191 182 152 0
20.2239 48.2653 -47.8264 0.633 -0.471 0.614 191 182 158 0
20.4463 48.4219 -47.8844 0.519 -0.595 0.614 190 182 164 0
20.6119 49.6755 -48.2699 -0.051 -0.634 0.772 192 182 168 0
20.8613 49.3495 -48.1839 -0.003 -0.564 0.826 192 183 170 0
25.9113 50.1721 -48.6769 0.808 -0.188 -0.558 190 182 171 0
33.9508 53.1532 -49.9651 0.001 -0.751 0.660 185 174 167 0
34.0879 51.4254 -49.4515 -0.004 -0.716 0.698 184 174 164 0
34.3181 51.5469 -49.4992 0.000 -0.642 0.766 184 174 163 0
34.7414 51.1286 -49.3938 0.096 -0.707 0.701 181 171 161 0
42.3343 26.5191 -42.3515 0.850 -0.389 0.356 177 164 155 0
50.2615 54.7629 -51.2421 0.057 -0.950 -0.306 255 255 255 0
-55.4709 16.6193 -34.8449 0.431 -0.861 -0.271 255 255 255 0
-61.4302 27.0441 -37.7179 0.622 -0.563 -0.544 233 223 219 0
-17.2806 26.8146 -39.7705 0.401 -0.778 0.484 130 59 72 0
-16.9103 26.4802 -39.6870 -0.168 -0.917 0.363 127 55 67 0
-16.1976 25.3218 -39.3701 0.129 -0.991 -0.044 126 55 66 0
-15.7850 24.8733 -39.2540 0.121 -0.993 0.014 128 55 67 0
-15.5067 25.2907 -39.3939 0.397 -0.846 -0.355 129 53 65 0
-15.3145 25.3721 -39.4278 0.396 -0.846 -0.357 126 49 62 0
-14.8405 25.3145 -39.4331 0.487 -0.874 -0.016 123 47 60 0
-14.6209 25.3277 -39.4477 0.282 -0.959 -0.015 123 47 60 0
-14.5932 25.8198 -39.5982 -0.419 -0.850 0.320 123 46 59 0
-7.9394 22.6947 -38.9709 0.652 -0.758 -0.036 125 34 49 0
-4.3749 24.8583 -39.7979 -0.440 -0.895 -0.075 107 25 40 0
2.2920 25.1138 -40.1958 0.286 -0.958 -0.031 70 13 23 0
2.4705 25.2350 -40.2411 0.607 -0.665 0.435 70 13 23 0
5.9020 34.1751 -43.1156 0.285 -0.958 -0.035 72 39 21 0
5.8203 42.0346 -45.4936 0.760 -0.538 -0.365 71 46 21 0
5.7974 43.4938 -45.9348 -0.238 -0.685 -0.688 69 44 20 0
6.1905 45.3467 -46.5152 -0.097 -0.818 0.567 61 47 20 0
6.4480 45.2377 -46.4946 -0.121 -0.799 0.589 53 47 18 0
6.7127 45.0815 -46.4599 -0.143 -0.849 0.509 54 57 24 0
6.9248 45.2408 -46.5184 0.804 -0.579 0.138 54 65 28 0
6.9017 46.8503 -47.0051 -0.150 -0.851 -0.504 55 69 30 0
7.3870 48.3667 -47.4880 -0.185 -0.976 0.111 59 77 37 0
9.3542 51.6797 -48.5866 0.986 -0.165 -0.027 159 145 43 0
9.5636 53.8100 -49.2423 0.986 -0.156 -0.067 168 155 49 0
9.6869 54.7768 -49.5413 0.986 -0.158 -0.058 174 155 48 0
19.2548 48.6827 -48.1542 -0.006 -0.856 0.518 182 167 103 0
19.4879 48.6756 -48.1633 -0.006 -0.856 0.518 180 167 114 0
20.0012 47.8319 -47.9323 0.581 -0.532 0.616 190 180 141 0
20.4341 48.3458 -48.1088 0.500 -0.488 0.716 190 182 159 0
20.6564 48.5113 -48.1697 0.175 -0.535 0.827 189 182 164 0
21.1167 48.5435 -48.2015 0.203 -0.425 0.882 189 184 167 0
33.9464 53.2639 -50.2489 0.098 -0.629 0.771 186 176 162 0
34.0735 51.3351 -49.6704 -0.008 -0.640 0.769 185 175 162 0
34.2945 51.2857 -49.6661 0.413 -0.684 0.601 183 173 162 0
43.4088 39.5407 -46.5446 -0.127 -0.905 -0.405 178 164 155 0
48.5945 55.1641 -51.5289 0.188 -0.445 -0.875 166 156 144 0
50.3090 55.0534 -51.5777 0.068 -0.954 -0.293 255 254 255 0
50.3298 52.7073 -50.8677 -0.311 -0.912 -0.266 254 255 255 0
-55.5245 16.6115 -35.0653 0.466 -0.853 -0.236 255 255 255 0
-28.8077 38.1246 -42.8974 0.944 -0.328 0.039 226 217 208 0
-17.3904 26.9906 -40.0447 0.632 -0.774 -0.017 130 61 71 0
-15.7185 25.1737 -39.5701 0.223 -0.888 0.402 130 59 69 0
-15.4293 25.0193 -39.5367 0.231 -0.900 0.370 130 56 67 0
-9.9925 24.1405 -39.5273 -0.213 -0.948 -0.235 121 33 47 0
-7.8011 22.8265 -39.2308 0.494 -0.864 -0.096 125 35 50 0
-3.7733 22.8001 -39.4143 -0.066 -0.998 -0.024 105 26 40 0
-0.7899 24.8229 -40.1732 0.305 -0.427 0.851 79 17 28 0
1.8197 24.4037 -40.1694 0.719 -0.404 0.566 71 12 24 0
2.2720 25.0978 -40.4026 0.300 -0.953 -0.038 68 14 22 0
3.6679 26.2449 -40.8189 0.290 -0.944 -0.159 66 12 21 0
5.4711 35.1566 -43.6227 0.567 -0.793 0.223 73 39 23 0
5.6658 42.7704 -45.9541 -0.519 -0.794 -0.317 70 48 22 0
6.2269 44.9939 -46.6589 -0.237 -0.754 0.612 56 46 17 0
6.4950 44.8189 -46.6183 -0.126 -0.873 0.471 53 51 20 0
6.7622 44.6441 -46.5777 0.791 -0.586 0.173 54 61 26 0
11.2014 48.6058 -47.9971 0.783 -0.056 0.620 191 171 49 0
16.2114 45.8158 -47.3845 0.767 -0.363 -0.529 207 188 62 0
17.2788 44.0223 -46.8883 0.646 -0.465 -0.605 202 183 66 0
18.2369 46.3905 -47.6561 0.278 -0.602 -0.749 197 176 75 0
19.1381 46.6375 -47.7743 0.191 -0.937 -0.293 182 167 82 0
19.9932 47.6856 -48.1347 0.575 -0.537 0.617 182 167 117 0
44.0744 41.5598 -47.4118 0.142 -0.774 -0.618 176 162 153 0
48.1820 55.3325 -51.8077 0.260 -0.432 -0.864 172 160 148 0
50.3112 55.0805 -51.8321 0.074 -0.953 -0.293 255 254 255 0
50.5026 54.9394 -51.7982 0.101 -0.940 -0.327 254 255 255 0
-56.0019 17.0918 -35.4158 0.300 -0.925 -0.233 255 255 255 0
-60.8659 25.8888 -37.8868 0.673 -0.371 -0.640 235 224 220 0
-14.3510 26.1764 -40.1642 0.747 -0.639 -0.182 123 45 59 0
-10.1098 24.3788 -39.8120 -0.305 -0.930 -0.203 122 34 48 0
-7.8599 22.9114 -39.4676 0.270 -0.777 0.568 122 34 49 0
-1.3822 23.0922 -39.8279 0.365 -0.921 0.138 88 22 34 0
-0.8484 27.3215 -41.1511 0.422 -0.890 -0.170 79 18 31 0
0.5683 23.5387 -40.0567 0.791 -0.599 0.124 77 17 29 0
0.7328 23.7006 -40.1142 0.796 -0.595 0.114 77 17 29 0
1.1432 23.7111 -40.1367 0.594 -0.525 0.610 77 17 26 0
1.0156 29.3133 -41.8501 -0.159 -0.734 0.660 66 14 23 0
4.1026 34.1067 -43.4666 -0.445 -0.876 0.184 66 22 20 0
4.4792 34.4365 -43.5855 -0.177 -0.957 0.229 68 29 22 0
4.8267 34.9220 -43.7509 -0.311 -0.659 0.685 69 32 23 0
5.2778 34.8877 -43.7616 0.637 -0.753 0.164 71 36 23 0
5.4572 35.1088 -43.8379 0.645 -0.744 0.174 73 40 24 0
5.6390 35.3209 -43.9115 -0.258 -0.756 0.601 74 43 23 0
5.9585 34.8034 -43.7677 0.137 -0.858 0.494 74 43 22 0
6.0930 35.2692 -43.9170 0.051 -0.775 0.630 72 43 19 0
5.3754 44.2676 -46.6450 -0.215 -0.750 -0.626 67 46 18 0
5.4560 45.1624 -46.9235 -0.142 -0.724 -0.675 68 46 21 0
6.1963 45.0354 -46.9193 -0.185 -0.841 0.509 56 47 19 0
6.7420 44.6260 -46.8193 0.776 -0.613 0.150 55 63 29 0
9.0740 51.5889 -49.0661 0.965 -0.207 -0.164 170 151 47 0
9.2837 51.8642 -49.1605 0.969 -0.213 -0.121 174 155 49 0
9.0995 55.0411 -50.1269 0.959 -0.096 -0.266 177 159 47 0
9.5753 55.2782 -50.2220 0.983 -0.112 -0.142 187 166 49 0
9.6826 56.4009 -50.5716 0.983 -0.111 -0.148 191 170 49 0
16.3870 43.6424 -46.9714 0.696 -0.489 -0.526 208 189 58 0
20.9200 42.8765 -46.9496 0.492 -0.857 0.154 189 179 146 0
21.3532 43.0540 -47.0245 0.655 -0.734 0.182 190 183 160 0
21.5599 43.3562 -47.1270 0.466 -0.799 0.380 189 182 164 0
31.7059 31.7737 -44.0496 -0.309 -0.908 0.282 187 177 165 0
33.9845 49.9928 -49.7486 0.839 -0.538 0.081 184 174 163 0
45.9659 65.4355 -55.0521 0.002 -0.454 0.891 177 167 157 0
48.4903 57.3383 -52.6857 0.240 -0.459 -0.855 170 158 146 0
50.3390 55.2563 -52.1337 0.057 -0.951 -0.303 255 254 255 0
50.5600 55.2844 -52.1528 0.110 -0.947 -0.302 254 255 255 0
-17.9500 27.0515 -40.4903 0.424 -0.801 -0.422 135 65 76 0
-15.3783 25.8306 -40.2330 -0.271 -0.953 0.137 127 53 67 0
-14.3581 26.1093 -40.3665 0.348 -0.938 -0.001 123 47 60 0
-7.8465 22.7873 -39.6437 0.270 -0.777 0.568 121 33 47 0
-7.6067 22.7110 -39.6313 0.333 -0.864 0.377 122 32 46 0
-1.9972 25.1842 -40.6563 0.719 -0.613 -0.329 88 21 34 0
-0.8849 26.5577 -41.1323 0.321 -0.789 0.524 78 18 32 0
0.9867 23.4217 -40.2509 0.528 -0.735 0.425 77 17 27 0
1.1914 23.4265 -40.2619 0.118 -0.909 0.400 76 17 28 0
1.3959 23.4316 -40.2730 0.097 -0.924 0.371 73 16 26 0
0.8746 28.0307 -41.6692 -0.247 -0.968 0.043 71 13 25 0
1.3699 26.8848 -41.3383 0.417 -0.875 0.247 70 13 25 0
1.7306 27.1432 -41.4349 0.417 -0.886 0.204 66 14 22 0
1.9564 27.0847 -41.4274 0.417 -0.908 -0.045 66 15 23 0
2.0861 27.4291 -41.5398 0.539 -0.840 -0.068 67 16 24 0
2.0101 28.6527 -41.9141 0.830 -0.549 0.103 67 16 25 0
1.6570 32.0294 -42.9406 -0.314 -0.894 0.319 65 14 21 0
4.0682 34.1586 -43.7104 -0.457 -0.873 0.172 65 23 20 0
5.1756 35.2953 -44.1130 0.518 -0.763 0.386 74 41 27 0
5.6611 35.0840 -44.0704 -0.136 -0.699 0.702 74 43 23 0
5.5053 39.5413 -45.4397 0.893 -0.445 0.068 70 44 18 0
5.3227 41.8047 -46.1303 0.938 -0.167 -0.305 71 47 19 0
5.3621 42.8846 -46.4656 0.900 -0.207 -0.385 70 46 19 0
5.3591 45.5754 -47.2965 -0.148 -0.723 -0.675 67 46 21 0
6.4357 44.8930 -47.1359 -0.463 -0.885 0.035 55 57 26 0
6.7096 44.6805 -47.0830 0.774 -0.619 0.133 56 65 30 0
7.0462 47.0169 -47.8203 -0.218 -0.880 -0.422 59 75 36 0
8.5821 51.4009 -49.2458 0.948 -0.271 -0.168 159 145 46 0
9.4796 53.9292 -50.0684 0.897 -0.146 -0.418 183 166 46 0
15.9416 43.3539 -47.1031 0.869 -0.300 -0.394 208 191 59 0
16.2304 45.1934 -47.6847 0.874 -0.277 -0.399 207 190 57 0
16.7177 42.2486 -46.7979 0.854 -0.444 -0.270 206 189 56 0
16.9021 42.7105 -46.9492 0.771 -0.521 -0.365 206 189 57 0
18.3504 47.5431 -48.5091 0.488 -0.606 -0.628 193 175 73 0
20.6937 42.6810 -47.1166 0.526 -0.843 0.114 177 162 112 0
20.9080 42.8082 -47.1658 0.526 -0.843 0.114 185 171 132 0
21.1264 42.8602 -47.1921 0.652 -0.738 0.174 193 182 148 0
21.3389 43.0329 -47.2553 0.652 -0.738 0.174 193 183 156 0
21.5495 43.2523 -47.3329 0.466 -0.799 0.380 191 182 160 0
21.7589 43.5136 -47.4233 0.443 -0.819 0.363 189 182 165 0
21.9862 43.3794 -47.3924 0.614 -0.776 0.145 189 183 168 0
40.1945 48.7310 -49.8930 -0.435 -0.851 -0.293 181 172 162 0
40.4451 49.0903 -50.0156 0.218 -0.860 0.462 179 170 159 0
46.1436 63.2243 -54.6462 0.239 -0.799 0.552 178 165 157 0
50.3518 55.3447 -52.4085 0.057 -0.951 -0.303 255 255 255 0
50.5713 55.3629 -52.4243 0.057 -0.951 -0.303 254 255 254 0
50.6415 54.5270 -52.1694 -0.375 -0.903 -0.209 254 255 254 0
-8.2721 22.6954 -39.8094 -0.056 -0.931 0.361 119 34 47 0
-7.5927 21.9685 -39.6148 0.360 -0.829 0.428 119 32 46 0
-5.9377 24.6958 -40.5386 -0.614 -0.727 -0.309 118 30 45 0
-2.7332 24.6980 -40.6869 0.868 -0.497 -0.013 93 24 37 0
-0.9455 26.6874 -41.3874 0.742 -0.640 0.202 78 19 32 0
-0.7762 26.8548 -41.4472 0.020 -0.947 0.319 79 20 32 0
-0.5790 26.9176 -41.4758 0.026 -0.922 0.385 78 20 32 0
1.1199 23.6110 -40.5265 0.475 -0.757 0.449 74 16 28 0
1.3792 23.4016 -40.4733 0.298 -0.776 0.556 72 14 26 0
0.5708 28.2884 -41.9548 0.568 -0.746 -0.347 72 14 26 0
0.8194 28.1526 -41.9240 -0.031 -0.978 -0.206 72 14 26 0
2.1257 28.9707 -42.2384 0.200 -0.878 0.436 65 14 21 0
4.2400 34.2884 -43.9884 -0.177 -0.836 0.520 66 25 19 0
5.0381 34.7401 -44.1655 0.608 -0.753 0.252 72 37 25 0
5.4821 39.5394 -45.6775 0.886 -0.455 0.088 71 44 19 0
5.0211 45.9832 -47.6588 -0.148 -0.723 -0.675 68 43 19 0
5.2731 45.9256 -47.6525 -0.148 -0.723 -0.675 65 44 20 0
5.5045 45.9838 -47.6813 -0.679 -0.694 -0.240 60 44 19 0
7.0165 47.0567 -48.0843 -0.291 -0.939 0.184 61 77 37 0
7.2804 46.9179 -48.0533 -0.130 -0.971 0.200 68 81 36 0
8.3952 52.5399 -49.8519 0.995 -0.103 0.012 166 148 47 0
11.9497 47.8554 -48.5597 0.371 -0.560 0.740 204 188 51 0
12.2947 46.9636 -48.2985 0.571 -0.489 0.659 206 190 51 0
12.4876 47.3358 -48.4230 0.499 -0.523 0.691 207 191 50 0
12.6999 47.5505 -48.4995 0.506 -0.178 0.844 208 193 51 0
15.7452 42.8409 -47.1762 0.969 -0.226 -0.099 209 194 55 0
15.9021 43.5821 -47.4137 0.871 -0.303 -0.387 207 191 55 0
16.0058 44.9341 -47.8387 0.973 -0.217 -0.078 208 192 55 0
16.1638 45.7336 -48.0944 0.973 -0.217 -0.078 209 193 56 0
16.7625 41.5359 -46.8174 0.517 -0.491 0.701 208 191 56 0
16.9644 41.7793 -46.9024 0.559 -0.485 0.673 207 190 57 0
17.8885 44.2461 -47.7115 0.546 -0.592 -0.593 201 181 64 0
20.4522 42.7618 -47.3684 0.403 -0.915 -0.001 173 155 84 0
20.6685 42.8571 -47.4079 0.403 -0.915 -0.001 176 161 101 0
20.8949 42.7619 -47.3888 0.525 -0.844 0.112 177 163 113 0
21.1095 42.8889 -47.4381 0.525 -0.844 0.112 186 173 130 0
21.3266 42.9707 -47.4735 0.652 -0.738 0.174 191 180 145 0
22.1679 43.9615 -47.8202 0.697 -0.677 0.237 189 181 168 0
32.3996 30.6130 -44.1430 0.708 -0.627 -0.325 185 175 165 0
40.1923 48.7742 -50.1460 -0.426 -0.854 -0.299 181 172 160 0
40.6285 48.8552 -50.1912 -0.583 -0.761 -0.285 176 166 155 0
47.3219 63.3288 -54.9974 0.848 -0.473 0.240 174 163 154 0
48.9663 60.4465 -54.1775 -0.049 -0.751 -0.658 172 161 148 0
49.7058 55.3875 -52.6393 -0.118 -0.963 -0.244 109 102 93 0
49.9187 55.3618 -52.6411 -0.118 -0.963 -0.244 51 50 50 0
50.6804 56.0058 -52.8764 0.203 -0.933 -0.298 254 255 254 0
-55.5162 16.3235 -35.8790 0.100 -0.979 -0.175 255 255 255 0
-24.6212 27.0804 -40.6500 0.483 -0.829 0.280 231 222 216 0
-18.4719 27.5583 -41.0795 -0.276 -0.931 -0.238 138 69 80 0
-15.4945 25.9472 -40.7113 0.027 -0.880 -0.475 128 56 67 0
-15.3109 26.0543 -40.7532 0.033 -0.880 -0.473 132 59 73 0
-2.6263 24.2379 -40.7629 0.146 -0.805 -0.575 92 23 36 0
-0.9222 25.7126 -41.3017 0.865 -0.440 0.241 80 20 34 0
-0.8487 26.2296 -41.4667 0.139 -0.840 0.525 77 19 31 0
-0.8082 26.8779 -41.6713 -0.012 -0.937 0.350 77 19 31 0
-0.1264 28.3871 -42.1743 0.179 -0.176 0.968 71 15 26 0
0.5436 28.2966 -42.1765 0.544 -0.766 -0.343 70 15 26 0
0.7969 28.1426 -42.1399 0.008 -0.973 -0.229 72 17 28 0
1.0557 28.8412 -42.3701 -0.570 -0.749 -0.337 69 16 24 0
1.9587 28.6636 -42.3557 -0.062 -0.774 0.630 67 16 23 0
2.1597 28.7212 -42.3829 0.190 -0.876 0.444 67 16 23 0
3.5201 29.3371 -42.6375 -0.213 -0.773 -0.598 64 17 25 0
3.6939 34.6607 -44.3101 0.408 -0.262 0.874 65 24 21 0
4.0854 34.9297 -44.4120 0.097 -0.247 0.964 67 28 20 0
4.9208 38.7303 -45.6385 0.711 -0.354 0.608 71 43 19 0
5.4914 39.3620 -45.8620 0.882 -0.463 0.083 72 44 21 0
5.8145 38.8512 -45.7170 0.112 -0.936 0.333 72 45 22 0
7.3477 46.3505 -48.1319 0.683 -0.630 0.370 74 83 34 0
8.3944 52.3843 -50.0664 0.982 -0.148 0.115 175 155 48 0
12.3515 46.3166 -48.3493 0.039 -0.883 0.467 208 193 52 0
14.0666 43.4971 -47.5457 -0.198 -0.946 -0.255 212 199 54 0
15.1998 45.9381 -48.3606 -0.126 -0.287 0.950 210 199 56 0
16.1475 45.7108 -48.3327 0.966 -0.241 -0.090 209 194 56 0
20.4303 42.8688 -47.6391 0.438 -0.896 0.077 175 157 80 0
20.6531 42.8504 -47.6435 0.403 -0.915 -0.001 173 156 89 0
20.8814 42.7235 -47.6142 0.525 -0.844 0.112 174 159 100 0
21.0960 42.8504 -47.6637 0.525 -0.844 0.112 176 162 111 0
21.3109 42.9776 -47.7132 0.525 -0.844 0.112 182 170 126 0
21.5194 43.2425 -47.8056 0.609 -0.759 0.231 190 180 144 0
22.1536 43.9451 -48.0542 0.702 -0.671 0.237 189 181 168 0
22.1566 49.3879 -49.7563 0.766 -0.626 0.149 189 181 170 0
40.6324 48.9537 -50.4620 -0.583 -0.761 -0.285 176 165 153 0
40.0229 26.2663 -43.3399 0.959 -0.278 -0.054 175 165 153 0
40.3403 27.4338 -43.7194 0.959 -0.278 -0.054 174 165 153 0
50.5939 55.5195 -52.9689 0.015 -0.952 -0.305 254 255 254 0
-24.1561 29.0161 -41.5109 0.568 -0.625 0.536 227 217 210 0
-18.2602 26.9821 -41.1365 -0.187 -0.934 0.305 138 71 83 0
-17.9543 26.8092 -41.0959 -0.200 -0.936 0.289 137 69 80 0
-18.0448 27.5644 -41.3294 -0.478 -0.871 -0.112 136 67 78 0
-17.5134 26.8599 -41.1317 -0.391 -0.915 -0.103 135 65 77 0
-17.1544 26.5562 -41.0523 -0.101 -0.995 0.026 131 60 74 0
-16.6351 26.4136 -41.0309 -0.155 -0.880 0.449 129 58 74 0
-6.3441 23.1357 -40.4631 0.160 -0.964 0.210 116 28 45 0
-6.1624 23.2314 -40.5014 -0.016 -0.994 -0.105 116 28 46 0
-5.3936 22.8260 -40.4085 0.386 -0.915 -0.119 118 31 47 0
-5.2043 22.8957 -40.4389 0.410 -0.901 -0.140 117 32 46 0
-2.2028 24.8814 -41.1989 0.370 -0.884 -0.286 90 24 36 0
-2.2039 26.3966 -41.6756 -0.779 -0.587 0.223 88 25 34 0
-0.8492 26.1353 -41.6544 0.144 -0.846 0.513 78 20 30 0
-0.9218 27.2077 -41.9885 0.536 -0.795 0.282 76 19 31 0
-0.2105 28.6159 -42.4636 0.061 -0.396 0.916 69 16 26 0
0.4728 28.4788 -42.4513 0.524 -0.804 -0.282 70 17 27 0
0.7671 28.1618 -42.3648 -0.328 -0.932 0.152 70 17 26 0
0.4538 30.3085 -43.0261 -0.398 -0.799 0.451 71 18 27 0
2.1729 28.5609 -42.5537 0.116 -0.907 0.404 68 18 24 0
1.7107 31.4757 -43.4500 0.251 -0.593 -0.765 68 18 24 0
3.6186 33.8407 -44.2800 0.795 -0.146 0.589 66 26 23 0
3.7281 34.3809 -44.4549 0.436 -0.294 0.851 66 26 21 0
3.8967 34.6441 -44.5453 0.120 -0.241 0.963 67 28 21 0
4.9387 38.5117 -45.8091 0.711 -0.348 0.611 72 44 20 0
4.8524 46.6533 -48.3669 -0.260 -0.956 -0.135 64 44 22 0
5.1030 46.6129 -48.3654 -0.288 -0.951 -0.116 58 44 21 0
7.4671 45.4572 -48.1083 0.930 -0.300 0.213 85 89 34 0
12.3279 46.3436 -48.6061 0.105 -0.593 0.799 209 196 53 0
12.5542 46.4233 -48.6414 0.078 -0.621 0.780 211 198 54 0
12.9952 46.6863 -48.7440 0.706 -0.284 0.649 213 199 57 0
14.2691 41.4525 -47.1547 0.460 -0.881 -0.109 213 201 57 0
14.7068 39.4587 -46.5471 -0.102 -0.995 -0.022 214 202 58 0
15.9670 44.9576 -48.3340 0.984 -0.175 -0.033 211 196 57 0
17.5381 48.3548 -49.4736 0.160 -0.751 -0.641 202 187 62 0
20.2078 42.6054 -47.7849 0.768 -0.606 0.207 180 160 74 0
20.4185 42.7982 -47.8551 0.454 -0.889 0.051 176 157 77 0
20.6298 42.9895 -47.9248 0.449 -0.892 0.048 173 155 83 0
20.8594 42.8450 -47.8897 0.056 -0.970 0.237 171 153 91 0
21.0780 42.9007 -47.9170 0.017 -0.982 0.190 173 157 100 0
21.2903 43.0823 -47.9837 0.459 -0.876 0.148 175 161 109 0
21.5010 43.3096 -48.0647 0.681 -0.708 0.186 181 169 124 0
21.7164 43.4449 -48.1170 0.716 -0.663 0.219 189 179 144 0
31.9711 29.8485 -44.3010 0.711 -0.672 0.205 183 174 165 0
40.0675 26.6716 -43.6661 0.960 -0.274 -0.052 174 166 153 0
40.3923 27.8936 -44.0653 0.958 -0.279 -0.061 174 166 153 0
46.6248 61.7242 -54.9903 0.720 -0.681 -0.134 174 164 154 0
48.3885 52.6374 -52.2107 0.288 -0.818 -0.498 171 158 142 0
49.5082 55.5409 -53.1747 -0.105 -0.967 -0.234 167 155 140 0
50.1588 55.5280 -53.1999 0.050 -0.955 -0.294 247 247 245 0
50.6102 55.6274 -53.2515 0.316 -0.902 -0.296 254 255 254 0
-25.4699 34.8788 -43.5431 0.723 -0.516 0.459 218 205 197 0
-18.8028 28.1574 -41.7122 -0.221 -0.930 0.295 138 74 86 0
-18.5373 28.0853 -41.7012 -0.037 -0.936 0.350 137 71 83 0
-18.3090 28.0992 -41.7158 -0.017 -0.913 0.409 136 69 81 0
-18.0600 28.0639 -41.7157 -0.120 -0.914 -0.388 137 68 80 0
-17.9945 28.4624 -41.8448 0.186 -0.917 -0.354 132 64 77 0
-17.7785 28.5060 -41.8682 0.219 -0.962 -0.161 133 62 78 0
-17.6193 28.6855 -41.9321 0.263 -0.937 0.231 131 60 76 0
-17.4364 28.8093 -41.9794 0.249 -0.949 0.194 128 57 72 0
-15.7058 26.2953 -41.2607 0.069 -0.853 -0.517 127 55 69 0
-4.1971 23.6478 -40.9351 -0.389 -0.885 0.255 105 28 43 0
-2.2517 24.9604 -41.4373 0.379 -0.878 -0.292 90 23 36 0
-0.8466 26.0297 -41.8384 0.214 -0.823 0.526 78 19 29 0
-0.9433 27.1910 -42.2017 0.554 -0.794 0.250 76 20 29 0
0.7649 28.0696 -42.5559 -0.316 -0.932 0.179 68 17 24 0
0.7048 29.1858 -42.9066 0.096 -0.956 0.277 71 20 27 0
3.1675 30.7231 -43.5030 0.980 -0.113 -0.165 65 19 23 0
3.6801 33.4344 -44.3841 0.781 -0.145 0.608 65 26 22 0
3.8286 33.7841 -44.5014 0.676 -0.161 0.719 67 28 22 0
4.8574 38.8134 -46.1394 0.711 -0.291 0.640 73 45 23 0
4.6543 41.1050 -46.8557 0.877 -0.212 -0.432 72 45 23 0
4.7786 42.9616 -47.4490 0.864 -0.208 -0.458 72 45 23 0
4.7655 47.0012 -48.7273 -0.221 -0.941 -0.256 60 45 20 0
5.0262 46.9086 -48.7095 -0.361 -0.910 -0.203 54 46 19 0
5.6582 47.4845 -48.9200 0.140 -0.755 -0.640 51 59 26 0
5.6876 51.7273 -50.2645 -0.328 -0.483 0.812 59 75 35 0
11.3625 33.0005 -44.5889 -0.147 -0.879 -0.454 190 170 46 0
12.3317 46.1413 -48.7920 0.548 -0.286 0.786 210 200 52 0
12.8134 46.0459 -48.7833 0.572 -0.313 0.758 212 201 57 0
14.2634 41.3307 -47.3552 0.543 -0.813 -0.210 213 201 57 0
19.7930 41.8791 -47.7751 0.142 -0.947 -0.289 186 168 67 0
20.4077 42.7099 -48.0655 0.722 -0.637 0.271 177 159 72 0
20.8458 42.8076 -48.1159 0.373 -0.928 -0.018 172 155 84 0
21.0612 42.9247 -48.1626 0.005 -0.981 0.195 171 154 90 0
21.4907 43.2026 -48.2696 0.685 -0.703 0.190 174 161 109 0
21.9173 43.5752 -48.4066 0.715 -0.670 0.201 190 182 153 0
28.2374 17.7021 -40.4975 0.195 -0.753 -0.628 189 181 170 0
28.7466 30.6745 -44.6268 0.268 -0.793 -0.548 186 177 168 0
40.4282 49.1774 -51.0045 -0.558 -0.785 -0.268 178 168 156 0
40.0743 26.7649 -43.8937 0.963 -0.267 -0.043 174 166 153 0
46.2289 60.5478 -54.8624 0.510 -0.860 -0.019 174 161 154 0
46.6193 61.7194 -55.2507 0.765 -0.640 -0.072 175 163 156 0
49.5160 55.6053 -53.4441 -0.105 -0.967 -0.234 167 155 141 0
50.1724 55.6225 -53.4788 0.054 -0.955 -0.291 247 247 245 0
50.6266 55.7352 -53.5347 0.308 -0.906 -0.290 254 255 254 0
-57.6671 20.4017 -37.7613 0.271 -0.835 -0.479 230 220 217 0
-57.4648 20.4733 -37.7930 0.236 -0.841 -0.486 231 222 217 0
-24.6253 26.8434 -41.2679 0.600 -0.765 0.233 230 222 219 0
-18.3977 28.2219 -41.9811 0.062 -0.875 0.479 138 70 83 0
-16.8162 26.6784 -41.5592 0.219 -0.918 -0.331 132 61 77 0
-15.8406 27.1020 -41.7370 -0.252 -0.966 -0.058 129 53 68 0
-15.5082 26.8489 -41.6711 -0.197 -0.958 -0.207 130 53 68 0
-13.0373 25.7651 -41.4347 -0.368 -0.917 -0.152 126 46 58 0
-10.3536 25.1429 -41.3547 -0.309 -0.895 -0.322 121 38 52 0
-9.9044 25.1208 -41.3674 -0.427 -0.814 -0.394 119 37 51 0
-5.6615 22.8247 -40.8229 -0.367 -0.892 -0.265 117 31 48 0
-4.2623 23.0842 -40.9672 0.469 -0.866 -0.173 105 29 45 0
-2.3181 25.1003 -41.6949 0.390 -0.878 -0.278 91 24 38 0
-0.8417 25.9152 -42.0195 0.214 -0.823 0.526 76 18 30 0
-0.9655 27.1767 -42.4158 0.553 -0.784 0.282 75 20 29 0
-0.4175 26.7265 -42.2965 0.681 -0.646 0.345 72 19 30 0
3.1067 30.8901 -43.7778 0.981 -0.106 -0.160 69 23 26 0
