ply
format ascii 1.0
element vertex 840
property float x
property float y
property float z
property float nx
property float ny
property float nz
property uchar diffuse_red
property uchar diffuse_green
property uchar diffuse_blue
property uchar class
end_header
14.1494 40.2440 -63.6084 0.731 0.645 0.220 235 234 205 0
13.7772 40.6555 -63.5784 0.731 0.645 0.220 236 236 205 0
20.3152 47.3677 -54.2502 0.690 0.698 0.193 85 168 119 0
20.1123 47.5683 -54.2506 0.690 0.698 0.193 79 169 117 0
17.8627 49.2233 -54.6579 0.990 -0.047 -0.130 56 163 107 0
17.8929 49.4189 -54.4984 0.990 -0.047 -0.130 54 163 105 0
17.7792 51.1923 -53.3245 0.919 -0.335 0.210 43 165 104 0
17.8131 51.3856 -53.1642 0.919 -0.335 0.210 43 166 103 0
17.8469 51.5786 -53.0040 0.919 -0.335 0.210 43 166 105 0
17.8806 51.7713 -52.8441 0.919 -0.335 0.210 44 168 106 0
18.3256 51.9338 -52.4173 0.898 -0.368 0.243 43 167 105 0
18.3607 52.1251 -52.2574 0.898 -0.368 0.243 43 167 105 0
18.3958 52.3161 -52.0978 0.898 -0.368 0.243 41 165 103 0
18.4309 52.5069 -51.9384 0.898 -0.368 0.243 35 160 97 0
18.4659 52.6973 -51.7793 0.898 -0.368 0.243 33 159 96 0
18.5009 52.8874 -51.6204 0.898 -0.368 0.243 31 156 94 0
18.5358 53.0773 -51.4617 0.898 -0.368 0.243 27 152 90 0
18.5706 53.2668 -51.3033 0.898 -0.368 0.243 24 148 86 0
18.6054 53.4561 -51.1451 0.898 -0.368 0.243 21 145 83 0
18.6401 53.6451 -50.9871 0.898 -0.368 0.243 20 142 82 0
19.0593 53.7988 -50.5847 0.907 -0.352 0.229 19 140 81 0
19.0928 53.9866 -50.4284 0.907 -0.352 0.229 18 136 77 0
19.1236 54.1744 -50.2741 0.906 -0.347 0.243 19 135 75 0
19.1597 54.3614 -50.1166 0.907 -0.352 0.229 19 134 75 0
19.1931 54.5484 -49.9610 0.907 -0.352 0.229 20 134 75 0
19.2264 54.7351 -49.8056 0.907 -0.352 0.229 19 133 74 0
19.2597 54.9215 -49.6505 0.907 -0.352 0.229 19 132 74 0
19.2929 55.1077 -49.4956 0.907 -0.352 0.229 18 131 72 0
19.3261 55.2935 -49.3410 0.907 -0.352 0.229 18 129 71 0
19.3592 55.4791 -49.1866 0.907 -0.352 0.229 19 127 71 0
19.3923 55.6645 -49.0324 0.907 -0.352 0.229 18 126 70 0
20.1459 55.7695 -48.4298 0.908 -0.358 0.218 17 125 72 0
20.1811 55.9527 -48.2756 0.908 -0.358 0.218 18 125 73 0
14.0445 71.9777 -41.2499 0.292 -0.043 0.956 39 114 71 0
3.0079 107.9065 -23.5898 0.983 0.149 0.106 153 139 131 0
2.9656 108.1066 -23.4780 0.983 0.149 0.106 100 90 86 0
2.9232 108.3067 -23.3663 0.983 0.149 0.106 51 50 51 0
2.4086 108.7577 -23.4083 0.985 0.134 0.108 245 247 247 0
2.3690 108.9570 -23.2952 0.985 0.134 0.108 255 255 253 0
2.3294 109.1563 -23.1820 0.985 0.134 0.108 254 255 254 0
3.7502 108.5735 -22.5979 0.983 0.137 0.121 254 255 255 0
40.5365 13.0147 -64.6380 0.592 0.520 0.616 255 255 255 0
40.2555 13.0968 -64.7777 0.585 0.573 0.574 255 255 255 0
39.9731 13.1794 -64.9181 0.585 0.572 0.575 135 135 135 0
14.3118 40.1586 -63.8977 0.731 0.645 0.220 234 233 207 0
14.1261 40.3640 -63.8830 0.731 0.645 0.220 235 234 207 0
20.2686 47.4876 -54.5172 0.690 0.698 0.193 85 170 121 0
18.3444 48.1408 -55.4099 0.693 0.555 0.460 71 166 114 0
18.1677 48.3450 -55.3899 0.693 0.555 0.460 66 163 113 0
17.9905 48.5497 -55.3698 0.693 0.555 0.460 66 163 112 0
17.7439 48.7578 -55.3961 0.990 -0.047 -0.130 66 163 112 0
17.8954 49.7381 -54.5959 0.990 -0.047 -0.130 53 163 107 0
18.3849 51.8587 -52.7506 0.898 -0.368 0.243 42 165 103 0
18.4551 52.2414 -52.4304 0.898 -0.368 0.243 42 166 104 0
18.4901 52.4323 -52.2706 0.898 -0.368 0.243 40 166 103 0
18.5601 52.8133 -51.9518 0.898 -0.368 0.243 39 167 103 0
18.5949 53.0033 -51.7928 0.898 -0.368 0.243 40 167 104 0
18.6298 53.1931 -51.6340 0.898 -0.368 0.243 38 167 103 0
18.6645 53.3825 -51.4755 0.898 -0.368 0.243 37 165 101 0
18.6993 53.5717 -51.3172 0.898 -0.368 0.243 34 160 97 0
19.1145 53.7262 -50.9154 0.907 -0.352 0.229 32 158 95 0
19.1480 53.9142 -50.7588 0.907 -0.352 0.229 28 152 90 0
19.1815 54.1019 -50.6024 0.907 -0.352 0.229 24 147 86 0
19.2140 54.2895 -50.4468 0.906 -0.347 0.243 23 143 82 0
19.2483 54.4766 -50.2903 0.907 -0.352 0.229 22 141 80 0
19.2816 54.6635 -50.1346 0.907 -0.352 0.229 20 139 79 0
19.3148 54.8501 -49.9791 0.907 -0.352 0.229 18 138 77 0
19.3480 55.0364 -49.8239 0.907 -0.352 0.229 18 137 76 0
19.3812 55.2225 -49.6689 0.907 -0.352 0.229 18 136 76 0
19.4143 55.4083 -49.5141 0.907 -0.352 0.229 18 133 74 0
19.4474 55.5938 -49.3595 0.907 -0.352 0.229 18 131 73 0
19.4804 55.7791 -49.2052 0.907 -0.352 0.229 17 129 72 0
19.5134 55.9641 -49.0511 0.907 -0.352 0.229 17 128 73 0
20.2672 56.0665 -48.4477 0.908 -0.358 0.218 19 127 75 0
20.3023 56.2494 -48.2936 0.908 -0.358 0.218 21 126 75 0
20.3374 56.4320 -48.1397 0.908 -0.358 0.218 21 125 72 0
2.9626 108.2773 -23.6892 0.983 0.149 0.106 98 88 84 0
2.9202 108.4776 -23.5773 0.983 0.149 0.106 52 50 51 0
2.4084 108.9278 -23.6191 0.985 0.134 0.108 246 246 247 0
2.3688 109.1272 -23.5059 0.985 0.134 0.108 255 254 253 0
2.3292 109.3267 -23.3926 0.985 0.134 0.108 254 255 253 0
3.7523 108.7407 -22.8051 0.983 0.137 0.121 255 255 255 0
40.1765 13.1396 -65.0853 0.585 0.572 0.575 255 255 255 0
20.2218 47.6077 -54.7850 0.690 0.698 0.193 86 172 124 0
18.3880 48.2603 -55.6197 0.693 0.555 0.460 71 166 116 0
18.2113 48.4647 -55.5999 0.693 0.555 0.460 66 163 113 0
17.2169 48.9030 -55.9927 0.698 0.534 0.477 67 164 113 0
17.0425 49.1101 -55.9695 0.698 0.534 0.477 66 164 113 0
16.1638 50.1526 -55.8525 0.698 0.534 0.477 51 163 107 0
15.9868 50.3626 -55.8289 0.698 0.534 0.477 48 164 107 0
18.9001 52.1376 -52.5112 0.907 -0.352 0.229 42 164 103 0
18.9340 52.3281 -52.3523 0.907 -0.352 0.229 42 164 103 0
18.5844 52.5485 -52.4434 0.898 -0.368 0.243 39 163 101 0
18.6193 52.7390 -52.2838 0.898 -0.368 0.243 39 163 102 0
18.6542 52.9293 -52.1244 0.898 -0.368 0.243 41 164 104 0
18.6890 53.1192 -51.9652 0.898 -0.368 0.243 41 166 105 0
18.7238 53.3089 -51.8063 0.898 -0.368 0.243 41 168 106 0
18.7585 53.4982 -51.6477 0.898 -0.368 0.243 40 166 105 0
19.1699 53.6535 -51.2467 0.907 -0.352 0.229 41 166 105 0
19.2034 53.8417 -51.0897 0.907 -0.352 0.229 41 165 105 0
19.2435 54.0290 -50.9286 0.906 -0.347 0.243 41 164 104 0
19.2740 54.2169 -50.7740 0.906 -0.347 0.243 39 161 102 0
19.3044 54.4046 -50.6195 0.906 -0.347 0.243 34 156 95 0
19.3368 54.5918 -50.4640 0.907 -0.352 0.229 28 150 89 0
19.3701 54.7786 -50.3082 0.907 -0.352 0.229 25 147 86 0
19.4033 54.9651 -50.1526 0.907 -0.352 0.229 23 146 85 0
19.4364 55.1514 -49.9972 0.907 -0.352 0.229 22 144 83 0
19.4695 55.3374 -49.8421 0.907 -0.352 0.229 21 142 82 0
19.5026 55.5231 -49.6872 0.907 -0.352 0.229 18 138 78 0
19.5356 55.7085 -49.5325 0.907 -0.352 0.229 17 135 75 0
20.2831 55.8139 -48.9291 0.908 -0.358 0.218 19 134 76 0
20.3182 55.9973 -48.7744 0.908 -0.358 0.218 20 133 77 0
20.3533 56.1803 -48.6199 0.908 -0.358 0.218 19 131 75 0
20.3884 56.3631 -48.4657 0.908 -0.358 0.218 20 128 74 0
14.1541 78.4458 -37.2338 0.312 -0.208 0.927 188 188 188 0
2.5272 108.4992 -24.1704 0.985 0.134 0.108 152 135 130 0
2.4876 108.6989 -24.0570 0.985 0.134 0.108 98 87 83 0
2.9172 108.6487 -23.7887 0.983 0.149 0.106 52 50 51 0
2.4083 109.0981 -23.8303 0.985 0.134 0.108 246 246 247 0
2.3687 109.2977 -23.7169 0.985 0.134 0.108 255 254 253 0
2.3290 109.4973 -23.6036 0.985 0.134 0.108 254 254 253 0
3.7544 108.9082 -23.0127 0.983 0.137 0.121 255 255 255 0
40.5251 13.1543 -65.1101 0.585 0.573 0.574 255 255 255 0
40.2440 13.2372 -65.2510 0.585 0.572 0.575 255 255 255 0
11.8707 39.0087 -67.1348 0.942 0.307 -0.137 235 236 214 0
12.3362 39.2477 -66.6346 0.795 -0.606 0.036 236 235 214 0
12.6520 39.6945 -66.0936 0.795 -0.606 0.036 237 232 212 0
13.1985 39.9318 -65.5370 0.962 0.230 -0.149 236 232 212 0
20.1749 47.7281 -55.0534 0.690 0.698 0.193 86 173 126 0
19.9710 47.9300 -55.0551 0.690 0.698 0.193 82 171 124 0
18.2549 48.5846 -55.8101 0.693 0.555 0.460 68 165 114 0
18.0777 48.7898 -55.7905 0.693 0.555 0.460 68 165 114 0
17.9001 48.9955 -55.7709 0.693 0.555 0.460 67 164 113 0
17.0922 49.2311 -56.1777 0.698 0.534 0.477 65 163 111 0
16.3900 50.0651 -56.0852 0.698 0.534 0.477 55 162 109 0
18.6787 52.6647 -52.6162 0.898 -0.368 0.243 42 161 103 0
18.7136 52.8551 -52.4565 0.898 -0.368 0.243 42 161 103 0
18.7483 53.0452 -52.2970 0.898 -0.368 0.243 42 163 105 0
18.8178 53.4247 -51.9786 0.898 -0.368 0.243 40 165 105 0
18.8524 53.6139 -51.8198 0.898 -0.368 0.243 39 164 104 0
19.2922 53.9572 -51.2640 0.907 -0.352 0.229 41 164 106 0
19.3256 54.1451 -51.1071 0.907 -0.352 0.229 41 164 106 0
19.3589 54.3327 -50.9504 0.907 -0.352 0.229 42 164 106 0
19.3922 54.5200 -50.7940 0.907 -0.352 0.229 41 164 104 0
19.4254 54.7070 -50.6378 0.907 -0.352 0.229 38 163 102 0
19.4586 54.8937 -50.4818 0.907 -0.352 0.229 40 166 104 0
19.4917 55.0802 -50.3261 0.907 -0.352 0.229 38 161 102 0
19.5248 55.2663 -50.1706 0.907 -0.352 0.229 33 157 97 0
20.2638 55.3764 -49.5676 0.908 -0.358 0.218 32 155 96 0
20.2990 55.5606 -49.4120 0.908 -0.358 0.218 30 153 93 0
20.3342 55.7444 -49.2567 0.908 -0.358 0.218 25 146 87 0
20.3693 55.9279 -49.1016 0.908 -0.358 0.218 21 141 82 0
20.4044 56.1112 -48.9467 0.908 -0.358 0.218 23 141 82 0
20.4394 56.2942 -48.7921 0.908 -0.358 0.218 21 138 80 0
20.4744 56.4769 -48.6377 0.908 -0.358 0.218 20 134 78 0
20.5093 56.6593 -48.4835 0.908 -0.358 0.218 20 133 76 0
20.5442 56.8414 -48.3296 0.908 -0.358 0.218 20 133 75 0
12.1831 78.8380 -38.6735 0.462 -0.710 0.531 186 186 188 0
2.5272 108.6694 -24.3821 0.985 0.134 0.108 152 134 129 0
2.4875 108.8692 -24.2687 0.985 0.134 0.108 98 87 83 0
2.9141 108.8201 -24.0004 0.983 0.149 0.106 51 50 50 0
2.4081 109.2688 -24.0417 0.985 0.134 0.108 246 246 247 0
2.3685 109.4685 -23.9283 0.985 0.134 0.108 255 254 252 0
2.3288 109.6682 -23.8149 0.985 0.134 0.108 254 254 253 0
40.5922 13.2515 -65.2757 0.585 0.573 0.574 255 255 255 0
40.3116 13.3347 -65.4168 0.585 0.572 0.575 255 255 255 0
40.1759 13.4723 -65.4160 0.585 0.572 0.575 135 135 136 0
17.9210 46.7277 -57.6930 0.628 -0.738 0.247 207 221 198 0
20.1279 47.8489 -55.3226 0.690 0.698 0.193 87 173 126 0
19.9236 48.0513 -55.3247 0.690 0.698 0.193 84 170 124 0
17.8423 50.3069 -55.2089 0.990 -0.047 -0.130 51 163 109 0
18.4174 53.3908 -52.6098 0.919 -0.335 0.210 42 162 106 0
18.9463 53.7296 -51.9920 0.898 -0.368 0.243 39 161 104 0
19.3810 54.0728 -51.4383 0.907 -0.352 0.229 40 161 105 0
19.4144 54.2605 -51.2812 0.907 -0.352 0.229 39 160 103 0
19.4476 54.4480 -51.1244 0.907 -0.352 0.229 39 162 103 0
19.4808 54.6352 -50.9679 0.907 -0.352 0.229 38 162 102 0
19.5140 54.8222 -50.8115 0.907 -0.352 0.229 38 164 103 0
19.5471 55.0088 -50.6554 0.907 -0.352 0.229 39 167 105 0
20.4205 55.8584 -49.4293 0.908 -0.358 0.218 39 164 104 0
20.4556 56.0419 -49.2740 0.908 -0.358 0.218 36 160 99 0
20.4906 56.2251 -49.1190 0.908 -0.358 0.218 31 155 94 0
20.5256 56.4080 -48.9643 0.908 -0.358 0.218 29 151 92 0
20.5605 56.5906 -48.8098 0.908 -0.358 0.218 28 148 90 0
20.5953 56.7730 -48.6555 0.908 -0.358 0.218 26 145 86 0
20.9812 56.9118 -48.2816 0.910 -0.355 0.215 22 142 83 0
18.9441 79.1171 -33.9755 0.895 -0.018 0.445 188 188 183 0
2.5271 108.8399 -24.5942 0.985 0.134 0.108 150 134 126 0
2.4874 109.0398 -24.4807 0.985 0.134 0.108 97 86 82 0
2.4477 109.2397 -24.3671 0.985 0.134 0.108 51 50 51 0
2.4080 109.4397 -24.2535 0.985 0.134 0.108 246 246 247 0
2.3683 109.6395 -24.1400 0.985 0.134 0.108 255 255 253 0
2.3286 109.8394 -24.0265 0.985 0.134 0.108 254 255 254 0
40.6594 13.3486 -65.4413 0.585 0.573 0.574 255 255 255 0
40.3792 13.4323 -65.5827 0.585 0.572 0.575 255 255 255 0
40.2436 13.5700 -65.5820 0.585 0.572 0.575 135 135 135 0
20.4281 46.3960 -56.4618 0.627 -0.739 0.246 211 223 203 0
18.1038 46.8444 -57.8089 0.628 -0.738 0.247 206 221 200 0
20.0807 47.9700 -55.5925 0.690 0.698 0.193 94 174 129 0
19.8762 48.1728 -55.5950 0.690 0.698 0.193 88 171 125 0
16.4993 50.7085 -56.2136 0.287 0.005 0.958 53 163 110 0
16.3523 50.9171 -56.1707 0.287 0.005 0.958 54 162 110 0
18.5344 53.6985 -52.6309 0.919 -0.335 0.210 43 159 106 0
20.5068 55.9725 -49.6019 0.908 -0.358 0.218 38 165 104 0
20.5418 56.1559 -49.4465 0.908 -0.358 0.218 40 165 105 0
20.5768 56.3390 -49.2914 0.908 -0.358 0.218 39 163 103 0
20.6117 56.5218 -49.1365 0.908 -0.358 0.218 41 165 105 0
20.6465 56.7044 -48.9818 0.908 -0.358 0.218 40 164 104 0
21.0314 56.8438 -48.6070 0.910 -0.355 0.215 35 159 99 0
21.0659 57.0251 -48.4534 0.910 -0.355 0.215 32 156 96 0
2.5271 109.0106 -24.8067 0.985 0.134 0.108 151 134 127 0
2.4873 109.2107 -24.6930 0.985 0.134 0.108 97 86 82 0
2.4476 109.4108 -24.5793 0.985 0.134 0.108 51 50 51 0
2.4079 109.6108 -24.4657 0.985 0.134 0.108 245 246 247 0
2.3681 109.8108 -24.3520 0.985 0.134 0.108 255 255 253 0
2.3284 110.0109 -24.2384 0.985 0.134 0.108 254 255 255 0
3.7608 109.4122 -23.6372 0.983 0.137 0.121 254 255 255 0
40.7266 13.4458 -65.6070 0.585 0.573 0.574 255 255 255 0
40.4468 13.5299 -65.7486 0.585 0.572 0.575 255 255 255 0
40.3113 13.6678 -65.7481 0.585 0.572 0.575 135 136 136 0
20.0335 48.0914 -55.8631 0.690 0.698 0.193 99 174 132 0
19.8285 48.2947 -55.8661 0.690 0.698 0.193 91 171 127 0
16.7477 50.8186 -56.2887 0.287 0.005 0.958 58 163 114 0
18.6842 54.1955 -52.4934 0.919 -0.335 0.210 43 159 104 0
18.7171 54.3850 -52.3350 0.919 -0.335 0.210 43 160 105 0
20.5931 56.0866 -49.7745 0.908 -0.358 0.218 35 161 101 0
20.6281 56.2699 -49.6190 0.908 -0.358 0.218 40 165 105 0
20.6630 56.4529 -49.4637 0.908 -0.358 0.218 40 164 104 0
20.6978 56.6357 -49.3087 0.908 -0.358 0.218 39 163 103 0
20.7326 56.8181 -49.1539 0.908 -0.358 0.218 39 164 104 0
21.1161 56.9572 -48.7789 0.910 -0.355 0.215 38 164 103 0
21.1506 57.1385 -48.6252 0.910 -0.355 0.215 37 163 102 0
21.1849 57.3195 -48.4717 0.910 -0.355 0.215 38 163 102 0
2.5270 109.1815 -25.0194 0.985 0.134 0.108 153 136 129 0
2.4872 109.3818 -24.9057 0.985 0.134 0.108 98 87 83 0
2.4475 109.5820 -24.7919 0.985 0.134 0.108 51 50 51 0
2.4077 109.7822 -24.6781 0.985 0.134 0.108 245 246 246 0
2.3680 109.9824 -24.5644 0.985 0.134 0.108 255 255 253 0
2.3282 110.1826 -24.4507 0.985 0.134 0.108 254 255 254 0
3.7629 109.5807 -23.8460 0.983 0.137 0.121 254 255 255 0
40.6497 13.4898 -65.9149 0.585 0.572 0.575 255 255 255 0
40.5145 13.6275 -65.9146 0.585 0.572 0.575 255 255 255 0
40.3790 13.7655 -65.9142 0.585 0.572 0.575 136 136 135 0
40.2432 13.9039 -65.9139 0.585 0.572 0.575 68 67 66 0
19.9861 48.2132 -56.1345 0.690 0.698 0.193 100 173 132 0
19.7808 48.4169 -56.1379 0.690 0.698 0.193 91 171 129 0
19.5749 48.6212 -56.1413 0.690 0.698 0.193 85 171 126 0
19.3738 49.0221 -56.0012 0.686 0.705 0.180 75 170 122 0
20.7028 55.2592 -50.6004 0.907 -0.366 0.209 40 160 103 0
21.3214 56.3125 -49.4035 0.554 -0.048 0.831 40 161 103 0
20.7492 56.5669 -49.6361 0.908 -0.358 0.218 39 161 104 0
20.7839 56.7495 -49.4809 0.908 -0.358 0.218 39 161 103 0
20.8186 56.9319 -49.3260 0.908 -0.358 0.218 38 162 102 0
21.2009 57.0706 -48.9509 0.910 -0.355 0.215 37 162 101 0
21.2353 57.2518 -48.7971 0.910 -0.355 0.215 37 163 102 0
21.2696 57.4328 -48.6434 0.910 -0.355 0.215 38 163 103 0
21.3039 57.6134 -48.4900 0.910 -0.355 0.215 38 164 103 0
21.3722 57.9740 -48.1839 0.910 -0.355 0.215 37 162 102 0
55.8358 78.8293 -8.4232 0.419 -0.779 0.466 152 140 132 0
2.5269 109.3528 -25.2325 0.985 0.134 0.108 150 134 127 0
2.4871 109.5532 -25.1187 0.985 0.134 0.108 97 86 83 0
2.4474 109.7536 -25.0048 0.985 0.134 0.108 50 48 49 0
2.3141 110.0045 -24.9225 0.976 0.146 0.164 245 245 246 0
2.2647 110.2102 -24.8118 0.976 0.146 0.164 255 255 253 0
2.0279 110.5178 -24.7640 0.943 0.268 0.198 254 254 253 0
3.7650 109.7494 -24.0552 0.983 0.137 0.121 255 255 255 0
40.7173 13.5873 -66.0807 0.585 0.572 0.575 255 255 255 0
40.5822 13.7252 -66.0805 0.585 0.572 0.575 255 255 255 0
40.4467 13.8633 -66.0804 0.585 0.572 0.575 135 135 135 0
40.3110 14.0018 -66.0803 0.585 0.572 0.575 69 66 66 0
19.9386 48.3352 -56.4065 0.690 0.698 0.193 104 174 135 0
19.7329 48.5394 -56.4103 0.690 0.698 0.193 91 172 130 0
19.7384 48.7351 -56.2669 0.686 0.705 0.180 86 173 129 0
16.9511 51.4545 -56.3529 0.287 0.005 0.958 61 165 114 0
20.8701 56.8634 -49.6531 0.908 -0.358 0.218 40 159 103 0
21.9900 57.0952 -48.6748 0.906 -0.357 0.225 39 160 102 0
21.3542 57.5460 -48.8151 0.910 -0.355 0.215 36 159 101 0
21.3884 57.7266 -48.6616 0.910 -0.355 0.215 37 160 101 0
11.0155 73.1288 -45.2177 0.575 -0.305 0.759 31 111 68 0
10.9730 73.3316 -45.1041 0.575 -0.305 0.759 31 112 70 0
2.6153 109.1185 -25.6710 0.943 0.268 0.198 151 133 129 0
2.4728 109.5534 -25.4645 0.976 0.146 0.164 147 132 126 0
2.4233 109.7592 -25.3538 0.976 0.146 0.164 97 86 82 0
2.4472 109.9254 -25.2180 0.985 0.134 0.108 49 48 49 0
2.3245 110.1709 -25.1322 0.976 0.146 0.164 245 245 246 0
2.2750 110.3767 -25.0214 0.976 0.146 0.164 255 255 253 0
2.0233 110.6929 -24.9789 0.943 0.268 0.198 255 254 253 0
3.7672 109.9184 -24.2646 0.983 0.137 0.121 255 255 255 0
40.6498 13.8229 -66.2466 0.585 0.572 0.575 255 255 255 0
40.0329 13.7862 -66.7227 0.581 0.598 0.552 136 136 136 0
40.3788 14.0998 -66.2467 0.585 0.572 0.575 69 66 65 0
19.4630 48.2780 -57.1195 0.652 0.744 0.150 146 195 165 0
19.2325 48.4843 -57.1405 0.652 0.744 0.150 107 174 137 0
19.0012 48.6912 -57.1615 0.652 0.744 0.150 97 175 135 0
19.6844 48.8584 -56.5441 0.686 0.705 0.180 90 174 132 0
16.7997 50.3922 -57.5536 0.994 -0.112 0.010 72 168 121 0
17.0105 50.5798 -57.2660 0.294 0.003 0.956 72 166 119 0
17.7784 50.7325 -56.5971 0.287 0.005 0.958 71 165 118 0
16.5778 51.2062 -57.1348 0.294 0.003 0.956 69 165 116 0
17.3437 51.3550 -56.4701 0.287 0.005 0.958 67 165 114 0
17.1983 51.5633 -56.4276 0.287 0.005 0.958 63 166 115 0
21.4047 57.4785 -49.1408 0.910 -0.355 0.215 40 157 102 0
21.4389 57.6593 -48.9869 0.910 -0.355 0.215 38 157 101 0
21.4730 57.8398 -48.8332 0.910 -0.355 0.215 38 158 101 0
21.5071 58.0201 -48.6798 0.910 -0.355 0.215 39 159 101 0
13.3654 72.2928 -44.4360 0.977 -0.130 -0.167 32 111 66 0
2.6112 109.2922 -25.8863 0.943 0.268 0.198 149 133 129 0
2.4422 109.7418 -25.6889 0.943 0.268 0.198 146 132 125 0
2.4338 109.9255 -25.5639 0.976 0.146 0.164 96 86 82 0
2.3843 110.1315 -25.4531 0.976 0.146 0.164 49 48 49 0
2.1882 110.4172 -25.3923 0.943 0.268 0.198 245 245 246 0
2.1035 110.6426 -25.2933 0.943 0.268 0.198 255 255 252 0
2.0187 110.8682 -25.1942 0.943 0.268 0.198 254 254 253 0
40.7175 13.9206 -66.4127 0.585 0.572 0.575 255 255 255 0
19.6192 48.1960 -57.3913 0.652 0.744 0.150 195 224 201 0
19.3890 48.4021 -57.4128 0.652 0.744 0.150 156 203 174 0
17.5898 51.4637 -56.5444 0.287 0.005 0.958 69 166 117 0
14.9180 52.4558 -57.7928 0.991 -0.050 -0.121 59 167 118 0
21.3171 58.5404 -48.7615 0.908 -0.358 0.218 37 159 102 0
16.9053 72.0783 -42.3263 0.468 -0.350 0.811 30 112 71 0
16.8222 72.4638 -42.1118 0.468 -0.350 0.811 37 113 74 0
2.6071 109.4661 -26.1021 0.943 0.268 0.198 148 133 128 0
2.5225 109.6911 -26.0034 0.943 0.268 0.198 147 132 126 0
2.4379 109.9162 -25.9046 0.943 0.268 0.198 147 131 125 0
2.3533 110.1415 -25.8058 0.943 0.268 0.198 94 86 81 0
2.3948 110.2982 -25.6634 0.976 0.146 0.164 48 49 48 0
2.1838 110.5924 -25.6079 0.943 0.268 0.198 246 245 245 0
2.0989 110.8180 -25.5089 0.943 0.268 0.198 254 255 255 0
2.0141 111.0438 -25.4099 0.943 0.268 0.198 255 255 255 0
19.5455 48.3199 -57.6850 0.652 0.744 0.150 199 226 204 0
21.3686 58.4735 -49.0865 0.908 -0.358 0.218 39 159 103 0
21.4027 58.6537 -48.9327 0.908 -0.358 0.218 39 159 103 0
22.1628 58.7301 -48.3189 0.905 -0.373 0.204 38 158 102 0
17.1316 72.1569 -42.4229 0.468 -0.350 0.811 31 113 71 0
17.0486 72.5419 -42.2088 0.468 -0.350 0.811 35 114 72 0
2.6030 109.6404 -26.3181 0.943 0.268 0.198 148 133 128 0
2.5183 109.8656 -26.2194 0.943 0.268 0.198 147 132 125 0
2.4337 110.0909 -26.1207 0.943 0.268 0.198 147 131 125 0
2.3489 110.3164 -26.0218 0.943 0.268 0.198 94 85 81 0
2.2641 110.5421 -25.9229 0.943 0.268 0.198 48 49 48 0
2.1793 110.7678 -25.8240 0.943 0.268 0.198 246 245 245 0
2.0944 110.9937 -25.7249 0.943 0.268 0.198 254 255 255 0
2.0095 111.2198 -25.6258 0.943 0.268 0.198 254 255 255 0
19.4715 48.4442 -57.9795 0.652 0.744 0.150 201 224 206 0
24.1776 53.6564 -50.7737 0.990 -0.030 -0.135 59 165 116 0
21.5223 58.9467 -48.9502 0.908 -0.358 0.218 40 158 103 0
17.2744 72.6198 -42.3054 0.468 -0.350 0.811 35 117 73 0
2.5988 109.8149 -26.5346 0.943 0.268 0.198 147 132 126 0
2.5141 110.0404 -26.4359 0.943 0.268 0.198 147 132 125 0
2.4294 110.2660 -26.3371 0.943 0.268 0.198 147 131 125 0
2.3446 110.4917 -26.2382 0.943 0.268 0.198 93 85 81 0
2.2597 110.7175 -26.1393 0.943 0.268 0.198 48 49 48 0
2.1748 110.9436 -26.0403 0.943 0.268 0.198 246 245 245 0
2.0898 111.1697 -25.9413 0.943 0.268 0.198 254 255 255 0
2.0048 111.3960 -25.8422 0.943 0.268 0.198 254 255 255 0
19.3973 48.5689 -58.2751 0.652 0.744 0.150 203 225 209 0
23.1066 54.0641 -51.5873 0.993 -0.040 -0.115 62 165 118 0
23.1313 54.2474 -51.4377 0.993 -0.040 -0.115 61 164 117 0
11.1644 55.8501 -59.1686 0.756 -0.035 0.653 59 162 117 0
11.0894 56.0652 -59.0702 0.756 -0.035 0.653 57 163 116 0
2.6794 109.7642 -26.8500 0.943 0.268 0.198 147 133 126 0
2.5947 109.9898 -26.7514 0.943 0.268 0.198 147 132 125 0
2.5099 110.2154 -26.6526 0.943 0.268 0.198 147 131 124 0
2.4251 110.4413 -26.5538 0.943 0.268 0.198 148 131 125 0
2.3402 110.6672 -26.4550 0.943 0.268 0.198 95 87 82 0
2.2553 110.8933 -26.3560 0.943 0.268 0.198 48 48 48 0
2.1703 111.1196 -26.2570 0.943 0.268 0.198 245 245 245 0
2.0853 111.3460 -26.1580 0.943 0.268 0.198 254 255 255 0
19.3229 48.6940 -58.5715 0.652 0.744 0.150 204 226 211 0
23.1968 55.6575 -50.6926 0.554 -0.048 0.831 52 163 114 0
23.1058 55.8524 -50.6206 0.554 -0.048 0.831 54 163 114 0
2.6753 109.9391 -27.0672 0.943 0.268 0.198 147 132 124 0
2.5906 110.1649 -26.9685 0.943 0.268 0.198 146 131 124 0
2.5057 110.3908 -26.8698 0.943 0.268 0.198 147 130 123 0
2.4208 110.6169 -26.7709 0.943 0.268 0.198 147 130 124 0
2.3359 110.8431 -26.6721 0.943 0.268 0.198 95 86 82 0
2.2509 111.0694 -26.5731 0.943 0.268 0.198 48 48 48 0
2.1658 111.2959 -26.4741 0.943 0.268 0.198 245 244 245 0
2.0807 111.5225 -26.3751 0.943 0.268 0.198 254 255 255 0
3.1660 111.2789 -25.7411 0.946 0.263 0.191 255 255 255 0
35.6614 40.2543 -52.7332 0.502 -0.475 0.723 229 229 216 0
19.4801 48.6114 -58.8448 0.652 0.744 0.150 208 226 214 0
18.0723 72.2778 -42.9136 0.468 -0.350 0.811 34 114 71 0
18.0310 72.4693 -42.8070 0.468 -0.350 0.811 34 116 71 0
17.9897 72.6608 -42.7005 0.468 -0.350 0.811 37 115 72 0
2.6713 110.1143 -27.2847 0.943 0.268 0.198 147 133 124 0
2.5864 110.3403 -27.1860 0.943 0.268 0.198 146 132 124 0
2.5015 110.5664 -27.0872 0.943 0.268 0.198 147 131 123 0
2.4165 110.7927 -26.9884 0.943 0.268 0.198 146 130 123 0
2.3315 111.0192 -26.8895 0.943 0.268 0.198 95 87 82 0
2.2464 111.2458 -26.7906 0.943 0.268 0.198 48 49 48 0
2.1613 111.4725 -26.6916 0.943 0.268 0.198 245 245 245 0
2.0761 111.6994 -26.5925 0.943 0.268 0.198 254 255 255 0
3.1605 111.4549 -25.9565 0.946 0.263 0.191 255 255 255 0
43.4374 43.8455 -44.5954 0.819 0.574 0.007 222 226 212 0
2.5823 110.5160 -27.4039 0.943 0.268 0.198 145 132 123 0
2.4973 110.7424 -27.3051 0.943 0.268 0.198 145 131 122 0
2.4122 110.9689 -27.2062 0.943 0.268 0.198 145 130 122 0
2.3272 111.1956 -27.1073 0.943 0.268 0.198 94 87 81 0
2.2420 111.4224 -27.0084 0.943 0.268 0.198 48 49 48 0
2.1568 111.6494 -26.9094 0.943 0.268 0.198 245 245 245 0
2.0716 111.8765 -26.8103 0.943 0.268 0.198 254 255 255 0
3.1550 111.6311 -26.1723 0.946 0.263 0.191 255 255 255 0
34.7088 42.3391 -52.5259 0.748 0.308 0.587 224 226 213 0
34.6031 42.5115 -52.4817 0.748 0.308 0.587 224 226 213 0
17.7925 50.9364 -59.1111 0.698 0.534 0.477 199 223 211 0
17.6175 51.1474 -59.0915 0.698 0.534 0.477 195 222 210 0
17.4420 51.3589 -59.0719 0.698 0.534 0.477 193 223 209 0
17.3549 51.5648 -58.9895 0.992 -0.115 0.056 192 223 208 0
21.2182 57.0082 -52.1591 0.962 0.177 -0.210 56 166 117 0
21.2122 57.1967 -52.0281 0.962 0.177 -0.210 55 167 117 0
21.1114 57.3972 -51.9600 0.935 -0.289 0.205 54 166 116 0
15.3438 58.7291 -55.3553 0.937 -0.253 0.242 54 164 115 0
2.5781 110.6919 -27.6221 0.943 0.268 0.198 145 131 123 0
2.0352 111.1701 -27.6880 0.938 -0.346 -0.015 146 131 122 0
2.4079 111.1454 -27.4244 0.943 0.268 0.198 146 129 122 0
2.1497 111.4679 -27.3874 0.938 -0.346 -0.015 94 86 80 0
2.2376 111.5994 -27.2265 0.943 0.268 0.198 48 50 48 0
1.2279 112.3398 -27.4561 0.943 0.271 0.190 246 245 245 0
1.0558 112.7981 -27.2564 0.943 0.271 0.190 253 255 255 0
3.1496 111.8076 -26.3884 0.946 0.263 0.191 255 255 255 0
35.8921 40.3854 -53.3244 0.510 -0.476 0.716 227 229 215 0
34.7881 42.4417 -52.6809 0.748 0.308 0.587 224 226 213 0
34.6825 42.6141 -52.6368 0.748 0.308 0.587 224 226 213 0
18.0175 50.8482 -59.3413 0.698 0.534 0.477 200 224 212 0
17.8429 51.0589 -59.3220 0.698 0.534 0.477 202 224 213 0
17.6678 51.2702 -59.3026 0.698 0.534 0.477 200 224 213 0
17.3823 51.6896 -59.2171 0.992 -0.115 0.056 195 225 211 0
17.3967 51.8886 -59.0629 0.992 -0.115 0.056 194 225 212 0
17.4111 52.0873 -58.9090 0.992 -0.115 0.056 192 224 211 0
17.4254 52.2859 -58.7552 0.992 -0.115 0.056 191 225 211 0
18.4548 52.4056 -57.8887 0.984 -0.079 -0.160 190 225 211 0
18.4984 52.5995 -57.7161 0.984 -0.079 -0.160 189 225 210 0
18.5420 52.7930 -57.5437 0.984 -0.079 -0.160 190 226 212 0
18.5855 52.9862 -57.3717 0.984 -0.079 -0.160 189 225 210 0
18.6290 53.1791 -57.1999 0.984 -0.079 -0.160 183 223 207 0
18.9370 53.5442 -56.7036 0.988 -0.069 -0.138 172 223 204 0
19.0099 53.9281 -56.3719 0.988 -0.069 -0.138 149 212 186 0
19.0463 54.1196 -56.2065 0.988 -0.069 -0.138 139 206 177 0
21.2689 56.7513 -52.6273 0.879 0.086 -0.470 61 168 121 0
21.3544 56.9288 -52.4347 0.879 0.086 -0.470 60 167 119 0
21.4397 57.1059 -52.2425 0.879 0.086 -0.470 59 168 120 0
21.5249 57.2825 -52.0509 0.879 0.086 -0.470 59 168 121 0
21.6098 57.4587 -51.8597 0.879 0.086 -0.470 58 167 120 0
21.2110 57.6977 -51.9899 0.935 -0.289 0.205 59 166 120 0
15.4119 58.6554 -55.6962 0.937 -0.253 0.242 59 166 120 0
2.5739 110.8682 -27.8407 0.943 0.268 0.198 144 129 122 0
2.4888 111.0951 -27.7419 0.943 0.268 0.198 146 129 122 0
2.4036 111.3221 -27.6430 0.943 0.268 0.198 145 127 121 0
2.3184 111.5493 -27.5441 0.943 0.268 0.198 94 84 81 0
2.2331 111.7766 -27.4451 0.943 0.268 0.198 49 49 48 0
1.2207 112.5201 -27.6772 0.943 0.271 0.190 246 245 246 0
1.0484 112.9790 -27.4775 0.943 0.271 0.190 254 255 255 0
3.1441 111.9844 -26.6049 0.946 0.263 0.191 255 255 255 0
35.7240 42.7334 -52.0476 0.730 0.265 0.629 222 224 211 0
35.6224 42.9043 -52.0017 0.730 0.265 0.629 222 224 212 0
19.0029 52.2921 -57.8881 0.283 -0.010 0.959 195 224 212 0
18.6890 52.5133 -57.9675 0.988 -0.069 -0.138 194 225 212 0
18.7260 52.7073 -57.7996 0.988 -0.069 -0.138 191 225 210 0
18.5091 52.9219 -57.8101 0.984 -0.079 -0.160 191 225 211 0
18.5527 53.1152 -57.6376 0.984 -0.079 -0.160 190 224 210 0
18.5962 53.3082 -57.4654 0.984 -0.079 -0.160 188 225 211 0
18.6397 53.5009 -57.2935 0.984 -0.079 -0.160 184 224 208 0
18.9096 53.6729 -56.9640 0.988 -0.069 -0.138 182 224 208 0
19.3437 54.0232 -56.3812 0.988 -0.070 -0.139 178 226 207 0
19.0192 54.2486 -56.4658 0.988 -0.069 -0.138 174 224 202 0
19.0556 54.4399 -56.3002 0.988 -0.069 -0.138 165 218 195 0
19.0919 54.6309 -56.1349 0.988 -0.069 -0.138 159 217 191 0
19.1282 54.8216 -55.9699 0.988 -0.069 -0.138 141 205 178 0
19.1644 55.0120 -55.8051 0.988 -0.069 -0.138 127 195 167 0
19.2006 55.2021 -55.6406 0.988 -0.069 -0.138 110 183 154 0
19.6743 55.7304 -54.8993 0.988 -0.070 -0.139 84 175 139 0
19.8397 55.9042 -54.6482 0.987 -0.067 -0.148 83 174 137 0
19.8770 56.0918 -54.4846 0.987 -0.067 -0.148 79 171 134 0
19.9142 56.2790 -54.3213 0.987 -0.067 -0.148 75 172 131 0
21.2238 57.2587 -52.6185 0.879 0.086 -0.470 64 171 125 0
21.3094 57.4356 -52.4257 0.879 0.086 -0.470 62 169 123 0
21.3948 57.6122 -52.2335 0.879 0.086 -0.470 61 168 122 0
21.4800 57.7882 -52.0418 0.879 0.086 -0.470 61 167 122 0
23.1883 58.4802 -50.2428 0.691 -0.489 0.532 58 165 119 0
24.7860 59.8706 -48.0246 0.722 -0.482 0.496 47 161 109 0
24.8058 60.0463 -47.8829 0.722 -0.482 0.496 47 161 109 0
2.5697 111.0448 -28.0596 0.943 0.268 0.198 145 127 123 0
2.4845 111.2719 -27.9608 0.943 0.268 0.198 145 127 122 0
2.3993 111.4992 -27.8619 0.943 0.268 0.198 145 126 122 0
2.3140 111.7266 -27.7630 0.943 0.268 0.198 94 84 81 0
2.2286 111.9541 -27.6640 0.943 0.268 0.198 49 48 48 0
1.2134 112.7007 -27.8987 0.943 0.271 0.190 246 245 246 0
1.0410 113.1601 -27.6989 0.943 0.271 0.190 254 255 255 0
3.1386 112.1615 -26.8218 0.946 0.263 0.191 255 255 255 0
18.7351 53.0295 -57.8946 0.988 -0.069 -0.138 194 226 214 0
18.7720 53.2231 -57.7269 0.988 -0.069 -0.138 192 225 215 0
19.3901 54.5337 -56.3089 0.988 -0.070 -0.139 184 223 208 0
19.0648 54.7604 -56.3940 0.988 -0.069 -0.138 179 225 207 0
19.1011 54.9513 -56.2286 0.988 -0.069 -0.138 175 224 204 0
19.1374 55.1418 -56.0634 0.988 -0.069 -0.138 172 224 202 0
19.5375 55.2935 -55.6482 0.988 -0.070 -0.139 167 222 201 0
19.5741 55.4827 -55.4836 0.988 -0.070 -0.139 157 218 197 0
19.6108 55.6716 -55.3194 0.988 -0.070 -0.139 137 202 179 0
19.6473 55.8602 -55.1554 0.988 -0.070 -0.139 125 194 168 0
19.8098 56.0343 -54.9056 0.987 -0.067 -0.148 113 184 158 0
19.8472 56.2220 -54.7416 0.987 -0.067 -0.148 99 174 146 0
19.8845 56.4094 -54.5779 0.987 -0.067 -0.148 88 172 139 0
19.9276 56.5958 -54.4105 0.752 -0.002 0.659 82 172 136 0
20.9201 57.2347 -53.1909 0.879 0.086 -0.470 68 170 128 0
21.0065 57.4124 -52.9966 0.879 0.086 -0.470 65 170 125 0
21.0927 57.5897 -52.8029 0.879 0.086 -0.470 65 170 124 0
21.1786 57.7666 -52.6096 0.879 0.086 -0.470 64 169 124 0
20.9336 57.9871 -52.6378 0.962 0.177 -0.210 64 169 123 0
23.4707 59.8399 -49.3618 0.691 -0.489 0.532 54 162 113 0
24.9761 60.3208 -47.8641 0.722 -0.482 0.496 51 161 109 0
2.4803 111.4490 -28.1801 0.943 0.268 0.198 145 125 122 0
2.3950 111.6765 -28.0812 0.943 0.268 0.198 145 124 122 0
2.3096 111.9041 -27.9822 0.943 0.268 0.198 95 82 81 0
2.2242 112.1319 -27.8832 0.943 0.268 0.198 49 48 49 0
1.2062 112.8816 -28.1206 0.943 0.271 0.190 246 246 247 0
1.0336 113.3415 -27.9208 0.943 0.271 0.190 254 254 255 0
3.1331 112.3389 -27.0390 0.946 0.263 0.191 255 254 255 0
18.5963 52.5755 -58.6640 0.988 -0.069 -0.138 199 225 215 0
19.5230 52.6980 -57.8641 0.938 -0.150 -0.311 198 225 215 0
19.4366 55.0438 -56.2366 0.988 -0.070 -0.139 185 223 210 0
19.4735 55.2337 -56.0712 0.988 -0.070 -0.139 184 223 207 0
19.5103 55.4233 -55.9060 0.988 -0.070 -0.139 185 224 208 0
19.5470 55.6126 -55.7411 0.988 -0.070 -0.139 183 223 207 0
19.7048 55.7882 -55.4931 0.987 -0.067 -0.148 181 222 207 0
19.7424 55.9766 -55.3283 0.987 -0.067 -0.148 178 221 206 0
19.7799 56.1647 -55.1636 0.987 -0.067 -0.148 172 220 203 0
19.8173 56.3525 -54.9993 0.987 -0.067 -0.148 164 218 198 0
20.1330 56.5071 -54.6453 0.752 -0.002 0.659 147 209 184 0
20.0576 56.7074 -54.5586 0.752 -0.002 0.659 129 196 170 0
19.9821 56.9077 -54.4719 0.752 -0.002 0.659 117 189 162 0
19.9666 57.1007 -54.3444 0.987 -0.067 -0.148 102 180 151 0
20.6139 57.2105 -53.7682 0.879 0.086 -0.470 91 175 144 0
20.7010 57.3890 -53.5724 0.879 0.086 -0.470 84 172 137 0
20.7879 57.5671 -53.3771 0.879 0.086 -0.470 82 172 135 0
20.8746 57.7447 -53.1823 0.879 0.086 -0.470 79 173 133 0
20.9611 57.9219 -52.9879 0.879 0.086 -0.470 74 173 132 0
21.0474 58.0986 -52.7941 0.879 0.086 -0.470 70 173 130 0
22.2609 60.5219 -50.1126 0.930 -0.285 0.233 56 163 114 0
23.6831 60.4752 -49.0545 0.691 -0.489 0.532 56 163 114 0
2.4760 111.6263 -28.3997 0.943 0.268 0.198 143 126 121 0
2.3906 111.8541 -28.3008 0.943 0.268 0.198 143 125 121 0
2.3052 112.0820 -28.2018 0.943 0.268 0.198 93 83 80 0
2.2197 112.3101 -28.1028 0.943 0.268 0.198 48 49 48 0
1.1989 113.0629 -28.3429 0.943 0.271 0.190 246 245 246 0
1.0262 113.5233 -28.1430 0.943 0.271 0.190 254 255 255 0
3.1276 112.5166 -27.2566 0.946 0.263 0.191 255 255 255 0
16.0562 52.7032 -60.8665 0.799 0.504 0.329 201 227 218 0
15.9049 52.9180 -60.8280 0.799 0.504 0.329 200 226 217 0
18.6176 54.2767 -57.7545 0.283 -0.010 0.959 193 224 216 0
18.4771 54.4866 -57.7110 0.283 -0.010 0.959 193 224 216 0
18.9373 54.6374 -57.2472 0.988 -0.069 -0.138 193 224 216 0
18.9739 54.8291 -57.0805 0.988 -0.069 -0.138 192 223 216 0
19.5992 55.5408 -56.0839 0.987 -0.067 -0.148 192 225 213 0
19.6370 55.7299 -55.9181 0.987 -0.067 -0.148 190 222 209 0
19.6747 55.9187 -55.7526 0.987 -0.067 -0.148 188 221 207 0
19.7123 56.1072 -55.5873 0.987 -0.067 -0.148 187 220 208 0
19.7499 56.2954 -55.4223 0.987 -0.067 -0.148 185 221 207 0
20.2168 57.0063 -54.5485 0.879 0.086 -0.470 169 225 205 0
20.3050 57.1861 -54.3505 0.879 0.086 -0.470 157 218 198 0
20.3929 57.3654 -54.1531 0.879 0.086 -0.470 141 207 185 0
20.4806 57.5443 -53.9562 0.879 0.086 -0.470 125 195 170 0
20.5681 57.7227 -53.7598 0.879 0.086 -0.470 117 190 162 0
20.6553 57.9006 -53.5639 0.879 0.086 -0.470 104 181 149 0
20.8172 58.0681 -53.3181 0.963 0.178 -0.203 90 175 142 0
20.8098 58.2578 -53.1866 0.963 0.178 -0.203 84 175 139 0
20.8024 58.4474 -53.0553 0.963 0.178 -0.203 81 174 137 0
20.7950 58.6369 -52.9240 0.963 0.178 -0.203 77 174 133 0
21.1825 59.7057 -51.8527 0.958 0.195 -0.211 65 168 122 0
21.1328 60.6450 -51.2121 0.958 0.195 -0.211 62 165 118 0
22.3398 60.6361 -50.2879 0.930 -0.285 0.233 62 165 120 0
22.3965 61.1768 -49.8533 0.930 -0.285 0.233 59 162 117 0
2.4718 111.8040 -28.6197 0.943 0.268 0.198 141 126 121 0
2.3863 112.0320 -28.5208 0.943 0.268 0.198 141 125 121 0
2.3008 112.2602 -28.4218 0.943 0.268 0.198 92 84 80 0
2.2152 112.4885 -28.3228 0.943 0.268 0.198 48 49 48 0
1.1916 113.2444 -28.5655 0.943 0.271 0.190 246 245 246 0
3.1221 112.6946 -27.4745 0.946 0.263 0.191 255 255 255 0
18.5823 54.8004 -57.7388 0.283 -0.010 0.959 193 222 217 0
19.0197 55.3420 -57.0082 0.988 -0.069 -0.138 193 223 216 0
19.0562 55.5329 -56.8419 0.988 -0.069 -0.138 192 223 215 0
19.5689 55.6713 -56.3448 0.987 -0.067 -0.148 193 224 215 0
20.7295 58.2073 -53.6113 0.963 0.178 -0.203 137 202 177 0
20.7221 58.3973 -53.4795 0.963 0.178 -0.203 121 191 164 0
20.7147 58.5872 -53.3478 0.963 0.178 -0.203 106 181 151 0
20.7074 58.7769 -53.2162 0.963 0.178 -0.203 94 175 142 0
20.4914 58.9962 -53.2247 0.595 -0.642 0.484 87 173 139 0
20.5459 59.1771 -53.0516 0.595 -0.642 0.484 82 174 138 0
20.6003 59.3577 -52.8789 0.595 -0.642 0.484 79 174 136 0
20.6546 59.5379 -52.7064 0.595 -0.642 0.484 78 172 132 0
20.7088 59.7177 -52.5343 0.595 -0.642 0.484 73 171 129 0
20.7629 59.8973 -52.3626 0.595 -0.642 0.484 69 171 127 0
21.8261 60.6620 -50.9861 0.537 -0.520 0.664 63 166 121 0
21.8329 60.8456 -50.8479 0.537 -0.520 0.664 63 165 121 0
22.1913 61.3386 -50.2137 0.534 -0.499 0.682 62 164 120 0
20.5682 63.0980 -50.1973 0.503 -0.512 0.696 53 160 116 0
20.5696 63.2828 -50.0625 0.503 -0.512 0.696 53 160 114 0
20.5711 63.4675 -49.9277 0.503 -0.512 0.696 53 159 113 0
21.9353 63.7602 -48.6596 0.924 -0.288 0.252 48 157 110 0
22.7442 63.7858 -48.0148 0.518 -0.517 0.681 47 156 109 0
23.5997 63.7993 -47.3427 0.351 -0.240 0.905 46 155 108 0
2.4675 111.9820 -28.8401 0.943 0.268 0.198 141 126 121 0
2.3819 112.2102 -28.7411 0.943 0.268 0.198 142 126 121 0
2.2964 112.4386 -28.6421 0.943 0.268 0.198 93 84 80 0
2.2107 112.6672 -28.5431 0.943 0.268 0.198 48 49 48 0
1.1843 113.4263 -28.7885 0.943 0.271 0.190 246 245 246 0
3.1166 112.8729 -27.6928 0.946 0.263 0.191 255 255 255 0
20.6048 59.2970 -53.2458 0.963 0.178 -0.203 110 186 156 0
20.3924 59.5168 -53.2517 0.599 -0.646 0.473 98 179 147 0
20.4490 59.6971 -53.0771 0.599 -0.646 0.473 91 174 141 0
20.5055 59.8770 -52.9028 0.599 -0.646 0.473 85 172 136 0
20.5619 60.0566 -52.7289 0.599 -0.646 0.473 77 173 135 0
20.6182 60.2358 -52.5554 0.599 -0.646 0.473 72 173 133 0
21.8476 60.2309 -51.6031 0.943 -0.268 0.199 71 172 132 0
21.8681 60.4130 -51.4553 0.943 -0.268 0.199 70 171 130 0
21.8885 60.5948 -51.3077 0.943 -0.268 0.199 66 169 125 0
22.0322 60.7564 -51.0789 0.537 -0.520 0.664 66 168 124 0
22.0390 60.9397 -50.9408 0.537 -0.520 0.664 66 167 123 0
22.0457 61.1229 -50.8029 0.537 -0.520 0.664 64 167 122 0
22.0524 61.3059 -50.6651 0.537 -0.520 0.664 62 166 121 0
22.0592 61.4888 -50.5275 0.537 -0.520 0.664 62 165 119 0
22.5729 61.5846 -50.0586 0.930 -0.285 0.233 63 164 120 0
22.3983 61.7975 -50.0401 0.534 -0.499 0.682 61 164 119 0
22.6103 61.9433 -49.7697 0.930 -0.285 0.233 59 165 119 0
19.7663 63.3759 -50.9432 0.513 -0.523 0.680 54 161 117 0
20.7860 63.3734 -50.1523 0.503 -0.512 0.696 54 159 116 0
20.7873 63.5578 -50.0177 0.503 -0.512 0.696 54 160 114 0
21.1337 63.6768 -49.6621 0.519 -0.521 0.677 53 159 113 0
21.1391 63.8595 -49.5256 0.519 -0.521 0.677 54 158 113 0
22.0179 63.8738 -48.8321 0.924 -0.288 0.252 54 158 112 0
22.0347 64.0523 -48.6896 0.924 -0.288 0.252 53 157 112 0
2.4632 112.1602 -29.0608 0.943 0.268 0.198 139 124 119 0
2.3776 112.3887 -28.9619 0.943 0.268 0.198 140 124 119 0
2.2919 112.6174 -28.8629 0.943 0.268 0.198 91 83 78 0
2.2062 112.8461 -28.7638 0.943 0.268 0.198 48 49 48 0
1.1770 113.6084 -29.0119 0.943 0.271 0.190 246 245 245 0
3.1111 113.0515 -27.9115 0.946 0.263 0.191 255 255 255 0
22.2512 61.2166 -50.8958 0.537 -0.520 0.664 72 168 126 0
22.2578 61.3993 -50.7581 0.537 -0.520 0.664 67 166 123 0
22.3990 61.7422 -50.3992 0.972 -0.138 0.189 66 165 122 0
22.3990 61.9253 -50.2664 0.972 -0.138 0.189 64 165 122 0
21.0018 63.4638 -50.2419 0.503 -0.512 0.696 55 159 116 0
21.0030 63.6480 -50.1074 0.503 -0.512 0.696 56 160 117 0
23.1510 63.6035 -48.4625 0.518 -0.517 0.681 58 159 115 0
22.1004 63.9873 -49.0045 0.924 -0.288 0.252 57 158 114 0
22.1172 64.1658 -48.8619 0.924 -0.288 0.252 56 157 113 0
27.9796 65.5702 -43.2664 0.554 -0.509 0.659 41 149 98 0
23.8013 81.1371 -35.2416 0.441 0.323 0.837 178 175 168 0
2.4589 112.3388 -29.2819 0.943 0.268 0.198 139 124 119 0
2.3732 112.5675 -29.1829 0.943 0.268 0.198 140 124 120 0
2.2875 112.7964 -29.0839 0.943 0.268 0.198 91 82 78 0
2.2017 113.0254 -28.9849 0.943 0.268 0.198 48 49 48 0
1.1697 113.7909 -29.2357 0.943 0.271 0.190 246 245 246 0
1.0830 114.0220 -29.1357 0.943 0.271 0.190 254 255 255 0
0.9963 114.2533 -29.0357 0.943 0.271 0.190 254 255 255 0
3.1055 113.2304 -28.1306 0.946 0.263 0.191 255 255 255 0
32.4903 50.8191 -50.7355 0.580 -0.435 0.689 208 225 217 0
19.4076 57.8135 -55.9166 0.856 0.113 0.505 194 224 214 0
19.3298 58.0163 -55.8303 0.856 0.113 0.505 194 223 214 0
22.4532 62.4098 -50.1925 0.972 -0.138 0.189 67 167 125 0
22.4532 62.5925 -50.0599 0.972 -0.138 0.189 66 167 125 0
22.4532 62.7750 -49.9274 0.972 -0.138 0.189 64 167 126 0
22.8419 62.8856 -49.5423 0.930 -0.285 0.233 63 166 125 0
23.1252 63.0143 -49.2268 0.930 -0.288 0.230 62 164 123 0
23.1445 63.1915 -49.0831 0.930 -0.288 0.230 60 162 120 0
22.9711 64.1274 -48.5398 0.930 -0.285 0.233 57 159 115 0
28.1611 65.4845 -43.4854 0.554 -0.509 0.659 42 150 98 0
28.1659 65.6523 -43.3598 0.554 -0.509 0.659 42 149 97 0
28.1708 65.8199 -43.2344 0.554 -0.509 0.659 42 148 97 0
29.3001 66.2309 -42.0506 0.581 0.491 0.649 40 145 94 0
2.4546 112.5176 -29.5034 0.943 0.268 0.198 139 124 119 0
2.3689 112.7466 -29.4044 0.943 0.268 0.198 139 123 118 0
2.2831 112.9758 -29.3054 0.943 0.268 0.198 90 82 78 0
2.1972 113.2050 -29.2063 0.943 0.268 0.198 49 49 48 0
1.1623 113.9737 -29.4598 0.943 0.271 0.190 246 245 246 0
1.0756 114.2051 -29.3598 0.943 0.271 0.190 254 255 255 0
0.9889 114.4366 -29.2598 0.943 0.271 0.190 254 255 255 0
17.4369 57.6112 -57.9491 0.866 0.081 0.493 196 224 217 0
19.5748 57.7284 -56.1806 0.856 0.113 0.505 196 223 218 0
19.4970 57.9312 -56.0945 0.856 0.113 0.505 195 223 218 0
19.4193 58.1340 -56.0083 0.856 0.113 0.505 195 223 218 0
22.5072 62.5286 -50.3840 0.972 -0.138 0.189 78 169 131 0
22.5072 62.7113 -50.2513 0.972 -0.138 0.189 73 168 128 0
22.9020 62.8212 -49.8607 0.930 -0.285 0.233 72 169 130 0
22.9204 62.9994 -49.7166 0.930 -0.285 0.233 70 168 130 0
22.9389 63.1774 -49.5728 0.930 -0.285 0.233 67 168 128 0
22.9574 63.3551 -49.4291 0.930 -0.285 0.233 64 167 125 0
22.9758 63.5327 -49.2856 0.930 -0.285 0.233 62 165 121 0
23.2610 63.6586 -48.9695 0.930 -0.288 0.230 62 164 120 0
23.2801 63.8351 -48.8262 0.930 -0.288 0.230 63 164 120 0
23.2993 64.0114 -48.6831 0.930 -0.288 0.230 61 163 119 0
23.0493 64.2408 -48.7132 0.930 -0.285 0.233 59 162 117 0
28.1189 65.2789 -43.9673 0.847 0.092 0.524 50 152 105 0
28.0496 65.4636 -43.8876 0.847 0.092 0.524 47 151 104 0
27.9802 65.6484 -43.8080 0.847 0.092 0.524 45 151 103 0
28.3519 65.7341 -43.4531 0.554 -0.509 0.659 45 152 102 0
28.3566 65.9016 -43.3277 0.554 -0.509 0.659 45 150 101 0
28.3613 66.0689 -43.2025 0.554 -0.509 0.659 46 148 100 0
2.4503 112.6968 -29.7252 0.943 0.268 0.198 139 122 117 0
2.3645 112.9260 -29.6262 0.943 0.268 0.198 138 120 115 0
2.2786 113.1554 -29.5272 0.943 0.268 0.198 90 80 77 0
2.1927 113.3849 -29.4281 0.943 0.268 0.198 48 49 48 0
1.1550 114.1568 -29.6843 0.943 0.271 0.190 246 245 246 0
1.0682 114.3884 -29.5844 0.943 0.271 0.190 254 255 255 0
19.4310 58.4548 -56.1002 0.856 0.113 0.505 194 223 218 0
19.3531 58.6580 -56.0140 0.856 0.113 0.505 194 223 218 0
23.3008 63.4183 -49.4303 0.930 -0.288 0.230 74 170 131 0
23.1092 64.1776 -49.0297 0.930 -0.285 0.233 64 165 121 0
23.1274 64.3542 -48.8867 0.930 -0.285 0.233 63 165 120 0
23.1822 64.8828 -48.4590 0.930 -0.285 0.233 60 161 116 0
23.2004 65.0586 -48.3167 0.930 -0.285 0.233 57 160 113 0
-3.4826 98.5328 -45.0673 0.894 -0.410 0.180 167 159 148 0
83.0004 63.7347 -1.9978 0.954 0.064 -0.294 157 141 134 0
2.3601 113.1057 -29.8484 0.943 0.268 0.198 138 119 115 0
2.2741 113.3353 -29.7494 0.943 0.268 0.198 90 81 77 0
2.1881 113.5651 -29.6502 0.943 0.268 0.198 48 49 48 0
1.1476 114.3402 -29.9092 0.943 0.271 0.190 246 245 245 0
1.0607 114.5721 -29.8092 0.943 0.271 0.190 254 255 255 0
19.3648 58.9791 -56.1059 0.856 0.113 0.505 195 223 217 0
19.2869 59.1826 -56.0196 0.856 0.113 0.505 195 223 217 0
19.2089 59.3861 -55.9333 0.856 0.113 0.505 195 222 217 0
23.4742 64.4137 -48.8863 0.930 -0.288 0.230 73 169 128 0
23.4932 64.5894 -48.7432 0.930 -0.288 0.230 68 167 123 0
23.5121 64.7650 -48.6004 0.930 -0.288 0.230 65 165 121 0
23.5311 64.9403 -48.4577 0.930 -0.288 0.230 62 163 118 0
23.5500 65.1154 -48.3152 0.930 -0.288 0.230 61 163 117 0
23.6066 65.6393 -47.8888 0.930 -0.288 0.230 56 159 113 0
23.6254 65.8136 -47.7470 0.930 -0.288 0.230 55 158 111 0
23.0893 67.7125 -46.7901 0.329 -0.271 0.905 48 149 103 0
11.6135 75.8584 -49.9707 0.855 -0.443 0.271 43 135 91 0
11.6553 76.0397 -49.8055 0.855 -0.443 0.271 47 136 92 0
2.3557 113.2857 -30.0710 0.943 0.268 0.198 135 119 114 0
2.2697 113.5156 -29.9719 0.943 0.268 0.198 88 80 76 0
2.1836 113.7456 -29.8728 0.943 0.268 0.198 48 49 48 0
1.1402 114.5239 -30.1345 0.943 0.271 0.190 246 245 245 0
1.0533 114.7560 -30.0345 0.943 0.271 0.190 254 255 255 0
35.0526 50.8949 -49.8257 0.932 -0.329 -0.150 209 221 217 0
23.5522 64.5269 -49.0594 0.930 -0.288 0.230 83 166 131 0
23.5711 64.7026 -48.9162 0.930 -0.288 0.230 75 165 126 0
23.5900 64.8780 -48.7733 0.930 -0.288 0.230 71 166 124 0
23.6089 65.0533 -48.6305 0.930 -0.288 0.230 69 166 124 0
23.6278 65.2283 -48.4879 0.930 -0.288 0.230 68 165 123 0
23.7592 66.4476 -47.4945 0.930 -0.288 0.230 58 156 110 0
24.9442 66.8855 -46.2304 0.932 -0.332 0.148 48 153 108 0
24.9798 67.0521 -46.0807 0.932 -0.332 0.148 49 151 107 0
23.7911 67.6794 -46.5712 0.349 -0.245 0.905 49 150 106 0
11.7284 75.9750 -50.1425 0.855 -0.443 0.271 45 136 92 0
11.7701 76.1562 -49.9772 0.855 -0.443 0.271 50 136 93 0
22.7009 76.3261 -41.1384 0.275 -0.089 0.957 166 176 174 0
2.3513 113.4660 -30.2939 0.943 0.268 0.198 132 119 113 0
2.2652 113.6961 -30.1948 0.943 0.268 0.198 87 80 75 0
2.1791 113.9264 -30.0957 0.943 0.268 0.198 48 49 48 0
1.1328 114.7079 -30.3602 0.943 0.271 0.190 245 245 245 0
41.3060 15.5002 -70.9333 0.852 0.515 0.097 255 255 255 0
35.0570 51.0021 -50.0342 0.932 -0.329 -0.150 209 221 217 0
35.1446 51.1642 -49.8458 0.932 -0.329 -0.150 209 221 217 0
22.3493 61.0464 -52.8799 0.943 -0.268 0.199 190 219 214 0
23.6302 64.6401 -49.2325 0.930 -0.288 0.230 128 192 165 0
23.6490 64.8157 -49.0893 0.930 -0.288 0.230 111 183 152 0
23.6679 64.9911 -48.9462 0.930 -0.288 0.230 95 175 140 0
23.6867 65.1663 -48.8033 0.930 -0.288 0.230 84 167 132 0
23.7056 65.3413 -48.6605 0.930 -0.288 0.230 79 166 131 0
23.8366 66.5602 -47.6663 0.930 -0.288 0.230 60 157 111 0
23.8553 66.7335 -47.5250 0.930 -0.288 0.230 58 156 112 0
24.3855 66.7906 -47.0588 0.932 -0.279 0.231 55 155 113 0
24.4997 66.9407 -46.8578 0.351 -0.240 0.905 53 155 110 0
25.0123 66.9986 -46.4052 0.932 -0.332 0.148 51 153 110 0
25.0478 67.1651 -46.2552 0.932 -0.332 0.148 52 151 110 0
29.1008 69.0519 -41.6337 0.909 -0.366 0.201 38 142 93 0
11.7603 75.9219 -50.5045 0.875 -0.395 0.280 44 135 91 0
11.8433 76.0916 -50.3143 0.855 -0.443 0.271 46 136 92 0
14.3615 75.5644 -48.6828 0.863 -0.425 0.275 51 136 94 0
22.8322 76.5918 -41.1514 0.275 -0.089 0.957 166 176 173 0
2.3469 113.6466 -30.5172 0.943 0.268 0.198 133 120 114 0
2.2607 113.8769 -30.4181 0.943 0.268 0.198 86 80 75 0
2.1745 114.1075 -30.3189 0.943 0.268 0.198 48 49 48 0
1.1254 114.8922 -30.5863 0.943 0.271 0.190 246 245 245 0
1.0383 115.1249 -30.4862 0.943 0.271 0.190 255 255 255 0
35.0614 51.1096 -50.2431 0.932 -0.329 -0.150 208 220 216 0
35.1490 51.2716 -50.0543 0.932 -0.329 -0.150 209 221 217 0
23.7081 64.7533 -49.4057 0.930 -0.288 0.230 166 215 194 0
23.7270 64.9289 -49.2623 0.930 -0.288 0.230 160 213 190 0
23.7458 65.1042 -49.1191 0.930 -0.288 0.230 145 202 178 0
23.7646 65.2794 -48.9761 0.930 -0.288 0.230 122 185 160 0
23.7834 65.4543 -48.8332 0.930 -0.288 0.230 103 176 149 0
24.4615 66.9028 -47.2301 0.932 -0.279 0.231 58 156 113 0
25.1159 67.2782 -46.4299 0.932 -0.332 0.148 56 153 113 0
25.1513 67.4444 -46.2800 0.932 -0.332 0.148 57 153 113 0
25.1867 67.6103 -46.1303 0.932 -0.332 0.148 57 153 112 0
25.2220 67.7760 -45.9809 0.932 -0.332 0.148 54 152 109 0
24.5966 68.2751 -46.1193 0.353 -0.239 0.904 51 150 107 0
15.7077 75.5099 -47.9814 0.478 -0.301 0.825 58 134 96 0
23.3313 76.2271 -41.3287 0.275 -0.089 0.957 165 174 173 0
2.3425 113.8275 -30.7408 0.943 0.268 0.198 132 120 113 0
2.2562 114.0581 -30.6417 0.943 0.268 0.198 85 80 75 0
2.1699 114.2888 -30.5426 0.943 0.268 0.198 48 49 48 0
1.1180 115.0769 -30.8127 0.943 0.271 0.190 246 244 245 0
1.0308 115.3098 -30.7127 0.943 0.271 0.190 255 255 254 0
1.1130 115.4447 -30.5482 0.922 -0.288 -0.258 254 255 254 0
35.0657 51.2172 -50.4523 0.932 -0.329 -0.150 207 219 215 0
35.1535 51.3792 -50.2630 0.932 -0.329 -0.150 207 220 216 0
24.2552 64.9485 -49.1403 0.934 -0.280 0.223 180 218 203 0
24.2735 65.1231 -48.9979 0.934 -0.280 0.223 176 215 200 0
24.2918 65.2975 -48.8556 0.934 -0.280 0.223 172 215 200 0
24.3101 65.4716 -48.7135 0.934 -0.280 0.223 161 212 194 0
24.7414 67.6703 -46.7578 0.351 -0.240 0.905 59 156 115 0
24.6661 67.8634 -46.6774 0.351 -0.240 0.905 61 156 115 0
23.9366 68.2135 -47.0104 0.336 -0.277 0.900 58 154 111 0
20.4112 76.9442 -43.4732 0.994 -0.005 0.108 165 173 175 0
1.2587 114.6283 -31.3833 0.971 0.119 0.207 133 119 112 0
2.2518 114.2395 -30.8658 0.943 0.268 0.198 85 80 74 0
2.1654 114.4705 -30.7666 0.943 0.268 0.198 48 49 49 0
1.1106 115.2619 -31.0396 0.943 0.271 0.190 246 245 246 0
1.0233 115.4951 -30.9395 0.943 0.271 0.190 254 255 252 0
1.1073 115.6288 -30.7739 0.922 -0.288 -0.258 254 255 253 0
24.3672 65.4105 -49.0291 0.934 -0.280 0.223 179 216 204 0
24.3855 65.5846 -48.8869 0.934 -0.280 0.223 178 213 202 0
24.1262 75.5654 -41.7922 0.922 0.063 0.383 163 173 175 0
13.7982 93.5028 -37.0364 0.952 -0.213 -0.218 157 147 137 0
1.2841 114.7941 -31.5980 0.971 0.119 0.207 134 121 112 0
2.2473 114.4212 -31.0902 0.943 0.268 0.198 87 80 73 0
2.1608 114.6525 -30.9910 0.943 0.268 0.198 49 49 49 0
1.1031 115.4472 -31.2668 0.943 0.271 0.190 246 245 245 0
1.0158 115.6806 -31.1667 0.943 0.271 0.190 254 255 253 0
1.1016 115.8133 -31.0001 0.922 -0.288 -0.258 254 255 254 0
14.1576 57.8890 -63.1681 0.438 -0.066 0.897 202 219 219 0
14.1323 58.0971 -63.0362 0.432 -0.077 0.898 201 219 219 0
14.3190 58.2780 -62.7517 0.431 -0.074 0.899 201 219 219 0
14.2092 58.4966 -62.6810 0.431 -0.074 0.899 202 220 220 0
14.0993 58.7154 -62.6101 0.431 -0.074 0.899 201 220 220 0
11.9880 93.3984 -38.9182 0.932 -0.237 0.273 153 143 133 0
11.9936 93.5751 -38.7841 0.932 -0.237 0.273 153 143 133 0
13.6439 93.3764 -37.5864 0.952 -0.213 -0.218 152 142 134 0
13.7136 93.5212 -37.4235 0.952 -0.213 -0.218 155 145 136 0
13.7832 93.6657 -37.2610 0.952 -0.213 -0.218 154 144 134 0
13.8527 93.8099 -37.0988 0.952 -0.213 -0.218 153 143 133 0
1.3599 114.7482 -31.9274 0.971 0.119 0.207 135 122 112 0
1.3096 114.9602 -31.8130 0.971 0.119 0.207 136 121 112 0
1.2593 115.1722 -31.6987 0.971 0.119 0.207 89 81 74 0
2.1562 114.8348 -31.2158 0.943 0.268 0.198 48 49 48 0
