ply
format ascii 1.0
element vertex 835
property float x
property float y
property float z
property float nx
property float ny
property float nz
property uchar diffuse_red
property uchar diffuse_green
property uchar diffuse_blue
property uchar class
end_header
-25.2308 44.0668 -23.9820 -0.262 -0.897 0.357 230 221 205 0
-21.7015 39.4834 -23.6128 0.869 -0.264 0.418 197 172 157 0
-21.6431 39.9654 -23.6961 0.834 -0.322 0.448 169 138 127 0
-21.1927 39.4202 -23.6553 -0.124 -0.437 0.891 162 123 117 0
-15.5695 31.1048 -22.9048 0.061 -0.364 0.929 122 60 58 0
-14.9654 31.2866 -22.9964 0.288 -0.935 -0.205 120 55 51 0
-14.7770 31.3845 -23.0316 0.297 -0.935 -0.195 119 54 52 0
-14.5639 31.4121 -23.0581 0.101 -0.994 -0.048 121 53 52 0
-14.3493 31.4350 -23.0839 0.101 -0.994 -0.048 120 52 52 0
-14.1301 31.4442 -23.1081 0.088 -0.995 -0.042 119 51 52 0
-13.5734 30.4644 -23.0087 0.564 -0.817 0.117 120 48 51 0
-2.6758 32.6098 -24.4801 0.502 -0.120 0.856 116 56 39 0
-2.3543 33.0691 -24.5870 0.502 -0.124 0.856 125 69 47 0
-2.1867 33.2737 -24.6371 0.636 -0.507 0.582 129 75 50 0
-2.0158 33.4669 -24.6857 0.634 -0.544 0.550 129 79 49 0
-1.7338 33.1743 -24.6680 -0.135 -0.971 -0.199 122 72 41 0
-1.4907 33.0482 -24.6730 -0.099 -0.947 -0.306 115 66 34 0
-2.7234 45.8900 -26.6031 -0.518 -0.625 0.585 135 93 50 0
-2.2509 44.7733 -26.4730 -0.488 -0.714 0.502 140 99 54 0
-1.9890 44.6446 -26.4795 -0.482 -0.714 0.508 144 102 56 0
-1.4510 44.3078 -26.4812 0.783 -0.586 0.207 154 116 65 0
-0.3711 44.7475 -26.6634 0.424 -0.829 0.364 150 110 54 0
4.6183 41.0737 -26.5910 -0.253 -0.637 0.728 141 79 58 0
5.0223 41.3406 -26.6756 0.892 -0.437 0.120 132 71 54 0
6.5432 43.1698 -27.1261 0.574 -0.327 0.750 120 72 54 0
6.7402 43.3704 -27.1786 -0.055 -0.990 -0.129 118 72 55 0
7.7745 49.4706 -28.2630 0.657 -0.006 0.754 133 105 84 0
8.1614 52.1248 -28.7284 0.787 0.004 0.617 162 145 124 0
8.2808 53.1435 -28.9039 0.788 -0.000 0.616 206 192 172 0
8.4003 54.1903 -29.0841 0.817 0.007 0.577 217 205 187 0
17.9699 53.6544 -29.9884 -0.326 -0.912 -0.250 217 210 192 0
23.7687 33.9302 -27.4280 0.437 -0.789 -0.431 214 202 186 0
23.9640 34.1338 -27.4808 0.686 -0.708 -0.168 214 202 186 0
24.1638 35.6860 -27.7502 0.498 -0.823 -0.275 213 201 185 0
33.0342 68.3659 -33.9044 -0.080 -0.856 0.510 203 192 174 0
33.6586 50.5863 -31.1202 0.248 -0.457 0.854 200 190 171 0
33.8700 50.5276 -31.1326 0.266 -0.480 0.836 199 187 170 0
-25.0776 41.6996 -23.8576 -0.267 -0.963 0.048 233 224 209 0
-25.4173 43.7910 -24.1614 -0.277 -0.906 0.321 230 222 205 0
-21.6909 39.3503 -23.8259 0.901 -0.306 0.308 178 150 137 0
-17.9210 32.5073 -23.1056 0.482 -0.852 0.207 130 79 80 0
-17.6644 33.0422 -23.2187 0.501 -0.684 0.530 125 74 73 0
-13.9454 30.1646 -23.1357 0.368 -0.928 0.056 120 50 50 0
-13.7512 30.2396 -23.1678 0.368 -0.928 0.056 119 49 49 0
-13.5935 30.4214 -23.2135 0.564 -0.817 0.117 119 47 50 0
-12.7388 29.8406 -23.2075 0.240 -0.957 -0.165 119 44 49 0
-13.0588 31.4536 -23.4359 -0.696 -0.714 0.080 119 44 48 0
-11.1024 27.5088 -22.9983 -0.125 -0.987 -0.102 123 46 50 0
-10.8949 27.5255 -23.0224 -0.241 -0.959 -0.148 124 45 50 0
-10.1854 27.9676 -23.1672 0.043 -0.983 0.178 123 42 50 0
-5.1250 29.5335 -23.9424 0.447 -0.738 0.506 107 32 36 0
-4.8751 29.3879 -23.9445 0.670 -0.590 0.450 109 35 38 0
-2.1253 32.8853 -24.7947 0.527 -0.116 0.842 124 66 43 0
-1.9860 33.2130 -24.8621 0.734 -0.225 0.641 127 72 45 0
-1.7849 33.2741 -24.8927 0.761 -0.418 0.496 129 75 47 0
-1.5834 33.3335 -24.9231 0.726 -0.448 0.523 131 77 47 0
-2.7649 45.9415 -26.8444 -0.381 -0.418 0.825 134 93 49 0
-0.4101 44.7984 -26.9018 0.469 -0.851 0.238 150 110 54 0
5.0244 41.1631 -26.8728 0.883 -0.465 0.066 132 70 53 0
5.9055 42.7357 -27.2185 0.020 -0.651 0.759 126 71 56 0
6.0940 42.9859 -27.2784 0.568 -0.435 0.699 125 72 58 0
6.2735 43.3044 -27.3485 0.594 -0.452 0.665 123 72 57 0
6.5192 43.1616 -27.3507 -0.170 -0.968 0.183 120 72 56 0
6.7534 43.0965 -27.3643 -0.167 -0.986 -0.003 114 67 51 0
7.9157 50.0260 -28.6069 0.725 -0.056 0.686 130 104 87 0
23.7536 34.1882 -27.6728 0.453 -0.781 -0.430 213 201 185 0
23.9497 34.6310 -27.7647 0.398 -0.823 -0.406 213 201 185 0
24.1493 35.8419 -27.9815 0.350 -0.904 -0.245 212 200 184 0
27.5769 22.1718 -26.1197 0.292 -0.909 -0.297 206 195 177 0
39.0436 21.6409 -27.2154 0.866 -0.227 -0.445 189 171 149 0
-48.2568 15.9724 -17.5022 -0.177 -0.950 -0.257 233 221 198 0
-23.0244 33.6469 -22.9881 -0.228 -0.968 0.107 234 224 212 0
-25.7027 43.7624 -24.3706 -0.251 -0.821 0.513 231 222 205 0
-21.7731 38.2082 -23.8639 0.955 -0.280 -0.098 229 207 188 0
-21.7425 38.7510 -23.9559 0.945 -0.325 -0.025 197 172 156 0
-21.7408 39.3746 -24.0583 0.922 -0.378 -0.084 168 137 126 0
-15.7722 30.2322 -23.1729 -0.183 -0.374 0.909 123 64 63 0
-13.6818 28.6743 -23.1322 0.055 -0.961 0.272 120 50 52 0
-13.4415 28.6075 -23.1459 0.310 -0.936 0.170 120 48 51 0
-13.2090 28.5623 -23.1624 0.298 -0.940 0.169 120 47 51 0
-12.4730 28.9478 -23.3011 0.070 -0.862 0.502 119 43 48 0
-5.3762 28.7875 -24.0032 0.116 -0.747 0.655 114 39 43 0
-5.1617 28.7717 -24.0227 0.181 -0.720 0.670 114 39 43 0
-3.4970 33.0958 -24.9020 0.613 -0.128 0.780 113 41 36 0
-1.9366 32.8742 -25.0259 0.746 -0.224 0.626 124 65 40 0
-1.7693 33.0812 -25.0770 0.741 -0.225 0.633 129 70 43 0
-1.5426 33.0279 -25.0915 0.592 -0.374 0.714 132 74 47 0
-1.1353 33.1240 -25.1490 -0.167 -0.957 -0.238 125 75 43 0
-2.7558 45.7556 -27.0524 -0.380 -0.446 0.810 136 94 50 0
-2.2975 44.7084 -26.9279 -0.506 -0.510 0.696 143 102 56 0
-1.6302 43.7575 -26.8406 -0.221 -0.975 -0.023 152 116 63 0
-0.4081 44.6396 -27.1105 0.515 -0.826 0.227 147 107 51 0
6.2709 43.1460 -27.5513 0.564 -0.447 0.694 123 72 58 0
6.4995 43.1234 -27.5711 -0.170 -0.968 0.183 119 70 56 0
6.7277 43.1015 -27.5909 -0.167 -0.986 -0.003 113 66 52 0
32.9992 68.2803 -34.4130 0.240 -0.314 0.919 203 192 174 0
33.9485 64.2411 -33.8486 -0.329 -0.332 0.884 200 189 171 0
34.6563 30.4557 -28.3854 0.264 0.016 0.964 195 182 163 0
41.6732 48.6541 -32.0875 -0.097 -0.820 -0.564 194 173 154 0
47.7972 46.5048 -32.3639 0.264 -0.906 -0.330 179 158 138 0
-24.8254 41.4809 -24.3257 -0.280 -0.897 0.343 232 222 204 0
-21.7771 38.7358 -24.1826 0.923 -0.339 -0.182 175 147 132 0
-15.5633 29.5567 -23.2971 0.197 -0.384 0.902 121 63 62 0
-13.9080 28.5999 -23.3078 -0.234 -0.944 -0.233 120 49 53 0
-10.9780 27.5784 -23.4381 -0.241 -0.960 -0.141 122 41 49 0
-10.8528 27.8495 -23.4958 -0.164 -0.771 0.615 124 43 52 0
-5.3062 28.4187 -24.1571 0.246 -0.692 0.678 117 43 45 0
-1.7903 32.1157 -25.1289 0.650 -0.104 0.752 129 63 44 0
-1.6548 32.4555 -25.1991 0.650 -0.104 0.752 122 59 36 0
-1.5076 32.7487 -25.2627 0.591 -0.374 0.714 121 62 37 0
-1.3633 33.0590 -25.3288 -0.228 -0.652 0.723 124 68 39 0
-1.1177 32.9190 -25.3307 -0.157 -0.842 0.515 127 73 43 0
-0.8925 32.8682 -25.3453 -0.157 -0.842 0.515 129 75 44 0
-0.6547 33.7406 -25.5142 -0.153 -0.391 0.908 128 78 42 0
-2.7231 45.4589 -27.2441 -0.382 -0.450 0.807 137 93 49 0
-2.2545 44.3623 -27.1103 0.255 -0.689 0.678 145 103 56 0
-2.0004 44.2693 -27.1209 -0.454 -0.823 0.341 149 110 61 0
-0.2276 43.5707 -27.1863 0.463 -0.884 0.056 139 100 44 0
1.2550 43.0513 -27.2519 -0.314 -0.324 0.893 136 84 44 0
2.5563 42.1629 -27.2377 -0.180 -0.313 0.933 139 81 48 0
3.3573 42.7891 -27.4233 0.280 -0.151 0.948 143 81 53 0
3.7520 41.7808 -27.2966 -0.144 -0.459 0.877 142 79 54 0
5.0032 40.9703 -27.2902 0.863 -0.492 -0.114 131 68 53 0
5.1895 41.2056 -27.3483 0.865 -0.487 -0.120 126 63 50 0
6.7296 39.7818 -27.2698 -0.440 -0.830 -0.343 114 62 49 0
6.5057 42.9027 -27.7640 -0.293 -0.897 -0.332 113 64 50 0
6.7135 43.0242 -27.8053 -0.279 -0.902 -0.329 112 64 51 0
6.6863 44.8466 -28.1045 0.982 -0.065 0.175 113 67 56 0
8.7319 52.7450 -29.6220 0.868 0.058 0.494 207 190 172 0
30.5978 43.0964 -30.2587 -0.531 -0.848 -0.007 203 191 175 0
33.7467 68.5895 -34.8039 0.317 -0.196 0.928 201 189 173 0
35.1426 55.8430 -32.8350 -0.558 -0.502 0.661 196 183 167 0
41.6136 48.2850 -32.2444 -0.072 -0.808 -0.584 193 174 154 0
47.8092 46.5933 -32.5974 0.264 -0.906 -0.330 178 157 136 0
-25.4326 38.6475 -24.0286 -0.182 -0.614 -0.768 232 224 211 0
-21.8621 38.2284 -24.3218 0.879 -0.421 -0.222 189 161 145 0
-21.8086 38.7122 -24.4083 0.872 -0.403 -0.278 164 133 120 0
-15.2257 29.1331 -23.4742 0.117 -0.431 0.895 120 60 59 0
-15.3769 30.1662 -23.6318 -0.573 -0.706 0.416 122 58 59 0
-14.2331 28.8059 -23.5204 -0.211 -0.907 0.363 122 51 55 0
-5.6924 28.1867 -24.2862 0.252 -0.684 0.684 123 50 52 0
-5.1252 28.4151 -24.3822 0.203 -0.717 0.667 113 37 41 0
-1.5253 31.7658 -25.3098 0.558 -0.083 0.825 119 53 34 0
-1.3745 32.0374 -25.3706 0.510 -0.100 0.854 117 56 33 0
-1.3248 32.7626 -25.4971 -0.119 -0.672 0.731 119 60 36 0
-1.0590 32.5298 -25.4852 0.166 -0.451 0.877 125 68 41 0
-0.8526 32.5613 -25.5115 -0.016 -0.518 0.855 129 72 45 0
-0.6537 32.6266 -25.5427 0.073 -0.444 0.893 128 72 44 0
-2.2320 44.1134 -27.3058 0.362 -0.694 0.622 143 98 55 0
-1.9702 43.9825 -27.3105 -0.423 -0.840 0.339 147 105 60 0
0.6375 42.5252 -27.3319 0.985 -0.173 0.009 136 92 46 0
0.9826 41.9108 -27.2642 0.948 -0.201 0.247 135 90 46 0
1.0717 42.6528 -27.3975 -0.324 -0.330 0.887 135 86 46 0
1.3171 42.5644 -27.4077 -0.308 -0.316 0.897 136 85 46 0
2.8254 41.7635 -27.4271 -0.061 -0.321 0.945 144 86 55 0
3.2286 42.0498 -27.5161 0.292 -0.150 0.945 146 85 56 0
3.4403 42.1362 -27.5521 0.280 -0.151 0.948 143 82 54 0
4.4317 41.5891 -27.5614 -0.264 -0.948 -0.177 137 69 52 0
5.2844 41.8745 -27.6960 0.876 -0.481 -0.035 124 60 47 0
6.2690 39.7594 -27.4420 -0.561 -0.824 -0.073 117 58 47 0
6.4663 43.0025 -28.0053 -0.263 -0.903 -0.341 108 57 44 0
6.6744 43.1244 -28.0469 -0.279 -0.902 -0.329 106 57 45 0
7.0045 44.0029 -28.2276 0.750 -0.085 0.655 109 62 56 0
7.6064 44.5884 -28.3869 0.776 -0.475 0.415 102 65 57 0
8.7289 50.4916 -29.4899 0.863 0.023 0.504 137 118 103 0
8.9894 54.5219 -30.1914 0.883 0.018 0.468 218 205 186 0
9.0839 55.8808 -30.4286 0.941 0.008 0.337 220 207 189 0
26.7622 25.0955 -27.0724 -0.512 -0.757 -0.407 205 196 179 0
26.9237 24.5495 -26.9973 -0.538 -0.733 -0.416 204 195 178 0
27.2628 24.1260 -26.9610 -0.444 -0.719 -0.535 203 195 178 0
30.2879 41.3959 -30.1613 0.124 -0.908 0.400 202 190 174 0
34.7666 54.1455 -32.7525 -0.558 -0.470 0.683 197 184 168 0
35.0634 55.0426 -32.9329 -0.543 -0.543 0.640 197 184 168 0
34.8445 28.9339 -28.5380 0.254 0.005 0.967 194 183 165 0
47.8203 46.6776 -32.8307 0.215 -0.923 -0.318 177 156 135 0
-26.0667 43.0886 -24.9506 0.375 -0.927 -0.012 230 223 207 0
-21.9359 38.3137 -24.5610 0.827 -0.369 -0.423 170 139 124 0
-15.6979 29.7295 -23.7402 -0.601 -0.722 0.344 121 60 60 0
-5.1569 28.4226 -24.5876 0.165 -0.867 0.470 114 37 42 0
-1.6979 33.3381 -25.7704 -0.002 -0.112 0.994 117 50 32 0
-0.3134 31.9150 -25.6699 -0.298 -0.295 0.908 125 67 41 0
-1.9585 43.7843 -27.5125 -0.238 -0.908 0.345 144 97 57 0
0.7531 41.7715 -27.4466 0.966 -0.246 0.082 135 91 48 0
1.1052 41.1142 -27.3711 0.514 -0.058 0.856 135 89 48 0
1.7431 41.3370 -27.4735 -0.324 -0.282 0.903 140 87 50 0
1.9832 41.2608 -27.4849 0.000 -0.275 0.961 137 83 47 0
2.2550 41.0059 -27.4693 0.043 -0.197 0.979 138 84 49 0
5.2627 40.4045 -27.6724 -0.240 -0.751 0.615 127 61 46 0
5.5775 39.7986 -27.6018 -0.445 -0.815 0.370 126 61 47 0
5.8349 39.5547 -27.5866 -0.432 -0.833 0.346 124 61 48 0
6.0114 39.8440 -27.6534 -0.443 -0.836 -0.325 120 58 46 0
6.2006 40.0532 -27.7080 -0.474 -0.855 -0.208 118 58 47 0
6.4347 39.9595 -27.7159 -0.475 -0.852 -0.218 117 59 48 0
6.6352 43.2249 -28.2890 -0.279 -0.902 -0.329 104 53 42 0
7.0565 43.4400 -28.3682 0.733 -0.296 0.613 104 56 51 0
7.6544 44.0344 -28.5294 0.884 -0.459 0.092 98 61 53 0
7.8884 43.9737 -28.5429 0.885 -0.449 0.127 99 62 55 0
8.0476 44.4948 -28.6472 0.889 -0.437 0.132 99 65 58 0
24.8001 26.8483 -27.3581 0.475 -0.823 -0.312 209 200 183 0
26.9259 25.0327 -27.2663 -0.524 -0.750 -0.404 206 196 179 0
33.6501 67.5808 -35.1512 -0.327 -0.711 0.622 202 190 174 0
35.7173 35.7280 -29.9682 0.818 -0.456 0.350 193 182 164 0
44.2679 35.7146 -30.8328 0.781 -0.318 -0.538 179 164 138 0
-26.5456 39.3314 -24.5024 0.129 -0.693 -0.709 235 227 212 0
-21.6144 39.2546 -24.9871 0.956 -0.220 -0.193 131 84 80 0
-13.7595 29.1251 -24.0468 -0.093 -0.888 -0.450 117 41 45 0
-13.5152 29.0505 -24.0587 0.445 -0.858 0.256 119 42 46 0
-13.3652 29.2488 -24.1078 0.405 -0.869 0.283 119 44 48 0
-11.6500 27.3725 -23.9599 0.371 -0.513 0.774 116 37 42 0
-9.4941 27.2843 -24.1625 0.057 -0.792 0.607 136 62 63 0
-4.2115 28.7019 -24.9384 0.134 -0.631 0.764 125 43 46 0
-4.0916 29.0495 -25.0100 -0.024 -0.689 0.724 123 40 42 0
-3.8809 29.0471 -25.0309 0.275 -0.710 0.648 122 37 38 0
1.5779 40.8575 -27.6029 -0.295 -0.210 0.932 138 89 49 0
5.2708 40.1883 -27.8612 -0.058 -0.302 0.952 126 61 45 0
5.6361 39.2526 -27.7380 -0.077 -0.881 0.466 125 61 46 0
5.9222 38.8150 -27.6920 -0.050 -0.820 0.570 123 59 46 0
6.2752 37.9187 -27.5743 -0.327 -0.940 0.095 119 57 44 0
7.7065 43.4510 -28.6654 0.917 -0.372 0.142 96 58 52 0
7.8708 43.9198 -28.7622 0.879 -0.476 -0.035 97 60 54 0
8.0422 44.3449 -28.8523 0.921 -0.389 -0.003 98 62 57 0
9.1195 52.8999 -30.4249 0.941 0.012 0.337 218 204 188 0
31.5136 38.8015 -30.2734 0.040 -0.676 0.736 200 189 173 0
31.7343 39.1425 -30.3541 -0.046 -0.802 0.595 200 188 172 0
32.8871 46.9098 -31.7996 0.553 -0.833 -0.003 199 187 170 0
34.0728 51.2800 -32.6671 -0.612 -0.491 0.619 196 184 168 0
37.1668 45.8482 -32.0500 0.919 -0.387 -0.072 192 179 162 0
41.5369 47.9084 -32.8437 0.864 -0.258 0.432 191 174 153 0
46.9946 49.9106 -33.7373 0.467 -0.018 0.884 179 161 139 0
47.8393 46.8292 -33.2953 0.213 -0.917 -0.337 179 158 139 0
-39.0184 23.1483 -20.6863 -0.343 -0.570 0.746 234 225 210 0
-26.5369 40.3800 -24.9212 0.272 -0.718 -0.641 233 224 209 0
-21.7068 38.7597 -25.1266 0.932 -0.260 -0.252 135 91 85 0
-13.7194 28.9099 -24.2263 0.292 -0.925 0.243 117 41 46 0
-12.5593 26.8032 -23.9786 0.481 -0.835 0.269 119 44 48 0
-12.3324 26.7641 -23.9947 0.479 -0.842 0.248 120 45 49 0
-11.4447 27.2975 -24.1762 0.219 -0.553 0.804 120 42 48 0
-11.1828 27.1504 -24.1771 0.032 -0.844 0.536 121 42 49 0
-10.5320 27.1117 -24.2358 0.264 -0.926 0.269 135 54 61 0
-10.2512 26.8988 -24.2272 -0.039 -0.937 0.346 139 61 65 0
-6.5100 27.0466 -24.6289 0.440 -0.736 0.514 122 43 50 0
-3.7963 28.6037 -25.1710 0.632 -0.772 0.063 123 38 38 0
0.1234 34.6319 -26.6076 0.307 0.005 0.952 135 84 51 0
0.7918 33.4784 -26.4753 0.190 -0.684 0.704 138 92 52 0
3.5262 38.5453 -27.6265 -0.235 -0.179 0.955 145 80 54 0
6.5137 37.6066 -27.7645 -0.184 -0.928 0.323 114 54 42 0
7.6950 43.3515 -28.8768 0.918 -0.368 0.150 93 54 49 0
7.8885 43.5941 -28.9382 0.890 -0.429 0.156 93 53 51 0
30.5085 29.1300 -28.7111 0.729 -0.648 -0.220 201 190 172 0
31.4834 38.5177 -30.4326 0.045 -0.738 0.674 201 191 174 0
31.6837 38.5590 -30.4598 0.042 -0.741 0.670 199 187 171 0
32.8702 46.8433 -32.0118 0.305 -0.931 0.202 199 187 171 0
33.0482 46.3957 -31.9523 -0.263 -0.954 -0.143 199 187 171 0
36.6923 26.8230 -28.9339 -0.153 -0.865 0.478 191 175 159 0
-53.9756 40.7320 -22.4742 0.917 -0.396 -0.054 232 224 207 0
-26.8093 40.3313 -25.1241 0.424 -0.663 -0.616 233 224 209 0
-14.0848 27.9907 -24.2415 -0.030 -0.822 -0.569 113 41 45 0
-12.3697 26.7745 -24.2007 0.471 -0.837 0.278 116 41 45 0
-12.1804 26.8454 -24.2321 0.189 -0.783 0.592 118 42 47 0
-11.6077 27.0459 -24.3244 0.350 -0.670 0.655 119 40 48 0
-10.2727 26.8646 -24.4264 -0.032 -0.938 0.344 137 59 63 0
-10.0563 26.8503 -24.4456 -0.032 -0.938 0.344 135 60 62 0
-6.5083 26.9346 -24.8155 0.439 -0.735 0.517 123 44 50 0
-6.3335 27.0536 -24.8539 0.456 -0.774 0.440 120 44 47 0
-6.1493 27.1407 -24.8875 0.368 -0.862 0.350 117 41 43 0
-4.3888 28.3544 -25.2759 0.617 -0.785 0.064 127 42 45 0
-4.0034 28.4825 -25.3368 0.653 -0.750 0.104 127 39 41 0
-3.8322 28.6304 -25.3798 0.658 -0.747 0.095 128 38 40 0
-3.6475 28.7270 -25.4152 0.241 -0.844 0.479 133 44 45 0
0.8526 33.0498 -26.6212 0.291 -0.528 0.798 134 85 53 0
1.0396 33.1777 -26.6623 0.460 -0.580 0.672 141 90 56 0
1.2054 33.4130 -26.7200 0.665 -0.467 0.583 142 90 54 0
1.4658 34.2550 -26.8932 0.982 -0.145 -0.123 135 86 46 0
3.3080 38.3819 -27.7988 -0.453 -0.283 0.845 144 84 56 0
7.6600 43.4306 -29.1168 0.805 -0.265 0.531 90 50 47 0
8.2782 43.8825 -29.2577 0.945 -0.249 0.213 91 58 55 0
8.6118 43.0158 -29.1396 0.960 -0.149 0.236 91 60 57 0
9.2862 53.1142 -30.9719 0.964 -0.001 0.265 213 201 185 0
32.8573 46.8328 -32.2341 0.314 -0.928 0.199 201 189 173 0
33.0389 46.4326 -32.1824 -0.263 -0.954 -0.143 198 186 170 0
33.1846 22.9228 -28.0886 0.973 -0.184 0.139 197 184 168 0
35.0460 34.9735 -30.3808 -0.099 -0.448 0.889 198 182 166 0
40.8209 48.8558 -33.3850 0.499 -0.233 0.834 189 174 153 0
40.8702 47.6742 -33.1834 0.503 -0.398 0.767 189 174 152 0
43.2798 54.3287 -34.5876 0.956 -0.209 0.206 189 172 153 0
43.0103 40.5702 -32.1563 0.820 -0.429 -0.378 184 167 147 0
49.7273 48.3439 -34.1873 0.262 -0.944 -0.199 255 255 254 0
-54.1558 40.9155 -22.7398 0.953 -0.302 -0.027 233 223 208 0
-26.7516 40.6813 -25.4306 0.382 -0.733 -0.562 232 224 210 0
-26.6992 41.1515 -25.5189 0.379 -0.724 -0.577 232 225 209 0
-25.1079 43.4196 -26.0780 -0.699 -0.306 0.647 227 208 196 0
-20.6890 35.9203 -25.1944 0.041 -0.936 0.349 140 91 87 0
-12.3794 26.7043 -24.3955 0.471 -0.837 0.278 115 38 44 0
-12.2657 26.9974 -24.4586 -0.265 -0.912 0.313 118 39 45 0
-11.9754 26.7712 -24.4476 0.368 -0.666 0.649 119 41 47 0
-11.5857 26.8802 -24.5057 0.350 -0.670 0.655 118 41 48 0
-11.1421 26.8266 -24.5405 0.005 -0.838 0.546 121 45 50 0
-10.2921 26.8238 -24.6247 0.010 -0.969 0.246 133 56 62 0
-6.1546 27.0527 -25.0777 0.364 -0.867 0.339 122 43 48 0
-4.8676 27.6850 -25.3176 0.393 -0.767 0.507 135 50 59 0
-4.0205 28.4357 -25.5346 0.327 -0.835 0.443 127 36 40 0
-3.8739 28.6796 -25.5923 0.251 -0.850 0.463 128 37 40 0
1.6044 36.7465 -27.5629 -0.373 -0.136 0.918 136 84 47 0
3.0426 38.4869 -28.0136 0.221 -0.599 0.770 145 88 58 0
3.2734 38.4291 -28.0264 -0.066 -0.052 0.996 143 88 57 0
6.7511 37.1294 -28.1437 -0.288 -0.943 0.165 104 47 40 0
6.2314 43.7619 -29.2630 -0.100 -0.904 -0.416 100 45 41 0
7.6760 43.1231 -29.2942 0.805 -0.265 0.531 88 48 44 0
8.1578 42.8716 -29.2978 0.844 -0.115 0.524 89 54 52 0
12.3888 42.8113 -29.7090 0.104 -0.680 0.726 216 210 197 0
21.8032 26.7329 -27.8086 0.079 -0.415 0.906 216 205 192 0
22.3624 26.3968 -27.8050 0.123 -0.486 0.865 214 202 191 0
30.4631 28.7485 -29.0279 0.307 -0.767 -0.563 200 189 170 0
32.9016 21.7591 -28.0369 0.969 -0.182 0.165 198 183 169 0
33.1728 22.8899 -28.2636 0.972 -0.179 0.155 198 182 167 0
34.5656 30.1815 -29.6899 0.917 -0.098 0.387 197 184 167 0
37.1156 45.6468 -32.6750 0.865 -0.486 -0.122 193 180 163 0
42.9540 41.4692 -32.5194 0.658 -0.498 -0.564 185 170 153 0
49.8610 49.0226 -34.5418 0.216 -0.909 -0.357 255 255 255 0
-46.4943 13.6656 -18.8908 -0.304 -0.536 0.788 236 221 202 0
-46.5609 14.0474 -18.9523 -0.397 -0.502 0.769 235 220 201 0
-47.0975 15.0552 -19.0788 -0.346 -0.345 0.873 236 220 203 0
-53.6946 39.6933 -22.8193 0.890 -0.373 -0.261 234 225 209 0
-54.1804 40.8595 -22.9791 0.953 -0.302 -0.027 234 223 207 0
-54.5485 41.8518 -23.1196 0.961 -0.257 -0.100 233 224 209 0
-26.6497 41.5277 -25.8315 0.117 -0.883 -0.456 231 224 208 0
-25.5777 41.3629 -25.9085 -0.231 -0.965 0.122 229 222 206 0
-20.7234 35.9065 -25.4170 -0.158 -0.971 0.181 134 84 81 0
-20.5515 36.0743 -25.4641 -0.141 -0.967 0.214 126 74 71 0
-20.3436 36.1496 -25.4981 -0.193 -0.936 0.295 125 70 68 0
-16.7435 29.0728 -24.5930 0.596 -0.796 0.102 115 55 55 0
-12.7263 26.9929 -24.6208 0.198 -0.921 0.336 112 37 42 0
-10.3084 26.7736 -24.8217 0.010 -0.969 0.246 131 52 59 0
-8.9666 26.5370 -24.9127 0.008 -0.963 0.270 134 44 54 0
1.6376 33.1145 -27.1389 0.748 -0.045 0.662 127 72 44 0
2.3301 37.4084 -27.9737 0.757 0.127 0.641 141 85 55 0
2.9604 37.5629 -28.0639 0.738 0.048 0.673 145 88 59 0
3.4627 37.1976 -28.0486 -0.057 -0.053 0.997 143 88 57 0
4.3861 36.8897 -28.0853 0.593 -0.032 0.805 136 76 51 0
4.6144 36.8205 -28.0956 0.599 -0.065 0.798 127 67 44 0
4.7733 37.1726 -28.1742 0.605 -0.101 0.789 125 65 46 0
7.6711 42.9741 -29.4969 0.783 -0.266 0.562 84 44 42 0
30.8475 38.4114 -30.9838 -0.391 -0.906 0.159 202 190 173 0
32.6908 21.3711 -28.1268 0.901 -0.195 0.387 198 184 171 0
33.4756 24.4162 -28.7480 0.712 -0.151 0.686 197 180 167 0
34.8775 31.5847 -30.1660 0.948 -0.122 0.293 195 182 165 0
35.2404 33.3563 -30.5181 0.937 -0.114 0.330 195 182 165 0
36.0355 37.3980 -31.3181 0.932 -0.129 0.339 192 179 162 0
37.5590 29.7535 -30.1056 0.437 -0.854 -0.282 191 175 158 0
-58.0560 47.6127 -24.0650 0.333 -0.364 0.870 234 224 209 0
-25.5996 41.3107 -26.1377 -0.224 -0.966 0.129 229 222 206 0
-20.5685 36.0155 -25.6807 -0.196 -0.963 -0.185 126 73 72 0
-16.5898 29.7527 -24.9454 -0.499 -0.573 0.651 117 55 58 0
-9.9760 26.2966 -24.9763 0.253 -0.967 0.036 129 46 54 0
-5.1448 28.4946 -25.8500 0.539 -0.627 0.562 132 46 53 0
2.4089 30.1314 -26.8918 0.725 -0.687 -0.043 125 67 43 0
2.6134 30.1436 -26.9142 0.735 -0.677 -0.042 127 70 44 0
2.8459 33.3241 -27.5104 0.625 -0.069 0.778 132 74 48 0
2.8906 34.2299 -27.6780 0.580 -0.065 0.812 135 78 50 0
3.1261 36.4905 -28.1087 0.757 0.038 0.653 140 83 54 0
3.2161 37.2090 -28.2471 0.754 0.037 0.656 140 84 55 0
3.6115 36.2001 -28.1044 -0.046 -0.075 0.996 139 84 54 0
3.8439 36.1082 -28.1108 -0.068 -0.084 0.994 140 85 55 0
5.0928 36.3853 -28.2842 0.927 -0.328 0.184 117 60 41 0
5.2340 36.8486 -28.3817 0.242 -0.461 0.854 113 56 37 0
6.8517 37.5848 -28.6743 -0.225 -0.969 0.102 100 45 40 0
7.7026 42.5509 -29.6534 0.867 -0.282 0.411 83 42 40 0
12.5098 41.0581 -29.8596 0.075 -0.148 0.986 216 210 196 0
21.1336 48.1757 -31.9949 0.596 0.098 0.797 214 204 190 0
26.5043 51.6517 -33.1523 0.197 -0.587 0.785 209 196 180 0
26.7322 51.7972 -33.2010 0.153 -0.549 0.822 207 196 179 0
33.0386 46.9220 -32.9458 0.275 -0.797 0.539 198 185 169 0
35.9222 36.4055 -31.3356 0.887 -0.132 0.442 192 179 162 0
37.3506 29.5711 -30.2450 0.421 -0.859 -0.292 191 176 157 0
37.7760 30.1196 -30.3859 0.945 -0.310 -0.102 190 174 159 0
37.7885 28.8368 -30.1560 0.778 -0.260 -0.571 189 173 158 0
45.8071 45.6694 -33.9823 0.816 -0.311 -0.488 179 163 148 0
46.7934 42.4813 -33.5053 0.826 -0.334 0.454 177 159 138 0
-57.8860 47.2506 -24.2819 0.333 -0.364 0.870 238 226 213 0
-25.6333 41.2873 -26.3710 -0.224 -0.966 0.129 229 221 205 0
-24.1495 41.3251 -26.5240 -0.093 -0.927 0.364 155 119 113 0
-18.8161 31.3736 -25.2372 0.313 -0.766 -0.562 123 69 69 0
-13.0855 27.2127 -25.0438 0.190 -0.889 0.417 114 39 46 0
-5.7660 26.8328 -25.6952 0.254 -0.818 0.517 138 52 59 0
-5.1333 28.3414 -26.0321 0.539 -0.627 0.562 134 48 52 0
1.9898 30.0244 -27.0397 0.086 -0.978 0.191 121 59 40 0
2.1944 30.0379 -27.0623 0.086 -0.978 0.191 123 62 42 0
2.3681 30.2075 -27.1102 0.704 -0.707 -0.062 123 63 42 0
2.5410 30.3839 -27.1594 0.704 -0.707 -0.062 120 61 39 0
2.9288 32.7413 -27.6267 0.607 -0.128 0.784 119 58 38 0
3.0267 33.3534 -27.7478 0.425 -0.126 0.896 120 60 39 0
3.3556 36.2749 -28.3120 0.778 0.036 0.628 130 73 48 0
3.7781 35.1040 -28.1404 0.161 -0.094 0.982 132 75 50 0
5.2691 36.4738 -28.5366 0.229 -0.480 0.847 107 50 34 0
5.4618 36.6184 -28.5819 0.094 -0.514 0.853 107 49 34 0
5.6653 36.6964 -28.6161 0.476 -0.366 0.800 105 49 34 0
5.8611 36.8247 -28.6587 0.477 -0.368 0.798 108 50 37 0
6.6523 37.3043 -28.8239 0.318 -0.495 0.808 103 48 43 0
6.8161 37.6617 -28.9051 0.613 -0.461 0.642 102 47 43 0
7.0741 37.3725 -28.8779 -0.175 -0.942 -0.286 99 45 42 0
7.2413 37.7144 -28.9566 -0.216 -0.933 -0.288 95 43 40 0
9.6354 53.4208 -32.0516 0.980 -0.145 0.137 210 203 185 0
9.7836 54.3060 -32.2274 0.980 -0.143 0.137 210 204 185 0
10.6662 55.1981 -32.4767 0.744 -0.020 0.668 211 208 191 0
22.1748 52.4447 -33.1083 0.531 0.001 0.847 213 203 191 0
30.7277 40.1867 -31.7186 0.396 -0.617 0.680 203 191 177 0
39.9307 57.5883 -35.7925 0.777 -0.561 -0.287 189 177 155 0
45.3514 45.3742 -34.1024 0.624 -0.311 -0.717 179 164 146 0
46.3469 41.1538 -33.4321 0.776 -0.312 0.548 177 159 140 0
-58.5561 48.1867 -24.6539 0.638 -0.310 0.705 240 226 215 0
-28.3636 47.1812 -27.4283 -0.743 -0.353 0.568 233 221 205 0
-24.7098 41.3713 -26.7180 -0.111 -0.932 0.344 189 163 154 0
-24.4370 41.3140 -26.7342 -0.098 -0.938 0.334 165 133 126 0
-24.1738 41.2796 -26.7537 -0.098 -0.938 0.334 152 113 108 0
-18.5513 31.7706 -25.5563 0.660 -0.750 0.048 118 59 61 0
-13.8773 26.9159 -25.1217 0.256 -0.965 0.055 114 39 49 0
-5.7741 26.7542 -25.8862 0.454 -0.774 0.441 138 50 58 0
3.5808 34.8607 -28.2937 0.728 -0.035 0.685 118 59 41 0
5.3150 36.0325 -28.6791 0.307 -0.485 0.819 107 49 35 0
5.4887 36.2921 -28.7439 0.076 -0.568 0.820 105 47 34 0
5.7058 36.2797 -28.7629 0.550 -0.388 0.740 102 46 32 0
5.8874 36.4957 -28.8204 0.557 -0.383 0.737 105 48 36 0
6.8567 37.2166 -29.0480 0.521 -0.449 0.726 101 46 43 0
7.0870 37.1151 -29.0519 -0.096 -0.957 0.274 99 45 42 0
7.2687 37.3515 -29.1132 -0.148 -0.988 -0.043 94 42 39 0
9.6390 53.1546 -32.2514 0.974 -0.157 0.161 209 201 184 0
9.7895 54.0126 -32.4239 0.975 -0.146 0.166 209 202 184 0
10.2467 54.2822 -32.5183 0.963 -0.208 0.168 212 206 190 0
10.5349 53.8256 -32.4626 0.982 -0.168 0.085 211 206 190 0
46.1390 41.0905 -33.6105 0.227 -0.845 -0.485 181 160 145 0
46.2717 40.7786 -33.5662 0.846 -0.507 0.163 179 159 144 0
49.3201 47.4272 -35.0875 0.282 -0.910 -0.304 254 255 254 0
49.3662 46.6708 -34.9529 0.370 -0.871 -0.324 255 255 255 0
-41.1357 13.8737 -20.2494 0.703 -0.629 0.330 234 222 206 0
-28.4747 47.3392 -27.7000 -0.741 -0.346 0.575 231 220 204 0
-24.4374 41.2087 -26.9555 -0.094 -0.934 0.343 159 125 118 0
-24.1586 41.1349 -26.9690 0.166 -0.935 0.314 151 110 106 0
-14.0074 26.5798 -25.2566 0.341 -0.939 -0.035 116 39 50 0
-13.8349 26.6992 -25.2956 0.358 -0.933 0.027 115 39 50 0
-12.3256 26.0558 -25.3234 0.019 -0.704 0.710 118 41 49 0
-10.0111 26.1038 -25.5582 0.132 -0.785 0.605 133 45 58 0
-9.7097 25.8204 -25.5349 0.437 -0.861 0.260 133 45 59 0
-7.3957 26.4792 -25.8831 0.071 -0.995 0.064 133 52 60 0
-3.5480 26.8540 -26.3282 0.148 -0.711 0.687 129 39 47 0
-3.0565 28.1854 -26.6234 0.486 -0.872 -0.054 130 41 47 0
-2.8932 28.3672 -26.6731 0.601 -0.796 -0.066 131 44 50 0
0.6935 30.0050 -27.3273 0.692 -0.273 0.669 108 45 39 0
0.8496 30.2541 -27.3888 0.738 -0.272 0.617 111 47 41 0
5.5100 36.0012 -28.9109 0.101 -0.503 0.859 105 48 35 0
5.7178 36.0458 -28.9395 0.065 -0.533 0.843 112 56 42 0
7.3609 39.6218 -29.7640 0.805 -0.058 0.591 86 36 34 0
8.0625 40.9584 -30.0806 0.941 -0.284 0.181 81 39 40 0
9.6440 52.8756 -32.4482 0.963 -0.144 0.227 207 198 181 0
9.8009 53.6686 -32.6108 0.963 -0.144 0.227 210 201 184 0
10.1245 52.8826 -32.4963 0.950 -0.252 0.184 211 204 187 0
10.5510 53.4195 -32.6377 0.969 -0.180 0.168 211 205 189 0
13.2507 39.3428 -30.2869 -0.077 -0.379 0.922 213 207 193 0
21.4266 41.9059 -31.5608 0.773 0.049 0.632 210 200 190 0
24.8562 49.0657 -33.2252 0.576 -0.133 0.807 210 198 183 0
25.0979 51.1169 -33.6297 0.563 -0.059 0.824 211 199 184 0
30.2424 47.0212 -33.3711 0.204 -0.797 0.569 203 192 178 0
30.8460 42.6685 -32.6217 0.868 -0.153 0.471 201 190 175 0
48.5889 72.6296 -39.9174 0.206 0.055 0.977 181 165 151 0
46.5924 51.4148 -35.7827 0.593 -0.321 -0.739 179 164 142 0
46.1376 41.1104 -33.8246 0.223 -0.838 -0.498 180 158 145 0
46.3039 40.9769 -33.8161 0.268 -0.836 -0.478 179 157 144 0
49.1153 47.4243 -35.2878 0.326 -0.893 -0.311 254 255 255 0
49.9599 49.6161 -35.7773 0.652 -0.722 -0.232 255 255 254 0
-40.9226 13.8082 -20.4557 0.581 -0.774 0.251 236 224 209 0
-26.2758 43.1492 -27.3816 -0.736 -0.384 0.557 231 218 205 0
-14.1582 26.3040 -25.3998 0.695 -0.698 0.173 117 41 51 0
-13.9970 26.4536 -25.4435 0.695 -0.698 0.173 117 40 50 0
-11.0329 25.8991 -25.6275 0.291 -0.861 0.417 125 44 56 0
-10.8133 25.8741 -25.6442 0.211 -0.828 0.520 126 45 56 0
-10.5881 25.8316 -25.6581 0.218 -0.826 0.521 127 45 55 0
-10.3997 25.9006 -25.6894 -0.003 -0.809 0.588 132 47 57 0
-10.1986 25.9309 -25.7146 0.006 -0.805 0.594 132 46 55 0
-9.9989 25.9653 -25.7404 0.132 -0.785 0.605 131 45 54 0
-8.9182 25.8715 -25.8279 0.058 -0.942 0.331 129 43 56 0
-3.5976 26.9345 -26.5442 0.137 -0.923 0.360 126 37 45 0
-3.4311 27.0915 -26.5898 0.278 -0.788 0.549 127 37 46 0
-0.1653 29.0432 -27.2732 0.766 -0.634 0.106 102 37 35 0
1.8026 30.5670 -27.7502 0.488 -0.562 0.668 112 48 40 0
2.6989 30.2410 -27.7761 0.365 -0.707 0.606 99 35 28 0
5.9524 35.7593 -29.1272 0.042 -0.465 0.885 103 49 38 0
7.4123 39.0759 -29.8911 0.846 -0.058 0.531 86 36 35 0
7.9748 41.4413 -30.3893 0.951 -0.176 0.256 82 41 39 0
9.4875 47.6446 -31.6997 0.986 0.040 0.159 109 89 82 0
9.6705 52.3985 -32.6091 0.863 -0.242 0.444 203 192 176 0
9.8681 52.7990 -32.7034 0.860 -0.241 0.449 210 201 184 0
10.1118 52.7671 -32.7211 0.952 -0.250 0.177 211 203 186 0
10.1983 54.2715 -33.0116 0.959 -0.150 0.239 212 205 189 0
11.1704 47.0059 -31.7435 -0.147 -0.949 -0.278 212 205 189 0
11.3142 47.8737 -31.9202 -0.171 -0.910 -0.377 212 205 189 0
23.5044 49.3048 -33.3731 0.985 -0.064 0.160 210 201 186 0
25.0642 49.3440 -33.5320 0.615 -0.104 0.781 210 198 185 0
30.4584 47.3180 -33.6761 0.630 -0.772 0.084 201 192 177 0
30.8016 49.6979 -34.1558 -0.394 -0.711 0.583 201 190 175 0
35.6651 46.2520 -33.9821 0.809 -0.576 -0.115 199 183 170 0
35.9236 46.7730 -34.1050 0.868 -0.489 0.083 197 181 168 0
36.1745 47.2010 -34.2096 0.868 -0.489 0.083 197 181 168 0
38.1652 30.5956 -31.2888 0.858 -0.233 -0.457 188 174 158 0
40.7094 45.3960 -34.3117 0.125 -0.820 -0.559 189 173 158 0
41.1024 46.7811 -34.6097 0.327 -0.863 -0.386 186 172 156 0
40.9086 43.9086 -34.0521 0.796 -0.145 0.587 186 172 156 0
45.8818 49.7427 -35.6295 0.593 -0.330 -0.734 178 163 147 0
46.8288 42.7725 -34.4143 0.158 -0.647 -0.746 177 156 142 0
49.1271 47.5055 -35.5253 0.324 -0.890 -0.321 254 255 255 0
-18.6241 30.4836 -25.9687 0.186 -0.955 -0.233 116 61 64 0
-15.1789 27.8262 -25.7987 -0.348 -0.898 -0.269 108 34 42 0
-14.6030 26.8410 -25.6678 -0.222 -0.866 0.449 112 37 44 0
-14.3626 26.7739 -25.6784 -0.222 -0.866 0.449 116 41 49 0
-14.0520 26.5100 -25.6585 -0.311 -0.924 0.221 118 42 50 0
-12.2814 25.7317 -25.6824 -0.131 -0.977 0.170 127 46 55 0
-12.0579 25.6991 -25.6978 -0.131 -0.977 0.170 124 43 52 0
-11.8527 25.7191 -25.7215 -0.125 -0.947 0.297 122 41 50 0
-10.1874 25.7963 -25.8972 0.006 -0.805 0.594 130 44 54 0
-9.5557 25.7950 -25.9581 0.386 -0.883 0.266 133 46 57 0
-8.9371 25.8305 -26.0246 0.176 -0.809 0.561 125 41 51 0
-3.8182 26.8755 -26.7177 0.290 -0.795 0.533 131 41 51 0
-3.6031 26.8445 -26.7327 0.284 -0.799 0.530 127 37 47 0
3.0806 31.3814 -28.2385 0.184 -0.659 0.729 103 42 39 0
3.3058 31.2942 -28.2438 0.094 -0.722 0.685 97 36 32 0
3.4998 31.3739 -28.2776 0.053 -0.743 0.667 94 35 30 0
3.6933 31.4574 -28.3121 0.039 -0.767 0.641 96 37 33 0
3.8852 31.5500 -28.3482 0.064 -0.727 0.683 98 41 36 0
4.4279 33.2337 -28.7196 0.317 -0.274 0.908 90 40 29 0
5.6455 34.8400 -29.1416 0.696 -0.310 0.647 97 41 32 0
6.3467 35.8210 -29.3952 0.565 -0.368 0.738 84 33 30 0
7.3295 37.9378 -29.8912 0.814 -0.063 0.578 84 35 33 0
7.4595 38.5624 -30.0220 0.846 -0.058 0.531 86 38 37 0
8.0480 40.7012 -30.4840 0.958 -0.161 0.236 80 40 39 0
9.4951 51.5816 -32.6845 0.857 -0.240 0.456 155 141 128 0
9.6832 52.0509 -32.7916 0.857 -0.240 0.456 194 184 167 0
9.8770 52.4808 -32.8918 0.860 -0.241 0.449 210 201 184 0
10.0785 52.8502 -32.9812 0.961 -0.231 0.154 211 202 186 0
10.2475 53.5489 -33.1299 0.960 -0.219 0.174 211 204 188 0
11.1372 47.1047 -31.9956 -0.125 -0.944 -0.306 211 204 188 0
11.2798 47.9863 -32.1763 -0.171 -0.910 -0.377 211 204 188 0
20.1094 35.4992 -30.6657 0.706 -0.354 -0.613 209 202 190 0
22.3808 48.1250 -33.2765 0.771 0.028 0.637 207 197 188 0
30.4466 47.3483 -33.9098 0.689 -0.711 0.142 199 190 173 0
35.6466 46.1691 -34.1895 0.363 -0.831 -0.420 197 181 168 0
36.4384 47.8541 -34.5852 0.852 -0.437 -0.289 197 181 168 0
36.7056 48.4138 -34.7171 0.848 -0.439 -0.297 196 180 167 0
41.6335 49.1886 -35.3405 -0.112 -0.944 -0.309 187 171 156 0
45.4911 48.6941 -35.6201 0.614 -0.320 -0.722 179 163 148 0
47.2766 55.4103 -37.0647 0.632 -0.304 -0.713 177 164 143 0
46.8884 43.1146 -34.6986 0.158 -0.647 -0.746 173 155 141 0
48.9264 47.5265 -35.7313 -0.186 -0.927 -0.327 247 247 245 0
49.1637 47.7113 -35.7893 0.328 -0.882 -0.339 254 255 255 0
-50.7584 25.6358 -22.1657 -0.336 -0.415 0.846 235 222 206 0
-16.9245 28.8711 -26.0432 -0.242 -0.839 0.487 112 45 51 0
-13.8324 26.4005 -25.8686 -0.253 -0.932 0.261 129 53 60 0
-13.5935 26.3328 -25.8787 -0.253 -0.932 0.261 125 46 55 0
-12.3327 25.7828 -25.8949 -0.110 -0.975 0.193 126 44 53 0
-10.4913 24.7018 -25.8656 -0.050 -0.918 0.394 132 45 59 0
-3.8363 26.8339 -26.9143 0.350 -0.750 0.561 133 48 57 0
-1.2911 27.3977 -27.2672 0.307 -0.938 0.159 119 44 44 0
3.0081 31.6304 -28.4907 0.777 -0.178 0.604 99 38 37 0
3.2894 31.2452 -28.4441 0.030 -0.772 0.635 94 33 32 0
3.5056 31.2048 -28.4572 0.037 -0.746 0.665 90 30 29 0
3.6990 31.2872 -28.4916 0.035 -0.760 0.649 91 32 30 0
3.8987 31.3354 -28.5201 0.052 -0.739 0.672 91 34 32 0
5.3119 34.1208 -29.1888 0.531 -0.326 0.782 102 49 39 0
5.6618 34.5838 -29.3110 0.686 -0.308 0.659 95 41 34 0
5.8456 34.7654 -29.3635 0.680 -0.296 0.671 91 38 33 0
6.3354 35.7346 -29.5959 0.637 -0.433 0.637 83 32 30 0
7.7013 39.8135 -30.5075 0.981 -0.051 0.187 79 34 34 0
8.0081 40.8205 -30.7296 0.943 -0.326 -0.070 79 38 39 0
9.5068 51.2490 -32.8680 0.869 -0.161 0.468 150 137 123 0
9.6827 51.8263 -32.9953 0.869 -0.161 0.468 181 171 154 0
10.2392 53.3888 -33.3477 0.956 -0.207 0.209 209 202 186 0
12.2475 44.7968 -31.8982 0.034 -0.946 -0.321 212 204 191 0
19.8881 35.5519 -30.8664 0.519 -0.533 -0.668 207 202 191 0
24.1560 55.9026 -35.1688 0.985 -0.061 0.160 209 199 187 0
30.7539 49.3172 -34.5451 -0.375 -0.926 -0.052 199 189 173 0
31.3554 52.2171 -35.1576 -0.264 -0.635 0.726 198 189 172 0
31.0386 33.4126 -31.5314 0.726 -0.250 0.641 198 186 172 0
34.7333 43.0739 -33.7346 -0.219 -0.602 0.768 196 183 170 0
35.6791 42.3424 -33.6858 0.485 -0.692 -0.534 197 180 170 0
35.9076 42.6122 -33.7594 0.123 -0.947 -0.296 196 179 169 0
41.0507 46.5226 -35.0025 0.268 -0.904 -0.333 187 171 156 0
41.3886 47.4821 -35.2185 0.536 -0.742 -0.402 187 171 156 0
46.9856 43.6560 -35.0260 0.079 -0.676 -0.732 172 155 143 0
48.0588 47.2159 -35.8101 0.512 -0.813 -0.277 171 154 141 0
48.9321 47.5780 -35.9635 -0.196 -0.925 -0.325 247 247 245 0
49.1742 47.7864 -36.0266 0.227 -0.949 -0.220 254 255 255 0
49.3638 47.7309 -36.0343 0.217 -0.943 -0.253 254 255 255 0
-29.3752 45.9131 -28.3548 -0.459 -0.731 -0.506 233 226 212 0
-18.4278 30.3643 -26.4029 0.505 -0.793 -0.341 114 55 59 0
-15.1848 27.0527 -26.0746 -0.144 -0.823 0.549 113 36 46 0
-13.7289 26.6167 -26.1300 0.550 -0.825 0.131 127 47 56 0
-13.5510 26.7225 -26.1675 0.557 -0.819 0.142 122 39 49 0
-9.0047 26.5182 -26.5641 -0.266 -0.946 -0.183 129 48 57 0
-8.7742 26.4554 -26.5740 -0.266 -0.946 -0.183 128 48 57 0
-5.2741 25.9138 -26.8051 0.328 -0.912 0.246 137 50 60 0
-1.3363 27.4723 -27.4836 0.475 -0.852 0.218 122 45 48 0
-1.1371 27.5019 -27.5084 0.289 -0.938 0.191 130 53 52 0
-0.9393 27.5370 -27.5342 0.294 -0.943 0.154 130 53 54 0
1.8862 28.7412 -28.0376 0.200 -0.825 0.529 101 37 35 0
2.2383 29.0367 -28.1284 -0.162 -0.858 0.488 105 41 39 0
3.0350 31.3507 -28.6515 0.680 -0.343 0.648 94 33 30 0
6.3343 35.5813 -29.7846 0.841 -0.308 0.445 82 33 29 0
9.5248 50.8602 -33.0402 0.877 -0.149 0.457 144 131 117 0
9.6851 51.5751 -33.1936 0.866 -0.150 0.476 172 162 145 0
10.2370 53.1706 -33.5545 0.956 -0.207 0.209 208 201 185 0
12.2173 44.8791 -32.1437 0.034 -0.946 -0.321 211 203 190 0
23.4543 48.7634 -33.9712 0.994 -0.111 0.009 207 198 185 0
24.3377 47.1616 -33.7467 0.666 0.038 0.745 208 198 186 0
30.2195 47.6401 -34.4031 -0.351 -0.919 0.181 202 191 175 0
30.7673 49.8182 -34.8761 -0.498 -0.643 0.581 199 190 173 0
36.6299 33.1344 -32.2175 -0.570 -0.788 0.234 192 176 163 0
36.9624 32.8148 -32.1876 0.268 -0.905 -0.330 189 175 162 0
38.0875 31.5604 -32.0534 0.872 -0.247 -0.423 187 173 160 0
41.0912 46.8778 -35.2984 0.320 -0.892 -0.321 186 170 155 0
43.3155 53.6472 -36.8186 0.328 -0.771 -0.545 184 167 152 0
46.8198 69.3232 -40.1809 0.505 -0.749 -0.430 183 165 151 0
47.8766 47.3394 -36.0383 0.643 -0.708 -0.291 174 154 143 0
48.9471 47.6768 -36.2061 -0.193 -0.929 -0.316 247 247 245 0
49.1406 47.6405 -36.2176 -0.193 -0.929 -0.316 254 255 255 0
-62.6212 40.9097 -24.4582 0.895 -0.445 -0.028 237 221 208 0
-29.6587 45.8539 -28.5687 -0.379 -0.725 -0.575 233 226 210 0
-19.2582 30.6529 -26.5991 0.198 -0.906 0.373 125 68 71 0
-14.6241 26.6084 -26.2533 0.074 -0.763 0.642 119 39 49 0
-10.1343 25.3331 -26.4334 -0.102 -0.959 0.266 132 43 55 0
-9.9547 26.0812 -26.5963 0.527 -0.700 0.481 131 48 59 0
-8.8230 26.5105 -26.7880 -0.266 -0.946 -0.183 129 48 60 0
-5.7194 25.9184 -26.9689 0.369 -0.886 0.281 136 49 58 0
-5.5215 25.9521 -26.9944 0.385 -0.893 0.232 135 48 57 0
-5.2561 25.7420 -26.9788 0.047 -0.917 0.396 137 50 59 0
1.8805 28.6417 -28.2253 0.397 -0.878 0.266 102 37 38 0
2.0779 28.6821 -28.2520 0.410 -0.876 0.256 102 38 38 0
2.2400 28.8988 -28.3097 -0.211 -0.857 0.471 103 39 39 0
2.4499 28.8777 -28.3256 -0.091 -0.849 0.521 99 35 35 0
3.0017 31.3910 -28.8681 0.217 -0.860 0.462 91 30 27 0
7.9591 40.8243 -31.1799 0.942 -0.327 -0.080 74 33 35 0
10.1843 53.4431 -33.8516 0.974 -0.223 0.051 208 201 185 0
38.6958 66.0898 -39.0383 0.899 -0.379 0.219 193 177 166 0
39.7651 41.5758 -34.3629 0.932 -0.197 -0.305 188 170 158 0
46.8505 69.5756 -40.4962 0.463 -0.759 -0.458 183 167 152 0
47.8938 47.4564 -36.2850 0.643 -0.708 -0.291 174 155 141 0
49.1858 47.8892 -36.4927 0.167 -0.938 -0.303 254 255 255 0
-49.9322 24.2352 -22.6414 -0.381 -0.657 0.651 236 220 209 0
-47.9661 26.6979 -23.3128 0.018 -0.872 -0.489 237 225 213 0
-27.3924 39.8719 -27.8599 0.221 -0.855 0.469 234 227 212 0
-18.6186 30.6617 -26.8819 -0.070 -0.512 0.856 112 49 57 0
-14.5614 26.3395 -26.4172 0.074 -0.787 0.612 119 39 48 0
-12.7366 26.0400 -26.5317 0.304 -0.891 0.337 126 35 45 0
-10.9489 25.1522 -26.5270 0.492 -0.833 0.252 145 53 64 0
-9.9230 25.8818 -26.7680 0.550 -0.702 0.452 130 47 58 0
-6.7883 25.2062 -26.9331 -0.046 -0.994 -0.095 146 56 71 0
-6.5450 25.0817 -26.9317 -0.157 -0.771 0.617 152 62 75 0
-5.5356 25.8958 -27.1878 0.386 -0.890 0.242 140 52 63 0
-5.3202 25.8662 -27.2024 0.264 -0.924 0.278 142 55 64 0
-3.4225 26.5003 -27.5076 0.397 -0.699 0.595 134 51 59 0
-3.0833 25.9817 -27.4378 0.410 -0.912 -0.025 134 48 57 0
-2.5498 26.3079 -27.5527 0.136 -0.942 0.307 130 47 55 0
0.8661 28.4425 -28.2973 0.595 -0.473 0.650 106 36 42 0
2.9527 31.5143 -29.0999 0.069 -0.918 0.392 90 28 28 0
3.1802 31.4193 -29.1028 0.036 -0.911 0.411 89 28 27 0
3.3813 31.4641 -29.1308 0.551 -0.606 0.574 86 26 25 0
3.5762 31.5424 -29.1647 0.551 -0.600 0.580 89 29 27 0
4.1447 31.8736 -29.2839 0.817 -0.556 0.153 88 36 34 0
6.7826 35.1166 -30.1726 0.881 -0.369 0.295 76 30 26 0
10.0136 52.5274 -33.9049 0.950 -0.240 0.197 203 194 177 0
10.1611 53.4276 -34.0961 0.973 -0.227 0.035 207 199 183 0
12.0032 51.7322 -33.9376 0.109 -0.320 0.941 210 203 192 0
24.0754 42.4179 -33.2526 0.658 0.038 0.752 207 198 186 0
26.7602 59.9253 -36.9520 0.407 -0.744 0.530 205 195 181 0
37.4527 32.4392 -32.5609 -0.280 -0.940 0.194 187 173 160 0
47.7378 70.6673 -41.0592 0.634 -0.302 0.712 181 165 151 0
47.9110 47.5738 -36.5324 0.643 -0.708 -0.291 173 154 140 0
-49.5167 23.9144 -22.8387 -0.403 -0.679 0.614 238 221 211 0
-27.2565 38.8765 -27.9161 0.391 -0.803 0.449 235 228 213 0
-27.0152 39.4728 -28.0573 0.382 -0.913 0.142 234 226 213 0
-14.5309 26.1594 -26.5949 0.051 -0.785 0.617 119 40 49 0
-9.9283 25.7975 -26.9585 0.560 -0.701 0.440 135 52 63 0
-7.3171 24.7918 -27.0059 0.074 -0.980 -0.182 140 54 67 0
-7.2038 25.1057 -27.0790 -0.029 -0.999 -0.016 143 55 70 0
-5.3329 25.8046 -27.3948 0.264 -0.924 0.278 144 56 68 0
-4.6065 26.9475 -27.6904 0.032 -0.720 0.693 140 57 65 0
-2.9391 26.1100 -27.6819 0.433 -0.901 -0.000 130 44 53 0
-2.5640 26.2520 -27.7456 0.134 -0.943 0.303 135 52 60 0
2.8666 28.5851 -28.7227 -0.207 -0.845 0.493 97 35 36 0
3.1544 28.1546 -28.6645 0.406 -0.874 0.266 90 28 31 0
3.3278 28.3137 -28.7125 -0.015 -0.967 0.255 88 26 27 0
3.1687 31.3433 -29.2990 -0.072 -0.996 -0.056 86 26 26 0
3.3279 31.6143 -29.3679 -0.087 -0.993 -0.085 82 22 22 0
3.5379 31.6126 -29.3874 -0.145 -0.975 -0.170 81 21 21 0
3.7663 31.5082 -29.3883 0.827 -0.538 0.166 89 30 30 0
3.9445 31.6807 -29.4394 0.826 -0.538 0.171 100 44 43 0
4.1409 31.7531 -29.4724 0.797 -0.587 0.142 89 36 35 0
7.1901 35.0753 -30.4206 0.512 -0.853 0.097 73 27 27 0
7.3764 35.2574 -30.4744 0.553 -0.823 0.128 70 26 27 0
7.4962 35.9113 -30.6156 0.453 -0.882 -0.126 71 27 30 0
7.4790 37.5578 -30.9409 0.072 -0.958 -0.276 70 28 30 0
9.5591 45.7401 -32.7625 0.988 0.027 0.153 93 71 64 0
9.9683 52.7229 -34.1878 0.973 -0.205 0.106 201 194 176 0
10.1376 53.4163 -34.3415 0.973 -0.228 0.040 205 198 181 0
12.0648 62.0980 -36.2478 -0.400 -0.910 -0.112 208 204 191 0
12.3043 62.2936 -36.3093 -0.433 -0.857 -0.279 208 205 191 0
24.9537 48.0108 -34.6700 0.743 0.028 0.668 204 194 183 0
38.6406 70.6525 -40.4611 0.970 -0.069 0.233 196 180 169 0
37.1194 32.7936 -32.7994 -0.411 -0.887 0.210 187 175 161 0
37.2718 32.5289 -32.7613 0.013 -0.933 0.361 188 175 162 0
-49.6972 23.7463 -23.0092 -0.201 -0.552 0.809 237 223 212 0
-48.6379 23.2799 -23.0155 -0.233 -0.695 0.680 237 223 212 0
-48.2527 23.0762 -23.0110 -0.221 -0.704 0.675 238 224 213 0
-27.2038 38.6530 -28.1155 0.445 -0.773 0.451 236 228 215 0
-23.4246 36.6594 -28.0719 -0.765 -0.365 0.531 153 115 112 0
-14.7495 26.0713 -26.7670 0.006 -0.813 0.583 116 39 47 0
-11.9611 25.4483 -26.9048 0.233 -0.972 0.026 128 38 47 0
-8.9894 24.7257 -27.0399 0.655 -0.752 0.073 131 50 59 0
-9.2149 26.1067 -27.2955 0.652 -0.738 -0.173 133 51 62 0
-9.0347 26.2049 -27.3321 0.375 -0.818 0.436 137 55 67 0
-8.4261 24.9225 -27.1324 0.503 -0.834 0.228 139 57 70 0
-5.0412 26.9032 -27.8482 0.841 -0.485 0.241 136 53 61 0
-4.4277 26.9481 -27.9150 -0.004 -0.714 0.700 140 58 65 0
-3.7575 25.9809 -27.7843 0.358 -0.810 0.465 143 62 69 0
0.8485 28.2764 -28.6782 0.555 -0.801 0.224 112 46 50 0
1.1667 28.7224 -28.7976 0.597 -0.712 0.369 110 44 48 0
2.9384 28.0859 -28.8369 0.283 -0.938 0.202 95 34 36 0
3.1591 27.9992 -28.8403 0.423 -0.864 0.275 90 30 32 0
3.3124 28.2625 -28.9075 -0.015 -0.967 0.255 86 25 28 0
3.1283 31.4218 -29.5234 -0.071 -0.996 -0.049 86 26 27 0
3.5045 31.6556 -29.6057 -0.145 -0.975 -0.170 80 20 21 0
3.9251 31.6478 -29.6437 0.826 -0.536 0.177 84 29 28 0
4.1048 31.8144 -29.6940 0.833 -0.522 0.184 83 30 29 0
7.4622 37.5061 -31.1510 -0.029 -0.927 -0.375 71 29 30 0
7.7208 37.2022 -31.1145 0.940 -0.264 0.216 69 29 29 0
9.9237 52.9110 -34.4703 0.975 -0.210 0.071 203 195 177 0
30.4252 30.4948 -31.9088 0.666 -0.598 0.447 198 186 171 0
38.4072 65.9744 -39.7714 0.941 -0.337 0.003 194 180 167 0
-49.7732 23.4333 -23.1599 -0.111 -0.607 0.787 234 222 210 0
-48.8537 23.1639 -23.1916 -0.253 -0.602 0.757 237 223 212 0
-27.1525 38.4328 -28.3148 0.424 -0.773 0.471 235 227 214 0
-26.6909 42.0691 -29.0936 -0.759 -0.347 0.551 231 216 203 0
-14.7498 25.9760 -26.9583 -0.006 -1.000 0.022 115 38 46 0
-14.5406 25.9934 -26.9814 0.038 -0.997 0.074 113 36 44 0
-14.3372 26.0264 -27.0071 0.021 -0.994 0.109 114 37 46 0
-11.9485 25.3135 -27.0869 0.244 -0.867 0.435 128 38 47 0
-11.6921 25.1833 -27.0846 0.268 -0.910 0.315 137 49 58 0
-10.9893 24.9777 -27.1090 0.394 -0.916 -0.074 137 50 59 0
-10.7679 24.9452 -27.1231 0.387 -0.914 -0.121 132 45 54 0
-9.1448 24.4590 -27.1770 0.572 -0.818 0.069 134 51 61 0
-8.9814 24.6002 -27.2209 0.524 -0.736 0.428 135 53 62 0
-8.7374 24.4862 -27.2207 0.454 -0.846 0.280 137 54 66 0
-8.3876 24.6974 -27.2962 0.408 -0.895 -0.179 143 59 72 0
-4.7629 26.5367 -28.0081 0.204 -0.755 0.623 134 53 61 0
-4.5576 26.5460 -28.0293 0.239 -0.760 0.605 135 54 61 0
-3.9879 25.9633 -27.9648 0.216 -0.925 0.314 139 58 65 0
-3.7654 25.9012 -27.9731 0.362 -0.802 0.475 143 62 70 0
0.8771 28.0188 -28.8367 0.579 -0.718 0.385 111 45 49 0
2.9614 28.8916 -29.2087 0.673 -0.666 0.321 92 32 34 0
6.8096 35.8835 -30.9838 0.958 -0.247 -0.147 79 34 31 0
7.1525 36.4780 -31.1362 0.501 -0.755 -0.424 68 25 25 0
7.4257 37.5939 -31.3875 -0.033 -0.927 -0.374 69 28 28 0
9.6476 53.0007 -34.7120 0.998 0.054 0.009 185 175 158 0
9.5621 58.4874 -35.8138 0.999 -0.011 -0.052 201 194 177 0
24.6685 43.3880 -34.1762 0.718 -0.000 0.696 204 194 184 0
29.6130 45.3578 -35.0383 0.275 -0.942 -0.195 205 191 178 0
29.8215 45.2793 -35.0420 0.263 -0.942 -0.209 203 189 176 0
35.5465 55.5073 -37.6475 -0.274 -0.341 0.899 196 183 167 0
35.7670 55.4529 -37.6572 -0.285 -0.358 0.889 196 183 167 0
36.7254 47.2516 -36.0883 0.217 -0.869 0.444 195 181 168 0
47.1041 73.0298 -42.2754 -0.053 -0.649 -0.759 181 167 155 0
-26.8577 37.6520 -28.4218 0.494 -0.775 0.393 235 227 214 0
-26.9331 38.3972 -28.5669 0.164 -0.942 0.294 235 226 214 0
-22.3450 34.3953 -28.1783 -0.744 -0.380 0.550 143 100 99 0
-14.7703 25.9357 -27.1587 -0.225 -0.963 -0.145 115 39 47 0
-12.4554 25.4538 -27.2764 0.183 -0.772 0.608 126 36 46 0
-12.2789 25.5587 -27.3142 0.195 -0.779 0.596 130 38 49 0
-10.7245 25.3506 -27.4169 0.358 -0.899 -0.252 126 37 49 0
-8.7931 24.5629 -27.4364 0.535 -0.838 0.112 145 59 70 0
-4.8236 26.6516 -28.2332 0.456 -0.870 0.189 138 57 66 0
-4.6583 26.8113 -28.2812 0.551 -0.767 0.330 138 57 64 0
-4.1437 25.6645 -28.0952 -0.145 -0.989 -0.019 141 60 67 0
0.9499 27.5557 -28.9567 0.281 -0.881 0.381 112 43 48 0
1.1036 27.7968 -29.0202 0.210 -0.976 0.062 111 42 47 0
2.8220 28.4215 -29.3081 0.206 -0.952 0.225 92 31 34 0
3.0093 28.5121 -29.3441 0.218 -0.948 0.231 91 30 35 0
6.8162 35.6756 -31.1616 0.950 -0.280 -0.140 77 31 31 0
6.9534 36.2010 -31.2816 0.950 -0.280 -0.140 74 30 30 0
7.1221 36.5210 -31.3627 0.570 -0.727 -0.382 69 26 27 0
7.1994 37.4881 -31.5673 0.630 -0.714 -0.307 66 26 26 0
7.3876 37.6929 -31.6267 -0.137 -0.834 -0.534 67 27 27 0
29.7945 44.9976 -35.2091 0.049 -0.659 0.751 202 189 173 0
29.9786 44.4447 -35.1135 0.073 -0.837 0.542 203 190 174 0
36.6765 46.8739 -36.2345 0.263 -0.530 0.806 194 181 165 0
40.1179 30.9181 -33.2989 0.497 -0.069 0.865 185 166 156 0
48.0666 48.4992 -37.6294 -0.121 -0.953 -0.276 173 154 140 0
-26.6308 37.0288 -28.5520 0.206 -0.925 0.319 235 226 213 0
-26.9542 38.3441 -28.7929 0.162 -0.933 0.320 235 225 213 0
-27.4704 43.1088 -29.7262 -0.813 -0.366 0.453 234 219 207 0
-22.2301 34.0131 -28.3398 -0.736 -0.391 0.552 138 95 93 0
-15.2128 26.4529 -27.4347 -0.405 -0.850 0.335 113 37 46 0
-10.7398 25.2975 -27.6124 0.374 -0.885 -0.276 132 41 55 0
-8.9606 24.3343 -27.5793 0.597 -0.802 -0.027 144 56 67 0
-8.8018 24.4899 -27.6261 0.555 -0.827 0.088 149 62 73 0
-7.0903 24.3145 -27.7490 0.545 -0.826 -0.144 152 70 82 0
-4.7961 26.4411 -28.4001 0.531 -0.755 0.384 143 61 70 0
-4.6530 26.6817 -28.4630 0.531 -0.776 0.339 144 63 70 0
-3.8174 25.8793 -28.3754 0.102 -0.988 0.117 152 71 79 0
-3.5971 25.8251 -28.3847 0.078 -0.990 0.118 148 66 76 0
0.9494 27.4351 -29.1387 0.043 -0.999 0.014 112 41 46 0
1.3425 27.5122 -29.1911 -0.226 -0.944 0.242 101 31 37 0
2.4867 27.9168 -29.3808 0.433 -0.877 0.207 103 38 42 0
2.6854 27.9458 -29.4052 0.347 -0.933 0.092 103 39 43 0
3.7716 27.5899 -29.4328 0.440 -0.833 -0.337 81 23 25 0
3.7517 28.7859 -29.6773 -0.250 -0.846 0.471 79 23 24 0
5.0726 30.6135 -30.1764 0.641 -0.605 0.472 83 32 31 0
5.2529 30.7703 -30.2255 0.640 -0.607 0.471 82 32 31 0
6.7469 35.9786 -31.4370 0.951 -0.267 0.155 74 28 28 0
6.8346 36.8457 -31.6237 0.879 -0.423 -0.222 70 27 27 0
6.9640 37.4462 -31.7594 0.500 -0.864 0.062 68 25 26 0
7.3393 37.8632 -31.8802 -0.137 -0.834 -0.534 66 28 27 0
8.3000 38.8159 -32.1657 0.779 -0.361 -0.513 65 33 32 0
9.3077 58.0234 -36.2152 0.998 0.050 -0.048 195 193 174 0
8.9673 63.7067 -37.3541 0.998 0.050 -0.048 190 192 172 0
21.6265 23.6755 -30.2856 0.219 -0.970 -0.104 208 200 187 0
21.8060 23.7583 -30.3193 0.307 -0.952 0.010 206 199 183 0
29.7760 44.8952 -35.4132 0.058 -0.678 0.733 204 191 174 0
29.9538 44.2143 -35.2895 0.129 -0.842 0.524 203 190 174 0
30.1764 44.4547 -35.3597 0.094 -0.821 0.564 203 190 173 0
30.3746 44.2228 -35.3303 0.756 -0.653 0.048 202 190 174 0
37.2560 46.5150 -36.4418 0.595 -0.359 0.719 190 177 161 0
45.2861 59.7783 -39.9196 0.352 -0.815 -0.460 179 165 153 0
-26.4384 37.0506 -28.8108 0.266 -0.887 0.378 234 225 213 0
-22.7358 34.5705 -28.6378 -0.577 -0.330 0.747 146 101 101 0
-13.2251 25.0267 -27.5342 0.443 -0.803 0.398 123 40 50 0
-13.0420 25.1108 -27.5686 0.443 -0.803 0.398 125 38 50 0
-12.2756 25.3535 -27.6899 0.169 -0.805 0.569 134 42 54 0
-4.0284 25.7875 -28.5428 0.024 -0.999 0.022 149 66 76 0
-3.0378 25.1409 -28.5001 0.480 -0.811 0.334 137 56 65 0
