ply
format ascii 1.0
element vertex 805
property float x
property float y
property float z
property float nx
property float ny
property float nz
property uchar diffuse_red
property uchar diffuse_green
property uchar diffuse_blue
property uchar class
end_header
12.5085 23.5948 -58.8416 0.245 -0.677 0.694 173 175 161 0
13.7960 25.5330 -59.8606 0.351 -0.130 0.927 169 170 156 0
13.7542 42.8552 -68.1263 0.234 -0.948 -0.217 166 166 154 0
14.5982 39.6686 -66.6667 -0.433 -0.717 0.546 164 164 152 0
17.5678 28.2468 -61.4311 0.684 -0.130 0.718 157 158 144 0
18.2781 36.6130 -65.4765 -0.337 -0.941 0.025 154 155 141 0
21.7302 47.4904 -70.9205 0.983 -0.184 -0.023 150 144 132 0
22.4541 14.0709 -55.0205 0.780 -0.588 0.216 149 142 133 0
36.1854 42.4180 -69.5531 0.154 -0.595 -0.789 148 134 121 0
36.4316 42.6239 -69.6693 -0.164 -0.773 -0.613 148 134 121 0
38.2435 36.2067 -66.7382 -0.580 -0.676 -0.455 146 130 119 0
38.3421 35.5412 -66.4277 -0.548 -0.788 -0.280 145 128 118 0
45.4962 55.0474 -76.2606 -0.063 -0.932 -0.358 139 125 116 0
-72.8375 32.3017 -57.0515 -0.378 -0.911 -0.163 255 255 255 0
-72.4527 32.1791 -57.0207 -0.423 -0.897 -0.131 133 133 133 0
-71.9755 31.9426 -56.9418 -0.423 -0.897 -0.131 72 69 67 0
-70.9621 33.8545 -57.9320 -0.416 -0.483 0.771 235 231 233 0
-70.6016 33.7598 -57.9127 -0.585 -0.499 0.639 240 234 238 0
-69.7146 32.9988 -57.6122 -0.569 -0.499 0.654 242 237 238 0
-69.2659 32.7884 -57.5438 -0.474 -0.469 0.746 243 237 239 0
-67.9182 35.4506 -58.9179 0.132 -0.836 -0.533 237 231 230 0
-24.2288 28.4554 -58.7314 0.680 -0.556 -0.478 222 218 222 0
-25.0354 31.0439 -59.9140 -0.024 -0.574 -0.818 222 218 222 0
-22.2068 32.5274 -60.8304 -0.698 -0.700 -0.154 216 213 219 0
-19.7058 29.6275 -59.6213 -0.272 -0.930 -0.246 214 210 216 0
-18.2753 28.9045 -59.3784 -0.428 -0.773 -0.468 213 206 215 0
-0.1493 22.1221 -57.4405 -0.507 -0.858 -0.079 185 188 191 0
2.4662 30.3344 -61.5676 -0.134 -0.835 0.534 183 185 184 0
8.7005 23.1272 -58.5640 -0.132 -0.957 -0.259 179 179 169 0
9.4615 23.5952 -58.8436 -0.322 -0.863 0.390 178 178 168 0
9.5962 24.2882 -59.1856 -0.257 -0.628 0.735 176 176 165 0
9.8213 24.0642 -59.0945 -0.747 -0.608 0.270 175 175 164 0
10.5840 24.6180 -59.4153 0.307 -0.910 -0.278 173 173 162 0
12.2241 19.1061 -56.8915 0.440 -0.838 -0.324 172 173 162 0
12.3576 19.8916 -57.2778 0.475 -0.845 0.244 171 173 161 0
12.3169 23.1195 -58.8225 0.301 -0.583 0.755 171 173 160 0
14.1574 25.8861 -60.2824 0.196 -0.394 0.898 165 165 153 0
25.0205 53.3968 -74.2604 0.728 -0.672 0.138 149 141 130 0
35.7176 42.3136 -69.7219 -0.433 -0.734 -0.523 150 134 121 0
36.1563 43.9842 -70.5547 -0.208 -0.809 -0.550 149 133 120 0
37.9465 37.0365 -67.3533 -0.487 -0.801 -0.347 143 131 116 0
38.0724 36.5184 -67.1141 -0.496 -0.799 -0.340 143 129 116 0
38.5656 35.7494 -66.7811 -0.396 -0.855 -0.335 143 129 117 0
-73.0313 32.4373 -57.3793 -0.379 -0.912 -0.154 255 255 255 0
-72.6512 32.3211 -57.3508 -0.423 -0.897 -0.131 133 133 133 0
-72.1726 32.0838 -57.2710 -0.423 -0.897 -0.131 69 68 66 0
-70.9173 33.6967 -58.1382 -0.608 -0.475 0.636 234 229 230 0
-70.4288 33.4407 -58.0501 -0.601 -0.497 0.626 237 231 233 0
-69.4751 32.5955 -57.7118 -0.569 -0.499 0.654 239 235 235 0
-69.0666 32.4352 -57.6641 -0.471 -0.491 0.732 242 237 238 0
-67.3992 34.6632 -58.8573 -0.080 -0.304 0.949 237 231 231 0
-65.7106 32.8081 -58.0856 0.480 -0.761 0.436 235 230 228 0
-64.8485 32.0357 -57.7758 0.238 -0.778 0.582 234 230 227 0
-21.6370 5.9614 -48.3337 0.440 -0.416 -0.796 229 225 228 0
-25.9281 30.7270 -59.9512 0.139 -0.856 -0.499 221 218 221 0
-24.4896 28.3929 -58.9308 0.441 -0.728 -0.525 221 218 221 0
-24.2753 28.4501 -58.9738 0.685 -0.640 -0.349 219 219 221 0
-22.9221 33.0027 -61.2638 0.658 -0.725 -0.203 217 215 220 0
-22.4148 32.9553 -61.2776 -0.646 -0.729 -0.225 216 214 220 0
-22.0051 32.5100 -61.0926 -0.650 -0.727 -0.219 214 211 218 0
-21.6406 32.1815 -60.9607 -0.697 -0.692 -0.186 213 210 219 0
-18.2505 28.7050 -59.5308 -0.719 -0.672 -0.177 214 205 216 0
-17.9213 28.4285 -59.4214 -0.751 -0.656 -0.073 213 204 215 0
-9.2946 27.8910 -59.7845 -0.440 -0.701 -0.561 200 200 205 0
-8.4156 27.1113 -59.4723 -0.495 -0.752 -0.435 197 197 206 0
-8.7383 31.8685 -61.7401 -0.239 -0.664 -0.709 195 196 201 0
-7.4053 32.0961 -61.9458 0.812 -0.366 -0.454 195 194 199 0
-0.6692 10.4536 -52.0086 0.317 -0.637 0.703 196 191 197 0
2.2561 30.0622 -61.6627 -0.199 -0.775 0.599 181 183 182 0
4.1294 27.7481 -60.6833 0.409 -0.904 -0.121 178 181 178 0
9.5634 24.3424 -59.4349 -0.758 -0.652 0.027 173 173 163 0
10.5769 24.3918 -59.5318 0.307 -0.937 -0.167 173 173 161 0
12.9910 18.7524 -56.9899 -0.176 -0.574 -0.800 168 170 157 0
14.1597 38.0801 -66.3821 0.062 -0.358 0.932 162 162 150 0
18.1543 27.0377 -61.3522 0.030 -0.545 0.838 152 152 140 0
24.2698 53.9066 -74.7328 0.445 -0.852 0.275 145 137 126 0
24.9919 53.3060 -74.4956 0.905 -0.421 -0.058 148 139 130 0
38.6845 39.1757 -68.6777 -0.211 -0.819 0.534 143 129 116 0
38.4652 35.2166 -66.7552 -0.519 -0.815 -0.258 143 130 117 0
48.4271 60.3435 -79.5741 -0.731 -0.631 -0.260 135 121 110 0
-73.2846 32.6445 -57.7384 -0.385 -0.913 -0.139 255 255 255 0
-72.3704 32.2255 -57.6013 -0.423 -0.897 -0.131 69 68 67 0
-71.6660 32.4055 -57.7389 -0.359 -0.916 -0.177 233 228 224 0
-70.5531 33.1387 -58.1733 -0.429 -0.486 0.761 236 230 230 0
-70.2724 33.1428 -58.1954 -0.589 -0.495 0.639 237 231 231 0
-69.6020 32.6549 -58.0075 -0.588 -0.532 0.610 238 233 232 0
-68.9420 32.1769 -57.8235 -0.536 -0.487 0.690 240 235 236 0
-67.3456 31.5688 -57.6438 0.037 -0.988 0.153 241 235 235 0
-67.1794 31.7130 -57.7255 0.046 -0.988 0.148 240 234 234 0
-64.9288 31.6748 -57.8683 0.263 -0.836 0.482 236 230 228 0
-64.6646 31.6911 -57.8951 0.195 -0.831 0.520 236 230 228 0
-21.9253 6.4709 -48.7593 0.440 -0.416 -0.796 229 226 226 0
-25.4313 29.9874 -59.8831 0.081 -0.875 -0.477 220 218 221 0
-24.9011 29.2802 -59.5790 0.289 -0.869 -0.401 218 216 219 0
-24.2118 29.3523 -59.6633 0.259 -0.688 -0.678 218 216 219 0
-23.0072 33.0987 -61.5618 0.668 -0.728 -0.155 217 215 220 0
-22.2160 32.2937 -61.2291 -0.304 -0.953 -0.013 215 213 219 0
-22.2868 33.1386 -61.6327 0.816 -0.369 -0.446 215 212 219 0
-21.5520 32.4705 -61.3622 0.754 -0.590 -0.288 215 212 218 0
-21.3307 32.5297 -61.4067 0.777 -0.565 -0.277 214 212 218 0
-13.0145 24.4402 -58.0898 -0.431 -0.902 0.006 206 204 213 0
-14.7579 35.4377 -63.2845 0.085 -0.855 0.511 204 201 210 0
-9.3068 26.1477 -59.1815 0.629 -0.210 0.748 199 201 205 0
-9.2991 26.9349 -59.5628 0.718 -0.389 0.578 198 199 203 0
-9.3814 28.0670 -60.1046 -0.730 -0.684 -0.016 198 199 204 0
-3.5034 30.8563 -61.8751 0.513 -0.857 0.044 186 187 192 0
-3.3732 31.3171 -62.1073 0.558 -0.750 -0.356 187 188 192 0
0.6822 31.3220 -62.4003 -0.805 -0.555 -0.209 182 184 183 0
1.9531 30.3690 -62.0305 -0.307 -0.779 0.547 179 181 181 0
2.1627 30.4405 -62.0801 -0.207 -0.732 0.649 179 181 181 0
2.7587 30.8730 -62.3320 0.136 -0.820 0.556 178 180 179 0
3.9684 30.1445 -62.0663 -0.816 -0.560 0.142 176 178 175 0
9.5167 18.6406 -56.8994 -0.160 -0.595 0.788 173 173 163 0
10.2860 25.0592 -60.0593 0.444 -0.819 -0.363 172 172 161 0
10.4881 25.0895 -60.0885 0.423 -0.805 -0.416 172 172 160 0
11.2313 23.5237 -59.3844 -0.206 -0.832 -0.515 169 169 158 0
13.9177 29.4051 -62.4218 -0.200 -0.874 -0.442 160 160 149 0
15.8250 9.9868 -53.1657 0.200 -0.976 -0.088 158 158 146 0
15.9995 9.9356 -53.1534 0.264 -0.948 -0.177 158 158 146 0
17.6649 30.1404 -63.0461 0.554 -0.683 0.476 149 149 137 0
17.9013 28.5693 -62.3030 0.634 -0.733 -0.245 149 149 137 0
18.1012 28.9447 -62.4989 0.650 -0.732 -0.204 149 149 138 0
18.5192 28.4793 -62.3038 0.964 -0.094 0.247 149 149 137 0
19.5212 37.7648 -66.8671 0.473 -0.394 -0.788 150 145 137 0
19.9670 39.3355 -67.6588 0.125 -0.470 -0.874 149 144 135 0
-73.4707 32.7699 -58.0640 -0.342 -0.920 -0.191 255 255 255 0
-72.5664 32.3645 -57.9315 -0.431 -0.894 -0.125 71 68 67 0
-71.8619 32.5464 -58.0700 -0.359 -0.916 -0.177 235 225 225 0
-71.4597 33.1040 -58.3696 -0.420 -0.468 0.777 237 227 226 0
-70.4919 32.9611 -58.3692 -0.417 -0.489 0.766 235 230 228 0
-70.0157 32.7192 -58.2856 -0.592 -0.477 0.650 236 230 228 0
-69.3957 32.2943 -58.1233 -0.588 -0.532 0.610 235 229 228 0
-68.8366 31.9434 -57.9927 -0.506 -0.471 0.722 235 230 231 0
-67.1386 31.5605 -57.9277 -0.009 -0.987 0.162 243 237 237 0
-62.0783 27.1152 -56.1286 -0.365 -0.860 0.357 240 232 231 0
-64.9912 31.6562 -58.1272 0.288 -0.820 0.495 240 232 230 0
-64.7567 31.7120 -58.1710 0.288 -0.820 0.495 241 231 231 0
-25.1157 29.0988 -59.7264 0.418 -0.804 -0.423 220 218 221 0
-24.8650 29.0716 -59.7310 0.407 -0.804 -0.432 219 217 220 0
-24.6277 29.0765 -59.7503 0.570 -0.711 -0.413 219 217 220 0
-25.1046 33.9245 -62.0717 -0.426 -0.901 -0.077 218 216 219 0
-23.1208 33.2697 -61.8949 0.549 -0.798 -0.249 216 214 218 0
-22.2722 32.3152 -61.4916 -0.304 -0.953 -0.013 215 213 218 0
-21.9914 32.2143 -61.4626 -0.267 -0.963 -0.034 215 212 218 0
-13.6894 25.0386 -58.5681 -0.407 -0.912 -0.047 206 205 213 0
-13.0621 24.4615 -58.3324 -0.431 -0.902 0.006 204 203 211 0
-14.8747 35.6801 -63.6536 0.107 -0.910 0.400 202 199 208 0
-15.9331 40.9170 -66.1224 0.733 -0.618 -0.283 201 198 207 0
-3.2822 30.7049 -62.0626 0.519 -0.854 0.030 186 187 192 0
-0.3080 34.2086 -63.9768 -0.644 -0.555 -0.526 181 182 183 0
1.9487 30.1913 -62.1859 -0.341 -0.756 0.559 179 179 181 0
5.6476 25.5390 -60.1892 -0.020 -0.660 0.751 176 177 172 0
5.8589 25.5239 -60.1969 -0.020 -0.660 0.751 175 176 171 0
8.6575 17.4466 -56.4722 0.176 -0.914 -0.366 174 173 166 0
8.8091 17.8043 -56.6567 0.195 -0.877 -0.438 172 171 164 0
9.0768 18.8833 -57.2000 0.093 -0.688 0.720 172 172 162 0
9.2928 18.6781 -57.1157 -0.147 -0.608 0.780 172 172 162 0
7.3653 41.2683 -67.9534 0.493 -0.858 0.143 172 172 161 0
7.5279 42.0136 -68.3271 0.612 -0.674 0.414 171 171 160 0
10.7184 24.4835 -60.0378 -0.097 -0.757 -0.646 168 169 158 0
13.6327 30.2680 -63.0558 0.110 -0.852 -0.512 158 158 148 0
13.5042 45.5206 -70.4568 0.730 -0.294 0.617 158 158 146 0
15.8004 10.0658 -53.3954 0.273 -0.910 -0.311 156 156 144 0
16.2655 11.4202 -54.0865 0.253 -0.955 -0.157 154 154 142 0
17.6403 30.1590 -63.2884 0.656 -0.701 0.278 148 148 136 0
32.7805 55.9840 -76.9140 -0.543 -0.390 0.744 153 139 123 0
33.0173 55.8815 -76.8811 -0.543 -0.388 0.744 153 140 124 0
33.3625 56.8816 -77.3916 -0.482 -0.539 0.691 151 138 124 0
33.7067 55.4037 -76.6981 -0.309 -0.585 0.750 152 138 124 0
33.8567 52.2056 -75.1550 -0.412 -0.906 0.095 150 137 123 0
34.0629 51.9031 -75.0227 -0.461 -0.881 0.104 149 136 121 0
-73.6961 32.9424 -58.4107 -0.422 -0.893 -0.156 255 255 255 0
-73.2511 32.7502 -58.3484 -0.423 -0.897 -0.131 133 133 133 0
-72.7683 32.5104 -58.2656 -0.423 -0.897 -0.131 71 68 69 0
-70.8936 33.0072 -58.6409 -0.241 -0.449 0.861 237 228 227 0
-65.2036 31.8352 -58.4721 -0.311 -0.693 0.650 241 231 232 0
-64.8250 31.7014 -58.4337 -0.311 -0.693 0.650 241 231 232 0
-24.9491 28.5741 -59.7329 0.173 -0.980 -0.095 220 218 221 0
-24.7280 28.6166 -59.7693 0.173 -0.980 -0.095 219 217 220 0
-22.3397 32.3663 -61.7682 -0.312 -0.950 -0.010 215 213 218 0
-20.2556 28.0533 -59.8113 0.219 -0.951 -0.216 212 210 213 0
-19.7766 28.0220 -59.8300 0.020 -0.933 -0.359 212 210 215 0
-19.3510 28.1359 -59.9157 0.208 -0.903 -0.377 212 209 216 0
-19.2688 28.5562 -60.1266 0.475 -0.760 -0.444 212 207 215 0
-14.8384 26.3821 -59.3796 0.370 -0.853 0.367 209 205 211 0
-13.7986 24.5538 -58.5612 0.360 -0.915 0.183 205 204 210 0
-13.6745 24.8616 -58.7202 -0.084 -0.995 -0.057 206 205 212 0
-13.4457 24.8427 -58.7272 -0.084 -0.995 -0.057 205 204 212 0
-15.8760 39.7141 -65.8116 0.547 -0.678 -0.490 202 199 208 0
-8.9919 27.1615 -60.1742 0.571 -0.254 0.781 197 197 204 0
-11.9638 40.1008 -66.2775 0.933 -0.358 0.047 197 196 205 0
-3.4061 35.6415 -64.7079 0.329 -0.939 -0.100 184 184 189 0
-3.1725 35.6497 -64.7284 0.172 -0.960 -0.219 184 183 188 0
-0.8481 27.2282 -60.7837 0.287 -0.824 -0.489 184 183 186 0
0.9968 30.3874 -62.4560 -0.818 -0.521 -0.245 179 181 180 0
2.0931 29.0959 -61.9035 -0.399 -0.681 0.614 180 180 182 0
2.5530 28.9526 -61.8662 -0.002 -0.861 0.509 178 178 180 0
5.6336 25.4190 -60.3602 -0.046 -0.757 0.652 175 176 170 0
5.2414 38.8575 -66.8898 -0.604 -0.545 0.581 171 172 166 0
8.7971 17.6739 -56.8050 0.226 -0.868 -0.443 171 171 163 0
8.9813 17.7466 -56.8535 0.226 -0.868 -0.443 171 171 162 0
6.9875 40.0445 -67.5927 -0.484 -0.832 -0.271 171 171 160 0
11.1572 23.7774 -59.9505 -0.400 -0.820 -0.409 165 167 156 0
12.5177 21.6656 -59.0164 -0.185 -0.559 -0.808 163 163 150 0
13.8520 29.6502 -63.0071 0.023 -0.936 -0.351 159 156 147 0
16.0002 8.9375 -53.0524 0.177 -0.978 -0.108 154 154 141 0
33.1704 55.1526 -76.8200 0.204 -0.296 0.933 151 137 126 0
33.8619 50.2245 -74.4642 -0.469 -0.855 -0.220 149 136 121 0
36.8416 30.2604 -64.9337 0.954 -0.296 -0.040 146 127 118 0
38.4404 28.2246 -64.0536 0.239 -0.840 0.487 141 127 116 0
41.5201 37.7142 -68.9023 0.786 -0.530 0.318 138 125 110 0
42.2576 40.5702 -70.3482 0.331 -0.727 -0.602 137 125 111 0
-68.3948 31.5387 -58.3754 0.441 -0.587 0.679 235 230 232 0
-68.2115 31.6610 -58.4482 0.454 -0.578 0.678 237 233 234 0
-66.4624 30.8481 -58.1730 0.303 -0.450 0.840 244 239 239 0
-63.5234 28.4586 -57.2090 -0.260 -0.688 0.678 240 234 232 0
-62.7684 27.8243 -56.9513 -0.242 -0.749 0.617 239 234 231 0
-64.8911 31.3229 -58.5164 0.236 -0.796 0.557 239 232 232 0
-64.4469 31.1013 -58.4391 -0.379 -0.718 0.584 240 232 233 0
-25.3810 29.5024 -60.4072 -0.146 -0.779 0.610 219 217 220 0
-23.2645 34.0432 -62.7817 0.283 -0.832 -0.477 216 213 218 0
-20.2736 27.9770 -60.0194 0.221 -0.949 -0.224 212 210 213 0
-19.9287 28.3120 -60.2079 0.301 -0.893 -0.335 213 211 216 0
-19.6886 28.2958 -60.2169 0.295 -0.893 -0.340 211 209 214 0
-19.4867 28.3846 -60.2746 0.295 -0.893 -0.340 212 209 215 0
-19.2261 28.3107 -60.2567 0.077 -0.846 0.528 211 207 215 0
-19.1688 28.8036 -60.5024 0.548 -0.804 0.229 213 205 215 0
-13.9887 24.3247 -58.6722 0.644 -0.698 0.314 207 205 210 0
-13.8321 24.5287 -58.7832 0.346 -0.914 0.211 207 205 210 0
-15.9600 39.8422 -66.1382 0.557 -0.676 -0.484 200 197 206 0
-16.0096 41.7307 -67.0603 0.839 -0.399 -0.370 200 197 206 0
-12.0047 40.0910 -66.5388 0.736 -0.672 0.080 196 196 204 0
-3.7266 25.2628 -59.8548 -0.322 -0.902 -0.286 189 189 197 0
-1.2976 27.1251 -60.9386 0.522 -0.821 -0.232 183 182 185 0
-1.0762 27.1059 -60.9447 0.513 -0.830 -0.218 183 181 184 0
-0.9181 27.4139 -61.1068 0.522 -0.821 -0.232 183 181 185 0
-0.7013 27.4195 -61.1248 0.314 -0.910 -0.270 183 182 187 0
-0.4930 27.4695 -61.1640 0.306 -0.910 -0.279 181 182 187 0
0.9222 30.6269 -62.8111 -0.806 -0.527 -0.269 179 181 180 0
5.0567 23.3717 -59.5466 0.633 -0.771 -0.065 173 173 171 0
5.1945 23.8557 -59.7935 0.646 -0.762 -0.042 174 174 172 0
5.1551 27.1697 -61.4149 -0.175 -0.915 -0.364 174 175 170 0
5.4027 26.9121 -61.3061 -0.120 -0.959 -0.258 173 174 169 0
4.5279 42.4308 -68.8500 -0.063 -0.982 -0.179 170 172 166 0
8.7010 18.2897 -57.3127 0.382 -0.830 0.407 170 168 163 0
6.9685 39.9198 -67.7913 -0.329 -0.943 -0.056 169 169 160 0
7.1820 40.1292 -67.9090 -0.096 -0.952 0.290 169 169 160 0
11.1348 23.7275 -60.1491 -0.399 -0.820 -0.411 164 166 155 0
13.3963 29.7669 -63.2683 -0.010 -0.985 -0.170 157 158 146 0
13.9787 44.4126 -70.4870 0.974 -0.193 0.118 153 154 141 0
18.2543 27.7117 -62.6033 0.558 -0.086 0.825 146 144 135 0
37.1601 39.2935 -69.6110 -0.643 -0.530 0.553 146 130 115 0
37.2486 31.7055 -65.8985 0.955 -0.294 -0.045 149 129 122 0
36.9216 27.1731 -63.6542 0.674 -0.587 -0.449 145 126 119 0
37.2908 28.2857 -64.2255 0.553 -0.683 -0.477 144 127 118 0
38.5451 28.9077 -64.6186 0.081 -0.971 0.225 141 127 117 0
42.1681 41.3038 -70.9490 0.539 -0.656 -0.529 137 125 112 0
42.2562 40.6340 -70.6269 0.330 -0.685 -0.649 138 126 114 0
-73.1839 34.5773 -59.8100 0.341 -0.940 0.021 235 227 225 0
-70.7940 32.3288 -58.8705 -0.282 -0.946 -0.160 236 228 226 0
-68.3343 31.3623 -58.5671 0.441 -0.587 0.679 235 229 229 0
-68.5634 32.0075 -58.8686 0.645 -0.713 0.274 235 230 232 0
-67.4254 31.2709 -58.5857 -0.149 -0.752 0.642 237 233 234 0
-67.1009 31.2119 -58.5794 -0.149 -0.752 0.642 239 235 236 0
-66.7508 31.1193 -58.5583 -0.202 -0.750 0.630 242 238 239 0
-65.1195 31.5227 -58.8711 -0.436 -0.757 0.487 239 233 233 0
-64.6766 31.3038 -58.7944 -0.365 -0.756 0.543 239 233 233 0
-63.5757 30.5752 -58.5129 0.307 -0.941 0.142 238 232 232 0
-28.0871 39.7641 -65.5209 0.546 -0.804 -0.234 221 217 221 0
-19.9602 28.2723 -60.4335 0.356 -0.924 -0.137 215 213 218 0
-19.5183 28.3453 -60.5004 0.348 -0.924 0.155 212 210 215 0
-19.4381 28.7723 -60.7162 0.507 -0.853 0.127 212 209 214 0
-19.1962 28.7525 -60.7234 0.555 -0.806 0.205 213 207 214 0
-13.1713 23.0277 -58.3274 0.368 -0.892 0.260 204 203 211 0
-11.2988 20.5090 -57.2188 0.331 -0.847 0.416 203 200 209 0
-16.0506 41.7125 -67.3228 0.798 -0.534 -0.281 201 198 205 0
-9.9430 23.1719 -58.6245 0.090 -0.994 -0.059 200 197 204 0
-9.1214 33.5022 -63.7668 -0.560 -0.824 -0.091 194 193 199 0
-5.1258 20.2576 -57.5274 0.349 -0.932 -0.097 193 192 198 0
-6.1650 25.3214 -59.9471 0.579 -0.798 -0.167 193 192 198 0
-1.3973 27.4556 -61.3314 0.011 -0.898 -0.440 182 182 185 0
-1.1840 27.4821 -61.3594 0.036 -0.891 -0.453 183 182 184 0
4.8585 21.7075 -58.9402 0.611 -0.634 0.475 173 173 174 0
3.7652 44.3201 -69.9939 -0.057 -0.589 0.806 170 171 166 0
5.0523 36.1177 -66.0467 0.293 -0.929 0.227 169 171 166 0
5.1175 37.4367 -66.7005 -0.308 -0.947 0.089 170 172 166 0
15.1032 28.7515 -63.1247 -0.214 -0.945 -0.249 152 152 142 0
22.4788 46.2072 -72.2332 0.846 -0.487 -0.216 143 139 127 0
23.5416 50.3866 -74.3648 0.291 -0.563 -0.773 143 136 126 0
29.6339 48.1328 -73.6820 0.764 -0.529 -0.368 153 141 128 0
35.1280 40.2100 -70.1671 -0.303 -0.637 0.708 149 134 121 0
35.2818 39.7312 -69.9421 -0.224 -0.614 0.757 150 133 123 0
34.6146 31.4697 -65.8290 0.393 -0.728 0.562 149 132 122 0
35.0139 32.9546 -66.5878 0.131 -0.713 0.689 149 132 122 0
37.3289 37.6772 -69.0745 -0.496 -0.650 0.576 146 128 116 0
44.4256 52.3822 -76.8095 0.442 -0.669 -0.597 137 123 114 0
-73.2823 34.5965 -60.0956 0.349 -0.936 0.032 234 227 224 0
-70.6738 31.7295 -58.8599 0.301 -0.807 -0.508 236 228 226 0
-70.4299 31.7769 -58.9003 -0.431 -0.900 -0.060 236 228 226 0
-68.3294 31.2563 -58.7892 0.440 -0.588 0.679 234 228 228 0
-66.5524 30.7646 -58.6698 0.185 -0.627 0.757 241 235 237 0
-65.9378 31.7663 -59.2077 -0.426 -0.762 0.488 239 233 234 0
-65.4829 31.5349 -59.1250 -0.427 -0.766 0.481 239 233 234 0
-65.0988 31.3947 -59.0825 -0.444 -0.766 0.465 239 233 233 0
-64.6098 31.1152 -58.9783 -0.369 -0.758 0.538 239 232 232 0
-26.6782 31.8055 -61.9601 0.211 -0.977 0.040 221 219 222 0
-24.2905 28.3521 -60.4191 -0.343 -0.801 0.490 220 219 222 0
-24.8249 31.4725 -61.9245 -0.618 -0.764 0.187 221 216 220 0
-20.5216 26.5272 -59.7793 0.115 -0.418 0.901 218 213 219 0
-19.6279 29.1711 -61.1486 -0.151 -0.719 0.678 211 209 214 0
-19.1206 28.4142 -60.8097 0.154 -0.726 0.671 213 208 214 0
-11.3663 19.9151 -57.1480 -0.333 -0.942 -0.039 204 200 211 0
-15.5347 37.2822 -65.4432 0.506 -0.862 0.002 201 198 206 0
-10.2473 23.3377 -58.9178 -0.038 -0.997 -0.068 200 198 203 0
-12.4402 40.4560 -67.2276 0.508 -0.724 -0.466 193 194 199 0
-10.1678 36.4981 -65.4291 -0.512 -0.794 0.327 194 193 199 0
-9.6294 35.3365 -64.8924 -0.232 -0.942 -0.243 194 193 200 0
-3.3201 29.1250 -62.2610 -0.103 -0.995 -0.011 186 185 193 0
-3.0596 28.9469 -62.1911 -0.116 -0.992 0.045 186 185 193 0
-2.8838 29.1727 -62.3149 -0.212 -0.939 -0.270 185 184 192 0
-1.7981 27.1005 -61.3661 -0.240 -0.813 0.531 182 181 186 0
-1.5307 27.9557 -61.8075 0.721 -0.686 -0.097 182 182 184 0
-1.2455 27.6201 -61.6614 0.165 -0.912 -0.376 182 182 184 0
-0.9881 27.4203 -61.5806 0.457 -0.854 -0.247 182 181 185 0
-0.3201 27.3458 -61.5903 0.747 -0.643 -0.170 177 178 183 0
0.4751 38.4125 -67.1164 0.280 -0.644 -0.712 173 173 174 0
5.7304 22.5247 -59.6282 0.386 -0.738 0.553 169 170 164 0
3.5540 43.7817 -69.9850 -0.070 -0.585 0.808 170 170 168 0
3.7599 44.0887 -70.1511 -0.029 -0.576 0.817 169 169 167 0
4.1190 43.1997 -69.7366 0.070 -0.596 0.800 167 169 165 0
5.1865 36.6220 -66.5593 -0.225 -0.954 0.197 167 168 163 0
5.5592 39.2996 -67.9089 -0.514 -0.826 0.230 167 168 163 0
6.9577 39.4170 -68.0643 -0.471 -0.808 -0.354 165 165 159 0
7.6430 39.6000 -68.2024 -0.565 -0.824 -0.026 165 165 155 0
11.9554 25.5525 -61.5583 -0.422 -0.645 -0.637 158 161 146 0
15.3430 27.3886 -62.7017 0.679 -0.367 0.636 151 151 141 0
33.4996 54.1917 -77.2157 0.092 -0.318 0.944 149 135 123 0
34.9835 39.2079 -69.9118 -0.516 -0.682 0.518 149 133 120 0
34.7911 32.9174 -66.7887 0.923 -0.288 0.257 148 131 121 0
37.1062 37.6923 -69.3104 -0.368 -0.668 0.647 146 130 116 0
37.5695 32.6630 -66.8564 0.547 -0.584 -0.600 143 126 118 0
43.8061 50.3560 -76.0370 0.686 -0.591 -0.424 138 122 115 0
44.2925 50.5117 -76.1478 0.230 -0.563 -0.794 136 120 113 0
-68.6903 28.5014 -57.6706 -0.405 -0.873 -0.270 233 226 222 0
-72.4896 33.8729 -60.0745 0.501 -0.775 -0.385 236 228 225 0
-69.6596 30.7227 -58.7064 -0.169 -0.979 0.116 236 228 226 0
-66.7376 31.9799 -59.5328 -0.017 -0.391 0.920 243 239 240 0
-65.6172 31.2474 -59.2466 -0.535 -0.790 0.298 243 238 239 0
-65.3316 31.2364 -59.2609 -0.488 -0.812 0.319 242 237 239 0
-65.0913 31.2843 -59.3013 -0.421 -0.770 0.479 240 235 235 0
-64.5422 30.9256 -59.1612 0.203 -0.938 0.282 239 233 233 0
-59.8157 25.7393 -56.9133 0.325 -0.696 0.641 238 233 230 0
-58.8915 25.5531 -56.8849 -0.203 -0.719 0.665 238 232 230 0
-25.9604 9.2404 -51.0647 -0.654 -0.695 0.299 230 224 227 0
-24.5409 27.6831 -60.3194 -0.416 -0.786 -0.456 221 219 222 0
-24.6700 30.9612 -61.9379 -0.576 -0.648 0.499 220 215 219 0
-21.2480 31.5238 -62.4541 -0.303 -0.593 0.746 214 212 217 0
-20.8943 31.2173 -62.3264 -0.489 -0.746 0.452 214 212 217 0
-19.4348 28.5089 -61.0827 -0.277 -0.781 0.559 212 209 215 0
-18.8783 28.2635 -60.9994 0.100 -0.875 0.474 212 207 213 0
-16.1928 40.1593 -67.0913 0.567 -0.668 -0.482 199 197 207 0
-8.3303 18.7559 -57.0089 0.069 -0.818 0.571 197 196 201 0
-12.5208 40.5927 -67.5605 0.727 -0.680 -0.099 193 193 198 0
-11.7560 39.6017 -67.1215 0.545 -0.837 -0.056 193 193 198 0
-11.7962 40.7094 -67.6686 0.797 -0.603 0.040 193 192 198 0
-3.1970 27.3369 -61.6244 -0.107 -0.994 0.009 185 184 192 0
-2.9105 29.1283 -62.5337 0.047 -0.474 0.879 184 183 191 0
-2.6844 29.1133 -62.5419 -0.275 -0.937 -0.214 183 182 189 0
-2.4350 28.9823 -62.4941 0.073 -0.995 0.066 183 182 187 0
-1.8445 27.1580 -61.6292 -0.240 -0.830 0.503 181 180 185 0
-1.7574 28.9264 -62.5132 0.764 -0.641 -0.069 181 181 183 0
-0.8381 27.5972 -61.9169 0.760 -0.645 0.083 176 176 181 0
-0.5378 27.1656 -61.7234 0.789 -0.590 0.171 175 176 180 0
-2.7030 42.5175 -69.1955 0.085 -0.777 -0.624 176 177 181 0
0.3450 38.9896 -67.6549 0.312 -0.800 -0.512 172 172 172 0
5.3866 21.8579 -59.4982 0.634 -0.684 0.361 170 171 168 0
5.5505 22.1387 -59.6490 0.693 -0.662 0.286 169 170 165 0
4.0803 43.2310 -70.0192 0.237 -0.483 0.843 166 167 164 0
5.1250 36.8514 -66.9241 -0.346 -0.920 0.185 165 167 163 0
12.1708 19.7033 -58.8979 -0.249 -0.512 0.822 157 158 145 0
32.6870 42.0649 -71.4198 -0.714 -0.455 0.533 149 136 122 0
32.9892 38.8112 -69.8253 -0.392 -0.845 0.364 147 134 121 0
33.0853 37.7584 -69.3092 -0.234 -0.903 -0.360 147 134 122 0
34.9487 39.0656 -70.0872 -0.583 -0.677 0.449 148 132 119 0
35.1533 38.9943 -70.0659 -0.585 -0.672 0.454 148 132 119 0
37.5893 30.3897 -65.9625 0.459 -0.841 0.288 138 126 117 0
37.9212 30.0303 -65.8070 0.598 -0.740 0.309 141 128 119 0
-69.0814 32.7205 -60.0161 -0.189 -0.510 0.839 236 230 230 0
-67.8498 31.5119 -59.4982 -0.215 -0.441 0.871 235 229 230 0
-66.9147 31.3873 -59.5004 0.079 -0.481 0.873 238 233 235 0
-66.7571 31.5434 -59.5891 0.109 -0.481 0.870 239 235 236 0
-66.4528 31.5104 -59.5935 0.184 -0.492 0.851 240 237 238 0
-65.5860 31.1064 -59.4517 -0.445 -0.833 0.328 242 239 241 0
-65.1541 30.9038 -59.3804 -0.445 -0.833 0.328 241 239 241 0
-64.5212 30.7977 -59.3710 0.201 -0.934 0.294 239 237 236 0
-58.6173 25.0893 -56.9308 -0.127 -0.747 0.653 238 232 230 0
-58.3718 25.1089 -56.9575 0.176 -0.526 0.832 237 232 229 0
-24.8471 30.0728 -61.7385 -0.844 -0.537 0.009 220 215 219 0
-21.9297 30.6349 -62.2195 0.421 -0.858 0.293 217 213 218 0
-21.7204 30.7184 -62.2755 0.421 -0.858 0.293 216 212 218 0
-21.0190 30.7724 -62.3507 0.140 -0.845 0.516 213 211 216 0
-20.8993 31.1014 -62.5230 -0.489 -0.746 0.452 213 211 216 0
-20.6004 30.9414 -62.4637 -0.489 -0.746 0.452 213 211 216 0
-18.8120 27.9507 -61.0955 0.436 -0.886 0.158 213 208 214 0
-12.2495 20.4391 -57.8015 -0.647 -0.670 0.364 203 202 206 0
-10.4025 23.6015 -59.5054 0.137 -0.983 -0.118 197 196 201 0
-10.2051 23.6742 -59.5552 0.059 -0.998 -0.004 196 195 201 0
-8.4397 19.7464 -57.7181 0.067 -0.991 -0.115 195 194 200 0
-12.0217 40.4441 -67.7920 0.809 -0.588 -0.018 193 192 198 0
-4.9642 21.7216 -58.9421 0.226 -0.883 0.412 192 191 196 0
-4.8462 22.1060 -59.1419 0.335 -0.816 0.472 192 192 194 0
-4.6844 22.3132 -59.2563 0.247 -0.962 -0.114 189 188 190 0
-4.5049 22.4487 -59.3362 -0.167 -0.867 -0.469 187 185 188 0
-3.3865 26.0249 -61.1963 0.666 -0.618 -0.418 183 183 188 0
-3.3190 27.7391 -62.0557 -0.089 -0.995 0.045 183 183 190 0
-2.7394 29.2063 -62.8271 0.163 -0.980 0.116 182 181 187 0
-0.5521 27.0614 -61.9081 0.739 -0.657 0.150 175 175 180 0
-3.0438 44.1612 -70.2630 0.303 -0.518 -0.800 174 175 180 0
-0.0049 39.4389 -68.1174 0.381 -0.810 -0.447 173 173 173 0
5.1868 21.6284 -59.5938 0.645 -0.686 0.336 167 168 166 0
5.3645 21.8052 -59.6942 0.376 -0.714 0.590 166 168 165 0
5.5594 21.8636 -59.7368 0.665 -0.674 0.322 166 168 164 0
15.4796 22.9391 -60.9553 0.581 -0.346 0.737 149 149 139 0
15.7300 21.6228 -60.3162 0.877 -0.425 -0.224 149 149 139 0
16.0506 23.5313 -61.2899 0.960 -0.220 -0.173 147 146 137 0
16.2603 23.1999 -61.1391 0.803 -0.359 -0.476 146 146 135 0
15.9579 46.0813 -72.5274 -0.028 -0.814 -0.580 143 146 132 0
23.6088 47.0306 -73.5270 0.605 -0.436 -0.666 139 135 124 0
28.4529 52.6853 -76.6797 0.928 -0.098 0.360 150 138 124 0
30.2093 50.2682 -75.5953 0.863 -0.443 -0.244 155 139 125 0
32.2738 42.5403 -71.8840 -0.498 -0.625 0.601 152 136 123 0
32.4614 42.2040 -71.7292 -0.663 -0.487 0.568 153 138 125 0
32.6441 41.8345 -71.5576 -0.712 -0.452 0.537 150 136 123 0
33.0967 38.0158 -69.6846 -0.119 -0.959 -0.256 148 134 123 0
37.9201 33.7876 -67.9082 0.516 -0.620 -0.591 141 127 118 0
43.9990 50.3189 -76.5691 0.338 -0.823 -0.457 141 122 115 0
43.8819 43.8359 -73.3285 0.907 -0.394 -0.151 137 119 114 0
-68.9739 28.3188 -58.0974 -0.064 -0.947 -0.313 235 223 223 0
-69.0586 28.7593 -58.3122 -0.388 -0.882 -0.266 234 224 223 0
-68.9001 32.3893 -60.1408 0.793 -0.576 0.199 234 229 228 0
-66.6302 31.2794 -59.7402 0.117 -0.496 0.861 238 232 235 0
-66.7432 31.7854 -59.9858 -0.484 -0.809 0.334 240 235 239 0
-65.8432 31.3408 -59.8247 -0.470 -0.809 0.352 242 237 242 0
-64.7095 30.9449 -59.7040 0.100 -0.939 0.328 242 240 241 0
-26.2511 9.2285 -51.4587 -0.606 -0.795 0.016 230 226 227 0
-21.4196 30.4294 -62.4056 -0.368 -0.634 0.680 215 213 218 0
-21.1788 30.4270 -62.4208 -0.374 -0.622 0.687 214 212 217 0
-21.0842 30.8207 -62.6244 -0.355 -0.548 0.757 212 210 215 0
-21.0579 31.4053 -62.9190 -0.459 -0.600 0.655 212 210 215 0
-20.1842 31.6598 -63.1062 0.944 -0.314 -0.105 212 207 213 0
-20.0599 31.9889 -63.2795 0.776 -0.631 -0.023 212 207 213 0
-10.2760 23.7835 -59.8395 0.044 -0.994 -0.101 195 194 199 0
-10.0856 23.8821 -59.9019 -0.021 -0.984 -0.175 195 194 199 0
-8.4229 19.5552 -57.8488 0.011 -0.998 -0.065 195 194 199 0
-5.5228 21.2791 -58.9104 0.289 -0.953 0.089 188 187 196 0
-4.7616 22.4872 -59.5673 0.177 -0.980 0.092 187 186 188 0
-5.2862 27.4632 -62.0232 0.146 -0.936 0.320 186 184 187 0
-3.8793 28.1146 -62.4456 -0.086 -0.977 0.196 182 181 186 0
-3.6083 27.8882 -62.3508 -0.117 -0.989 0.091 181 182 187 0
-3.3811 27.8611 -62.3527 -0.117 -0.989 0.091 180 181 186 0
-3.2053 28.0745 -62.4716 0.032 -0.999 0.042 178 179 184 0
-3.0669 29.5336 -63.2117 -0.018 -0.936 -0.351 178 179 184 0
-2.8464 29.5508 -63.2355 -0.039 -0.931 -0.364 178 179 184 0
2.3659 11.5416 -54.5736 0.330 -0.857 0.394 176 175 180 0
-0.9571 31.3893 -64.2853 0.609 -0.724 0.324 174 174 180 0
5.2792 22.1980 -60.1090 -0.499 -0.734 0.461 165 167 164 0
6.0412 22.5916 -60.3582 -0.007 -0.741 0.671 163 167 163 0
16.0146 23.8661 -61.6783 0.962 -0.228 -0.154 148 145 136 0
16.1500 46.7879 -73.1658 0.151 -0.912 -0.380 143 145 132 0
16.4065 46.2561 -72.9170 0.165 -0.868 -0.469 145 145 133 0
23.0721 45.6016 -73.0450 0.664 -0.391 -0.637 141 134 124 0
32.4447 42.2241 -71.9945 -0.436 -0.808 0.397 153 137 124 0
32.6257 41.8367 -71.8129 -0.544 -0.529 0.651 152 136 123 0
31.9309 33.2725 -67.4768 0.462 -0.497 -0.735 154 138 125 0
32.2996 34.7752 -68.2545 0.464 -0.497 -0.733 153 137 124 0
33.0878 38.0930 -69.9698 -0.119 -0.959 -0.256 148 134 121 0
37.8297 33.3075 -67.8976 0.679 -0.673 0.293 139 127 116 0
-68.9282 32.3239 -60.3836 0.751 -0.642 0.155 234 228 228 0
-67.3576 30.6859 -59.6666 -0.451 -0.309 0.838 236 230 232 0
-67.0895 31.4112 -60.0496 -0.286 -0.608 0.741 235 229 233 0
-66.7202 31.2950 -60.0162 -0.289 -0.618 0.731 235 228 234 0
-66.3999 31.2411 -60.0109 -0.507 -0.815 0.281 238 233 239 0
-66.0637 31.1658 -59.9959 -0.473 -0.809 0.349 241 236 242 0
-64.9198 31.1207 -60.0509 0.248 -0.895 0.371 242 240 241 0
-63.2060 30.6767 -59.9441 0.062 -0.960 0.273 239 234 231 0
-63.2437 31.0947 -60.1517 0.567 -0.726 0.390 239 234 231 0
-23.9288 26.9867 -60.7574 -0.652 -0.615 -0.444 221 216 220 0
-12.2217 12.6445 -54.3404 0.611 -0.222 0.760 207 204 213 0
-10.7391 12.3724 -54.3043 0.093 -0.163 0.982 204 202 207 0
-10.5532 12.4086 -54.3351 0.111 -0.164 0.980 204 201 208 0
-10.2543 12.0980 -54.1992 0.020 -0.185 0.982 204 201 210 0
-12.0896 19.0278 -57.5595 -0.261 -0.792 0.551 204 200 206 0
-11.8337 18.8883 -57.5067 0.536 -0.485 0.691 202 200 205 0
-11.6250 18.8950 -57.5243 0.518 -0.465 0.718 202 200 205 0
-12.7428 25.2398 -60.6391 0.046 -0.537 -0.842 201 199 203 0
-12.3211 25.3224 -60.7093 -0.098 -0.577 -0.811 197 196 201 0
-16.8024 43.4662 -69.5292 0.704 -0.645 -0.296 194 193 199 0
-16.9660 44.9099 -70.2441 0.842 -0.540 -0.002 194 193 198 0
-4.6302 22.6766 -59.9013 -0.080 -0.977 -0.197 185 185 187 0
-4.0610 23.8954 -60.5529 -0.039 -0.634 0.773 184 182 184 0
-3.9601 24.3943 -60.8107 -0.002 -0.621 0.784 184 182 183 0
-3.5751 27.5689 -62.4334 0.843 -0.454 0.289 181 182 187 0
-1.1476 33.4567 -65.5592 0.432 -0.866 -0.252 173 174 178 0
4.8781 19.2269 -58.8126 0.113 -0.723 -0.681 167 165 166 0
6.0420 22.3674 -60.4711 0.107 -0.682 0.724 164 166 162 0
11.1771 19.0684 -59.1610 -0.445 -0.832 -0.331 157 157 147 0
19.7429 37.5379 -69.0313 -0.385 -0.492 0.781 142 138 129 0
32.4495 36.3157 -69.2801 0.597 -0.475 -0.646 148 134 121 0
36.7562 31.6390 -67.2209 0.868 -0.367 -0.336 143 131 118 0
43.9050 49.9675 -76.9240 0.261 -0.498 0.827 139 123 116 0
-69.2553 28.4689 -58.6923 -0.048 -0.959 -0.279 235 223 223 0
-67.0332 31.2386 -60.2412 -0.365 -0.660 0.657 234 228 235 0
-66.1011 30.7550 -60.0600 -0.356 -0.628 0.692 236 231 237 0
-62.9465 30.2300 -60.0079 0.075 -0.967 0.243 239 233 233 0
-62.4510 29.9329 -59.8913 -0.072 -0.985 0.155 239 234 232 0
-62.2826 30.0728 -59.9733 -0.047 -0.988 0.149 240 233 232 0
-23.2862 27.6134 -61.3650 -0.881 -0.468 0.077 216 214 217 0
-26.7177 40.1442 -67.4617 0.314 -0.301 0.900 215 213 218 0
-26.5604 40.4179 -67.6106 0.091 -0.311 0.946 215 213 218 0
-20.7941 29.7787 -62.6268 -0.748 -0.502 0.433 212 207 213 0
-13.6326 27.2465 -61.8317 0.591 -0.753 -0.289 202 196 204 0
-16.8065 43.3207 -69.7354 0.644 -0.597 -0.478 195 194 199 0
-17.0131 44.9081 -70.5231 0.848 -0.530 -0.000 194 193 198 0
-10.4975 29.8542 -63.3604 -0.623 -0.571 -0.534 192 191 197 0
-4.8048 23.2603 -60.4147 0.116 -0.993 -0.022 184 184 186 0
-4.8330 26.1465 -61.8705 -0.088 -0.494 0.865 185 183 187 0
-4.5842 26.0177 -61.8222 -0.065 -0.494 0.867 184 182 186 0
-4.0122 27.3818 -62.5497 0.655 -0.515 0.553 182 181 186 0
2.6549 18.0603 -58.2923 0.837 -0.477 0.268 172 172 170 0
5.9139 21.5959 -60.2981 -0.274 -0.687 0.673 165 166 161 0
12.5902 20.5701 -60.2309 -0.415 -0.907 -0.077 153 154 146 0
17.7152 16.5409 -58.5421 -0.424 -0.636 -0.644 142 143 131 0
25.6546 46.7770 -74.3487 0.876 -0.285 -0.390 142 132 122 0
28.8013 38.8348 -70.5501 -0.106 -0.784 -0.612 152 139 123 0
29.3654 43.2993 -72.8430 -0.766 -0.599 0.234 152 139 123 0
36.2496 51.7596 -77.5807 0.949 -0.267 -0.167 148 134 121 0
43.6360 51.0837 -77.7382 0.412 -0.421 0.808 139 124 114 0
-69.3576 28.4967 -58.9695 -0.066 -0.945 -0.320 234 224 223 0
-68.3710 27.6282 -58.5952 0.228 -0.921 -0.317 236 225 225 0
-66.2880 29.8302 -59.8518 -0.422 -0.223 0.878 236 230 234 0
-67.0717 31.1877 -60.4877 -0.399 -0.861 0.316 233 229 234 0
-66.0989 30.2957 -60.1006 -0.207 -0.613 0.762 233 230 235 0
-65.0851 30.4135 -60.2284 0.043 -0.512 0.858 238 236 242 0
-64.5486 30.0729 -60.0917 0.153 -0.455 0.877 238 237 242 0
-62.7199 29.8278 -60.0901 0.389 -0.782 0.487 240 235 235 0
-62.3267 29.6668 -60.0348 -0.497 -0.742 0.450 239 233 233 0
-62.0783 29.6985 -60.0676 -0.521 -0.718 0.461 239 233 233 0
-61.6002 29.4211 -59.9590 -0.521 -0.718 0.461 238 232 232 0
-60.6599 28.8812 -59.7483 0.036 -0.991 0.126 238 232 232 0
-22.5350 25.6166 -60.6516 -0.891 -0.454 0.031 215 213 216 0
-27.3412 44.4254 -69.8685 -0.726 -0.400 0.560 211 209 214 0
-27.3312 45.1196 -70.2212 -0.335 -0.346 0.876 211 209 214 0
-20.4381 29.3313 -62.6764 -0.776 -0.588 0.227 212 207 213 0
-11.9038 10.9373 -53.9201 0.423 -0.038 0.905 206 206 208 0
-13.7587 27.5158 -62.2039 0.200 -0.671 -0.714 201 196 203 0
-13.3223 27.5841 -62.2679 -0.110 -0.667 -0.737 198 195 202 0
-13.0304 27.3769 -62.1824 -0.114 -0.659 -0.744 197 195 200 0
-12.9858 27.9816 -62.4920 -0.083 -0.656 -0.750 196 194 199 0
-16.9754 43.7303 -70.2117 0.742 -0.658 -0.127 194 193 198 0
-17.0608 44.9081 -70.8033 0.879 -0.455 0.143 193 192 197 0
-5.7941 27.2602 -62.6089 0.222 -0.952 0.209 182 182 184 0
-5.5704 27.2536 -62.6206 0.715 -0.515 -0.473 182 181 183 0
-4.4842 23.5639 -60.8221 -0.588 -0.769 0.250 184 182 186 0
-4.8135 25.9050 -61.9874 -0.085 -0.490 0.867 183 180 186 0
2.6894 17.6892 -58.3241 0.868 -0.456 0.195 173 171 172 0
2.9248 22.2462 -60.6511 0.885 -0.332 0.325 170 168 169 0
5.6660 29.5742 -64.5517 -0.583 -0.810 -0.061 163 162 158 0
5.8061 39.5293 -69.6102 -0.560 -0.816 -0.145 166 161 157 0
6.0647 39.3377 -69.5304 -0.560 -0.816 -0.145 162 159 155 0
11.7394 18.6709 -59.4295 0.935 -0.352 -0.033 153 154 144 0
13.6182 16.3377 -58.3722 0.815 -0.494 -0.302 149 149 139 0
14.0175 15.9123 -58.1833 0.195 -0.978 -0.070 151 150 140 0
14.4786 14.3218 -57.4076 -0.438 -0.678 0.591 149 149 139 0
15.2676 13.0895 -56.8355 -0.139 -0.795 -0.590 148 146 136 0
19.2457 38.0222 -69.7479 0.132 -0.603 -0.787 145 138 130 0
19.9157 37.3364 -69.4451 0.204 -0.979 -0.004 142 138 127 0
20.1375 37.2838 -69.4333 0.354 -0.932 0.079 144 140 129 0
25.2850 44.2705 -73.3223 0.871 -0.290 -0.396 142 132 122 0
27.7023 49.9229 -76.3514 -0.650 -0.614 0.447 144 134 122 0
28.2358 50.7538 -76.8086 -0.551 -0.778 0.301 147 135 120 0
28.8144 39.2737 -71.0250 -0.078 -0.777 -0.624 150 138 122 0
31.3815 34.4603 -68.7560 0.609 -0.463 -0.644 147 133 122 0
-70.3357 27.5853 -58.7102 0.546 -0.636 -0.545 255 255 255 0
-69.2613 28.6192 -59.3085 0.117 -0.904 -0.411 234 225 226 0
-64.9959 29.8400 -60.2149 -0.256 -0.638 0.727 234 232 237 0
-64.7679 29.9010 -60.2611 0.165 -0.465 0.870 236 235 240 0
-60.7055 27.0463 -59.0781 0.381 -0.309 0.871 242 238 239 0
-62.2948 29.5244 -60.2343 -0.497 -0.742 0.450 241 236 237 0
-61.8935 29.3510 -60.1727 -0.521 -0.712 0.470 240 234 235 0
-60.9808 28.4885 -59.7943 -0.654 -0.728 0.203 238 232 233 0
-60.4390 28.1204 -59.6430 -0.680 -0.705 0.202 238 232 233 0
-58.4276 25.7602 -58.5750 -0.686 -0.727 -0.030 238 232 232 0
-58.8183 26.6463 -59.0003 0.434 -0.781 -0.449 238 232 232 0
-58.6930 26.8349 -59.1047 0.461 -0.756 -0.464 238 232 232 0
-60.1691 29.2140 -60.2180 -0.069 -0.951 -0.301 238 232 232 0
-58.4679 27.2499 -59.3311 0.278 -0.832 -0.480 236 230 230 0
-58.3865 27.8679 -59.6513 0.227 -0.822 -0.522 235 229 229 0
-21.2443 15.4327 -55.7953 0.391 -0.460 0.797 222 220 221 0
-22.8983 22.4573 -59.2628 -0.144 -0.496 0.856 220 218 221 0
-24.6726 27.2901 -61.6059 0.464 -0.859 0.219 218 216 219 0
-24.5073 27.4643 -61.7057 0.473 -0.866 0.161 218 216 219 0
-26.8373 43.6647 -69.8016 -0.723 -0.383 0.575 211 209 214 0
-15.2337 28.3996 -62.8007 0.048 -0.885 -0.463 201 197 204 0
-14.1798 27.2642 -62.2927 0.207 -0.893 -0.400 202 197 203 0
-14.0348 27.5307 -62.4381 0.178 -0.853 -0.491 203 196 204 0
-13.3474 27.5293 -62.4832 0.069 -0.675 -0.734 197 195 202 0
-12.9145 27.6088 -62.5526 0.135 -0.647 -0.750 195 194 200 0
-6.2466 27.1365 -62.7569 0.545 -0.837 -0.053 184 184 186 0
-6.0313 27.1660 -62.7862 0.222 -0.952 0.209 183 183 185 0
-5.8190 27.2078 -62.8217 0.222 -0.952 0.209 182 182 182 0
-4.7999 26.6380 -62.5994 -0.456 -0.623 0.635 181 178 187 0
-2.4580 28.0529 -63.4763 0.923 -0.188 0.336 178 176 181 0
-0.8063 29.8307 -64.4920 0.101 -0.892 0.440 172 172 172 0
2.7082 17.4086 -58.3995 0.908 -0.364 0.206 172 170 171 0
4.4320 20.2641 -59.9689 0.484 -0.860 -0.164 168 166 167 0
4.8245 20.3308 -60.0290 -0.125 -0.691 -0.712 166 164 165 0
5.3599 30.0082 -64.9937 -0.583 -0.810 -0.058 163 162 158 0
5.6007 29.8395 -64.9238 -0.584 -0.809 -0.068 163 162 158 0
7.0274 36.7059 -68.5163 -0.504 -0.697 -0.510 159 160 154 0
14.0002 15.8107 -58.3389 0.143 -0.987 -0.066 150 149 139 0
14.2627 14.4989 -57.6883 -0.243 -0.735 0.634 151 148 139 0
14.4623 14.2061 -57.5524 -0.438 -0.678 0.591 149 148 138 0
15.2511 12.9737 -56.9774 -0.251 -0.742 -0.622 147 145 136 0
18.9887 39.1699 -70.5692 0.004 -0.600 -0.800 142 138 129 0
19.2162 38.8914 -70.4425 0.128 -0.601 -0.789 143 137 129 0
20.3496 40.5707 -71.3734 0.664 -0.691 0.287 140 136 125 0
20.5767 40.4452 -71.3246 0.752 -0.563 -0.342 140 136 125 0
27.5798 48.2797 -75.7821 -0.442 -0.828 0.346 142 132 120 0
27.8291 48.4740 -75.8977 -0.287 -0.902 0.324 143 134 120 0
29.3133 43.1617 -73.2910 -0.763 -0.574 0.298 150 137 122 0
-69.7226 28.7472 -59.6141 -0.031 -0.947 -0.318 233 226 222 0
-69.4306 28.7288 -59.6241 -0.045 -0.935 -0.351 234 226 223 0
-60.9874 27.3239 -59.4652 0.425 -0.368 0.827 245 241 243 0
-62.2630 29.3822 -60.4334 -0.497 -0.742 0.450 244 239 242 0
-61.8953 29.2538 -60.3921 -0.524 -0.712 0.468 241 235 237 0
-61.0431 28.4734 -60.0494 -0.654 -0.728 0.203 239 233 235 0
-60.3579 27.9125 -59.8080 -0.679 -0.724 0.123 239 234 235 0
-59.6095 27.2620 -59.5249 -0.665 -0.738 0.111 238 234 235 0
-59.1259 26.9661 -59.4056 0.624 -0.614 -0.483 238 232 234 0
-59.0180 27.1797 -59.5220 0.491 -0.750 -0.444 238 232 234 0
-58.7404 27.8901 -59.9037 0.295 -0.828 -0.477 234 229 229 0
-58.3886 27.7719 -59.8666 0.451 -0.766 -0.458 235 229 229 0
-31.6870 20.6076 -57.9723 -0.642 -0.595 -0.483 230 225 223 0
-22.2289 18.1262 -57.3301 0.118 -0.436 0.892 221 219 220 0
-22.7577 21.4678 -59.0042 -0.201 -0.314 0.928 219 217 218 0
-15.5986 24.5365 -61.0483 -0.058 -0.599 -0.799 202 202 204 0
-15.0977 26.4342 -62.0522 -0.345 -0.733 -0.586 201 201 208 0
-14.8297 27.7285 -62.7320 0.192 -0.850 -0.491 202 198 202 0
-16.0662 36.2115 -66.9888 0.345 -0.627 0.698 195 195 200 0
-6.4078 27.6446 -63.2473 0.428 -0.823 0.374 182 181 185 0
-6.0764 27.1977 -63.0407 0.279 -0.937 0.212 183 183 185 0
-4.1874 25.7187 -62.4094 -0.439 -0.631 0.640 179 177 184 0
-4.1275 27.4099 -63.2785 0.743 -0.414 0.526 180 179 185 0
-2.9055 27.9040 -63.6121 0.073 -0.997 -0.030 176 175 180 0
-2.6281 27.6346 -63.4928 0.136 -0.953 0.270 176 174 179 0
2.3530 15.9339 -57.8383 0.820 -0.330 0.468 168 167 168 0
2.7841 17.9338 -58.8898 0.900 -0.291 -0.324 168 166 168 0
5.9582 39.6893 -70.2277 -0.317 -0.943 -0.101 161 159 153 0
6.2562 39.1527 -69.9729 -0.651 -0.752 -0.106 160 159 153 0
6.6949 37.3333 -69.0714 -0.501 -0.683 -0.532 158 160 153 0
12.3428 17.6791 -59.3932 0.778 -0.285 0.560 151 151 143 0
12.5261 17.7774 -59.4556 0.813 -0.264 0.519 151 151 142 0
12.6871 18.1853 -59.6749 0.585 -0.471 0.660 152 152 143 0
14.0465 14.6621 -57.9630 0.199 -0.968 0.153 150 148 139 0
14.2558 14.2258 -57.7537 -0.194 -0.728 0.657 149 145 136 0
13.4826 34.9460 -68.3004 0.408 -0.731 -0.546 147 145 136 0
13.7049 34.9475 -68.3159 0.394 -0.721 -0.570 146 144 134 0
15.2673 12.1950 -56.7821 -0.158 -0.693 -0.704 149 145 136 0
19.1871 39.6179 -71.0681 0.110 -0.613 -0.783 143 136 128 0
27.5421 48.0321 -75.9256 -0.442 -0.828 0.345 141 131 118 0
27.7753 47.9735 -75.9111 -0.434 -0.840 0.326 144 134 120 0
28.0186 48.0792 -75.9812 -0.437 -0.840 0.321 145 135 119 0
36.2893 50.6379 -77.8382 0.957 -0.291 0.007 144 132 117 0
-70.7106 27.8413 -59.3552 0.583 -0.617 -0.529 255 255 255 0
-69.6859 28.9428 -59.9884 -0.065 -0.941 -0.332 234 228 222 0
-60.5445 26.6376 -59.4066 0.409 -0.315 0.857 244 240 244 0
-62.1528 29.1357 -60.5838 -0.500 -0.739 0.451 244 239 243 0
-61.6918 28.8821 -60.4839 -0.532 -0.699 0.478 243 237 241 0
-61.2105 28.5991 -60.3702 -0.636 -0.755 0.160 242 236 238 0
-60.5531 28.0768 -60.1453 -0.686 -0.718 0.117 240 236 237 0
-59.8051 27.4284 -59.8615 -0.685 -0.726 0.060 239 235 236 0
-59.2352 27.0166 -59.6875 0.488 -0.736 -0.469 238 233 235 0
-59.0847 27.1723 -59.7774 0.504 -0.775 -0.382 238 232 234 0
-30.4178 18.0244 -56.9672 -0.184 -0.587 0.788 230 225 222 0
-22.9830 22.4349 -59.7223 0.115 -0.257 0.960 218 216 217 0
-24.0346 25.5156 -61.2354 -0.471 -0.236 0.850 217 215 216 0
-22.6139 23.1918 -60.1354 -0.386 -0.279 0.879 217 215 216 0
-16.6673 9.6712 -53.5825 0.096 -0.979 0.179 216 214 217 0
-16.6479 10.1130 -53.8108 0.040 -0.999 0.036 215 211 215 0
-19.0708 21.6370 -59.5702 -0.760 -0.648 -0.049 211 209 214 0
-20.0732 24.8613 -61.1602 -0.645 -0.753 -0.135 210 208 213 0
-18.7640 22.0009 -59.7773 -0.650 -0.759 0.048 209 207 212 0
-14.6581 19.1080 -58.5619 0.341 -0.411 -0.845 204 203 207 0
-16.0548 36.0272 -67.1600 0.345 -0.627 0.698 193 194 200 0
-15.8785 36.2575 -67.2899 0.434 -0.390 0.812 194 193 201 0
-9.9776 21.2151 -59.9525 0.514 -0.297 0.805 193 191 199 0
-10.6377 24.2127 -61.4486 -0.275 -0.959 -0.062 193 190 199 0
-8.5865 27.2445 -63.1410 -0.774 -0.589 0.232 187 186 193 0
-8.2467 26.8055 -62.9378 -0.772 -0.607 0.188 186 185 193 0
-5.7660 22.2330 -60.7527 -0.013 -0.616 -0.787 182 180 183 0
-6.0376 26.8814 -63.1224 0.272 -0.930 0.248 183 183 185 0
-5.8991 27.2298 -63.3104 0.276 -0.941 0.195 181 181 183 0
-0.4934 23.3130 -61.6548 0.872 -0.489 0.013 175 174 179 0
2.3544 15.7602 -57.9630 0.820 -0.330 0.468 168 167 168 0
4.9769 20.2598 -60.4469 -0.190 -0.964 -0.187 165 163 164 0
4.6087 33.5164 -67.2316 -0.747 -0.601 0.285 163 162 160 0
5.2825 30.1198 -65.5314 -0.584 -0.809 -0.068 162 161 159 0
5.5255 29.9380 -65.4540 -0.584 -0.809 -0.068 161 160 158 0
12.1484 37.8991 -69.9793 0.678 -0.326 0.659 152 149 142 0
12.6660 36.9208 -69.5109 0.751 -0.569 0.335 150 147 140 0
13.2191 35.1759 -68.6511 0.262 -0.913 -0.313 151 146 140 0
13.6828 34.8440 -68.5112 0.574 -0.681 -0.455 147 142 135 0
15.1536 10.5072 -56.1081 0.486 -0.531 -0.694 147 142 134 0
15.4075 25.3817 -63.7648 0.628 -0.659 -0.414 143 143 132 0
18.4570 41.6271 -72.3097 0.048 -0.668 -0.742 143 136 127 0
18.6905 41.4001 -72.2085 -0.071 -0.641 -0.764 143 136 128 0
18.9215 41.3760 -72.2113 0.002 -0.642 -0.767 143 136 128 0
19.1519 41.4253 -72.2518 0.002 -0.642 -0.767 143 136 128 0
19.3823 41.4747 -72.2924 0.002 -0.642 -0.767 142 135 127 0
27.7581 48.0605 -76.2267 -0.417 -0.656 0.629 144 135 121 0
33.8298 47.7815 -76.4834 0.445 -0.727 -0.523 145 133 120 0
35.9235 49.7394 -77.6269 0.957 -0.271 0.106 145 133 117 0
46.9631 53.0125 -80.0353 0.745 -0.260 0.615 136 119 111 0
-70.8018 27.8540 -59.6259 0.557 -0.624 -0.547 255 255 255 0
-69.6700 28.8262 -60.2014 -0.234 -0.957 -0.174 233 228 222 0
-60.7814 26.8552 -59.7666 0.255 -0.650 0.716 241 239 242 0
-60.5669 26.9238 -59.8161 0.002 -0.456 0.890 243 241 244 0
-60.2946 26.9155 -59.8296 0.008 -0.446 0.895 243 239 243 0
-61.3956 28.7483 -60.7029 -0.662 -0.723 0.197 244 240 241 0
-60.6758 28.1433 -60.4379 -0.688 -0.711 0.148 242 238 239 0
-59.9809 27.5675 -60.1865 -0.677 -0.728 0.104 241 237 238 0
-59.6451 27.4740 -60.1602 -0.547 -0.830 0.112 240 234 236 0
-58.4291 26.1834 -59.5741 0.244 -0.338 0.909 239 233 235 0
-33.2388 24.8388 -60.5295 0.433 -0.678 0.594 229 223 221 0
-32.1640 23.6491 -59.9862 0.377 -0.649 0.661 228 224 224 0
-28.2235 33.0685 -65.1025 -0.768 -0.614 -0.184 217 215 217 0
-25.8962 28.7205 -63.0122 -0.357 -0.895 -0.266 218 215 216 0
-16.6816 9.6064 -53.7567 0.086 -0.990 0.111 216 214 217 0
-16.5868 9.8612 -53.8943 0.062 -0.995 0.083 214 212 215 0
-17.0766 11.5719 -54.7446 0.235 -0.969 -0.071 213 211 214 0
-15.8505 27.0649 -62.8158 0.036 -0.641 -0.767 201 200 205 0
-15.4920 26.6762 -62.6388 0.017 -0.645 -0.764 199 198 206 0
-16.0348 35.8152 -67.3170 0.400 -0.567 0.720 193 193 201 0
-15.8034 35.8650 -67.3578 0.388 -0.564 0.729 194 193 201 0
-10.6211 32.1152 -65.7629 0.058 -0.541 -0.839 188 185 194 0
-8.7835 27.8410 -63.6787 -0.785 -0.598 0.163 188 187 193 0
-5.9414 27.2502 -63.5600 0.673 -0.686 -0.277 182 182 184 0
-5.2900 30.2508 -65.1503 0.861 -0.498 -0.104 181 176 182 0
-0.5674 23.5191 -61.9873 0.882 -0.440 0.169 174 174 177 0
-0.9195 28.6986 -64.6357 0.745 -0.537 0.395 172 172 172 0
4.4389 22.3072 -61.6900 0.573 -0.739 -0.354 166 164 164 0
6.8077 12.7119 -56.8959 -0.224 -0.784 -0.579 163 162 160 0
4.9707 32.2430 -66.8494 -0.422 -0.824 0.379 163 162 160 0
10.4014 23.7842 -62.8420 -0.457 -0.822 -0.340 153 153 147 0
11.2942 18.1759 -60.0078 -0.626 -0.610 -0.486 154 154 146 0
10.8291 28.4592 -65.2813 0.848 -0.403 0.344 152 153 143 0
11.8327 29.2299 -65.7445 0.647 -0.403 0.647 153 152 147 0
11.8823 38.0126 -70.2776 0.461 -0.670 0.582 153 150 143 0
12.1399 37.5812 -70.0720 0.683 -0.318 0.657 152 149 142 0
12.6402 36.8734 -69.7397 0.735 -0.581 0.351 150 147 141 0
12.9579 35.3423 -68.9708 0.271 -0.890 -0.367 150 145 141 0
13.1831 35.3168 -68.9724 0.251 -0.914 -0.318 149 144 141 0
13.4121 35.2162 -68.9355 0.248 -0.921 -0.301 149 144 140 0
13.6552 34.8446 -68.7597 0.167 -0.931 -0.324 148 143 139 0
15.0942 11.2392 -56.6787 0.542 -0.528 -0.654 148 143 137 0
15.0433 28.4902 -65.5731 0.333 -0.943 -0.008 143 143 134 0
20.0196 27.4090 -65.3412 0.271 -0.272 0.923 142 135 127 0
20.2244 27.7528 -65.5319 0.339 -0.212 0.916 142 134 127 0
31.8546 19.9840 -62.2862 -0.333 -0.930 0.155 147 134 119 0
32.0174 19.8362 -62.2206 -0.272 -0.960 0.065 145 134 117 0
32.1976 19.8342 -62.2314 -0.269 -0.961 0.064 145 133 117 0
34.0337 25.4456 -65.2458 0.923 -0.362 -0.133 145 132 118 0
35.1326 29.2305 -67.2699 0.495 -0.868 -0.038 145 131 120 0
40.0016 49.1365 -77.8557 0.443 -0.571 -0.691 140 128 116 0
40.4548 50.5482 -78.6135 0.477 -0.549 -0.686 139 128 117 0
46.4536 51.7102 -79.6055 0.720 -0.230 0.655 137 119 109 0
47.5338 54.7226 -81.2299 0.682 -0.713 0.163 136 117 110 0
-71.0594 28.0648 -59.9888 0.553 -0.657 -0.512 255 255 255 0
-69.8513 28.9494 -60.5256 -0.129 -0.956 -0.263 232 227 222 0
-63.2064 28.8929 -60.9285 -0.062 -0.730 0.680 235 235 237 0
-62.2114 27.9403 -60.4998 -0.247 -0.608 0.754 236 236 238 0
-60.7932 26.7735 -59.9877 0.347 -0.360 0.866 241 240 242 0
-60.5117 26.7531 -59.9955 -0.060 -0.468 0.882 242 241 243 0
-60.2172 26.7147 -59.9947 0.006 -0.449 0.894 242 240 243 0
-59.9400 26.6990 -60.0046 0.006 -0.449 0.894 245 240 243 0
-59.2364 26.1097 -59.7452 -0.087 -0.493 0.866 244 240 243 0
-60.0837 27.6079 -60.4660 -0.675 -0.731 0.095 244 240 241 0
-57.2158 25.1459 -59.3774 0.229 -0.348 0.909 238 232 232 0
-54.8211 22.9155 -58.3779 -0.727 -0.647 0.229 238 231 232 0
-53.8853 21.9706 -57.9494 -0.739 -0.633 0.231 239 230 232 0
-19.5534 8.8001 -53.3609 0.648 -0.037 0.761 222 219 220 0
-24.1035 24.8896 -61.3982 -0.164 -0.823 -0.543 218 213 216 0
-16.8244 9.8575 -54.0860 0.190 -0.978 0.083 216 212 216 0
-16.6200 9.8428 -54.0917 0.062 -0.995 0.083 214 212 215 0
-16.4736 9.9717 -54.1680 -0.052 -0.997 0.060 211 210 213 0
-15.8016 24.0940 -61.5261 0.132 -0.583 -0.801 201 199 204 0
-15.6776 27.1064 -63.0944 0.378 -0.902 -0.209 199 198 206 0
-15.4750 27.1901 -63.1509 0.417 -0.845 -0.335 198 196 206 0
-16.0036 35.5678 -67.4556 0.375 -0.584 0.720 193 194 200 0
-12.4755 27.8764 -63.7014 -0.283 -0.955 0.085 194 193 199 0
-10.7365 24.2783 -61.9510 -0.247 -0.954 -0.171 192 189 196 0
-11.5107 34.3545 -67.1194 -0.169 -0.557 -0.813 187 184 192 0
-5.1454 28.4638 -64.4824 0.139 -0.843 -0.519 180 178 182 0
-5.2906 30.0875 -65.3139 0.873 -0.485 -0.042 179 177 182 0
0.1271 21.9376 -61.4452 0.933 -0.336 -0.131 172 172 173 0
