ply
format ascii 1.0
element vertex 827
property float x
property float y
property float z
property float nx
property float ny
property float nz
property uchar diffuse_red
property uchar diffuse_green
property uchar diffuse_blue
property uchar class
end_header
0.1998 47.7224 -23.7594 0.463 -0.479 0.746 140 77 62 0
0.4149 47.8768 -23.8158 0.179 -0.668 0.723 141 78 63 0
0.6455 47.8936 -23.8576 0.179 -0.668 0.723 140 76 63 0
4.7237 52.0970 -25.0873 0.449 -0.139 0.883 138 101 85 0
6.2425 58.3472 -26.1338 0.750 0.037 0.661 223 205 188 0
7.9291 49.6075 -25.3260 -0.003 -0.862 0.507 223 212 194 0
17.0366 26.9303 -24.0440 0.454 -0.891 0.016 218 209 192 0
27.4098 41.3282 -27.6375 -0.137 -0.970 -0.201 208 198 175 0
43.0490 58.0063 -32.4234 -0.068 -0.986 0.154 194 176 152 0
43.2812 58.0270 -32.4659 -0.036 -0.982 0.187 194 176 152 0
-44.2957 12.1356 -11.8186 0.240 -0.872 -0.427 224 209 184 0
-44.1435 12.2028 -11.8533 0.193 -0.888 -0.417 226 209 183 0
-43.8922 12.1133 -11.8851 0.026 -0.923 -0.384 228 209 183 0
-35.0034 6.6592 -12.7168 0.298 0.088 0.951 236 218 192 0
-21.2768 46.8783 -20.2007 -0.499 -0.384 0.777 230 218 197 0
-18.7427 43.7496 -20.2373 -0.665 -0.532 0.524 154 107 99 0
-11.0507 32.5651 -20.1330 -0.058 -0.787 0.614 137 68 56 0
-10.3679 32.3496 -20.2229 -0.208 -0.893 0.398 140 66 53 0
-10.1753 32.4338 -20.2667 -0.207 -0.906 0.370 141 66 52 0
-9.9298 32.2760 -20.2887 0.307 -0.744 0.594 144 67 52 0
-9.5891 31.6737 -20.2705 0.328 -0.629 0.705 148 71 54 0
-8.6228 33.0852 -20.6164 -0.265 -0.925 0.271 147 73 62 0
-8.2977 33.5714 -20.7342 0.142 -0.767 0.626 137 62 50 0
-8.1487 33.8884 -20.8002 0.424 -0.677 0.601 133 59 47 0
-7.6769 33.6489 -20.8507 -0.035 -0.794 0.607 133 65 51 0
-7.4396 33.5178 -20.8747 0.108 -0.725 0.681 131 64 50 0
-6.0366 36.3277 -21.4739 0.525 -0.459 0.717 133 80 58 0
-5.8580 36.5395 -21.5316 0.514 -0.450 0.730 134 83 59 0
-5.1281 37.3349 -21.7583 0.621 -0.459 0.635 123 75 53 0
-5.1674 38.8817 -21.9487 0.611 -0.255 0.750 120 72 50 0
-5.0978 39.7973 -22.0773 0.697 -0.221 0.682 118 69 49 0
-4.6937 41.4349 -22.3555 0.317 -0.675 0.667 112 60 46 0
-4.5191 41.7496 -22.4256 0.482 -0.589 0.649 111 58 44 0
-2.1649 45.9173 -23.3612 0.148 -0.863 0.482 107 42 36 0
-1.9401 45.9602 -23.4052 0.117 -0.889 0.443 108 43 36 0
-1.7387 46.1845 -23.4684 0.332 -0.791 0.515 114 45 41 0
0.2040 47.3254 -23.9475 0.453 -0.491 0.744 146 84 65 0
0.4101 47.5552 -24.0122 0.316 -0.582 0.749 147 84 66 0
6.7360 53.4923 -25.8556 -0.201 -0.506 0.839 222 205 186 0
8.1474 49.1307 -25.5421 -0.023 -0.853 0.522 223 211 195 0
8.3452 49.8115 -25.6628 -0.054 -0.791 0.610 222 211 194 0
35.0135 32.5863 -28.0483 0.179 -0.803 0.569 200 182 159 0
43.2859 58.1553 -32.7282 -0.187 -0.971 0.150 195 178 153 0
43.4929 58.0536 -32.7508 -0.163 -0.975 0.149 193 176 151 0
-44.2592 12.2963 -12.0311 0.191 -0.888 -0.417 227 208 182 0
-44.0066 12.2053 -12.0626 0.052 -0.912 -0.407 228 209 182 0
-42.3489 10.1852 -12.0858 -0.284 -0.929 -0.237 229 212 184 0
-34.0080 5.4476 -12.9037 0.278 0.075 0.957 234 218 195 0
-23.2758 44.4710 -19.7892 0.711 -0.074 0.699 236 225 207 0
-21.4797 45.7085 -20.2573 -0.455 -0.828 0.327 231 220 195 0
-19.1152 43.2032 -20.3389 -0.422 -0.260 0.869 157 116 100 0
-18.7230 42.6221 -20.3310 -0.465 -0.277 0.841 156 110 99 0
-18.0447 40.9686 -20.2336 -0.426 -0.249 0.870 151 102 95 0
-10.2061 32.3819 -20.4678 0.221 -0.748 0.626 140 63 50 0
-8.5751 32.6500 -20.7822 -0.169 -0.859 0.483 140 64 51 0
-8.1482 33.6779 -20.9883 0.449 -0.622 0.641 134 59 47 0
-6.9458 32.9309 -21.0979 -0.006 -0.726 0.688 126 61 44 0
-4.9599 40.0568 -22.3598 0.346 -0.334 0.877 114 66 46 0
-4.7642 40.2187 -22.4143 0.341 -0.480 0.808 111 63 44 0
-4.2167 40.9790 -22.6065 0.201 -0.862 0.466 109 59 41 0
-1.9832 45.9739 -23.6352 0.415 -0.908 -0.064 111 43 37 0
-1.5277 46.0159 -23.7188 0.389 -0.783 0.485 126 53 51 0
-1.2999 46.0359 -23.7605 0.449 -0.703 0.551 128 57 52 0
-0.2020 46.4831 -24.0065 0.545 -0.628 0.555 147 87 61 0
4.8356 49.5646 -25.2689 0.413 -0.162 0.896 141 98 81 0
5.0298 50.0940 -25.3706 0.430 -0.234 0.872 143 102 85 0
6.7046 53.3683 -26.0811 -0.214 -0.491 0.844 222 202 179 0
7.2003 53.0420 -26.1240 -0.150 -0.474 0.868 221 210 189 0
7.4689 52.4746 -26.0967 0.065 -0.713 0.698 219 211 192 0
8.3257 49.4507 -25.8527 -0.031 -0.849 0.528 222 212 194 0
34.9815 32.5152 -28.2348 0.374 -0.750 0.546 199 182 159 0
35.0979 32.1230 -28.2040 0.385 -0.625 0.679 199 181 159 0
-42.4514 10.2610 -12.2596 -0.284 -0.929 -0.237 229 212 183 0
-48.3926 22.4607 -12.8418 0.662 -0.082 0.745 228 216 184 0
-48.3026 23.7368 -13.0245 0.910 -0.126 0.394 233 216 188 0
-48.5122 24.8118 -13.1296 0.520 -0.023 0.854 232 215 187 0
-48.4294 25.0405 -13.1737 0.520 -0.023 0.854 233 216 189 0
-34.8538 26.4661 -15.6851 0.392 -0.349 0.851 234 225 201 0
-34.9041 27.0413 -15.7519 0.500 -0.439 0.747 234 226 203 0
-21.7544 45.6464 -20.4428 0.346 -0.914 -0.211 232 222 195 0
-20.3376 44.8774 -20.5846 -0.513 -0.419 0.750 187 158 143 0
-19.9614 44.3805 -20.5838 -0.504 -0.389 0.771 158 123 106 0
-19.1981 43.3243 -20.5761 -0.226 -0.431 0.873 156 111 97 0
-18.8270 42.8235 -20.5739 -0.252 -0.429 0.867 152 104 94 0
-18.9646 44.2045 -20.7314 -0.554 -0.503 0.663 146 94 89 0
-18.5109 43.3926 -20.7027 -0.572 -0.468 0.674 140 88 84 0
-10.7957 31.9965 -20.5296 0.115 -0.769 0.629 138 64 55 0
-10.5880 32.0111 -20.5671 0.102 -0.766 0.634 135 60 51 0
-10.4364 32.2775 -20.6280 0.234 -0.723 0.650 137 61 51 0
-8.3268 33.3040 -21.1238 0.262 -0.588 0.765 134 58 44 0
-6.9468 32.7231 -21.2839 0.023 -0.573 0.819 127 60 44 0
-6.6613 33.4432 -21.4272 0.491 -0.344 0.800 122 60 41 0
-4.3563 40.1853 -22.7058 0.311 -0.313 0.898 108 62 42 0
-4.1653 40.3834 -22.7645 0.299 -0.320 0.899 109 61 41 0
-2.2392 45.8530 -23.8114 -0.117 -0.980 -0.162 109 41 34 0
-2.0144 45.8968 -23.8556 -0.124 -0.980 -0.158 114 44 39 0
-1.3334 45.9773 -23.9828 0.122 -0.887 0.445 128 54 48 0
5.0322 49.5378 -25.5396 0.426 -0.231 0.875 142 97 81 0
5.2783 49.3574 -25.5580 0.379 -0.203 0.903 144 103 85 0
7.6702 52.4275 -26.3701 0.589 -0.806 -0.061 219 208 190 0
8.2580 50.0843 -26.1636 -0.258 -0.497 0.828 219 210 191 0
34.9577 32.4896 -28.4285 0.411 -0.696 0.588 199 183 160 0
35.0761 32.1079 -28.3987 0.387 -0.613 0.688 199 182 160 0
35.2771 32.1848 -28.4432 0.387 -0.613 0.688 198 180 158 0
43.4426 58.0198 -33.2285 -0.118 -0.984 -0.130 189 173 148 0
-49.4120 20.2281 -12.5765 0.079 -0.942 -0.326 231 213 183 0
-47.8001 20.3583 -12.8694 0.694 -0.279 0.664 229 213 185 0
-48.2467 23.5422 -13.2163 0.910 -0.126 0.394 233 216 188 0
-34.5891 24.4107 -15.6665 -0.628 -0.449 0.635 235 222 201 0
-21.4307 46.0187 -20.7885 -0.538 -0.418 0.732 229 215 190 0
-20.6326 44.8958 -20.7757 -0.538 -0.423 0.729 206 180 163 0
-14.9617 33.1730 -20.1867 -0.525 -0.810 -0.260 133 72 68 0
-12.2163 31.5707 -20.4431 0.327 -0.413 0.850 133 68 57 0
-10.4114 31.9747 -20.8053 0.209 -0.729 0.652 137 59 52 0
-8.3121 33.0261 -21.3040 0.274 -0.641 0.717 128 52 39 0
-5.8508 35.8005 -22.0935 0.741 -0.365 0.564 129 75 49 0
-3.9547 38.7674 -22.8121 0.837 -0.270 0.475 110 60 41 0
-2.2843 45.8806 -24.0433 -0.104 -0.983 -0.152 110 43 34 0
-0.4895 46.2786 -24.4030 0.655 -0.753 -0.068 152 95 64 0
0.1485 46.7445 -24.5740 0.331 -0.932 0.148 161 104 70 0
7.1446 52.6677 -26.5574 0.606 -0.741 0.289 222 205 183 0
7.6102 52.8464 -26.6608 0.698 -0.712 -0.073 219 206 188 0
8.0199 54.1825 -26.9084 0.294 -0.899 0.326 218 209 191 0
8.2231 54.9562 -27.0460 0.143 -0.978 0.153 220 211 194 0
8.7212 49.3062 -26.3801 -0.088 -0.432 0.898 221 212 195 0
35.0378 32.0017 -28.5786 0.375 -0.626 0.683 199 182 159 0
35.2289 32.0252 -28.6144 0.384 -0.612 0.691 196 178 156 0
35.4421 32.1682 -28.6698 0.721 -0.313 0.619 195 177 155 0
35.7005 32.5517 -28.7649 0.692 -0.300 0.657 196 178 156 0
37.6348 34.7437 -29.3870 0.414 -0.427 0.804 195 174 155 0
42.6579 56.5213 -33.1408 0.391 -0.234 0.890 193 175 153 0
41.4772 40.9725 -30.8719 -0.645 -0.741 0.189 191 171 147 0
41.4915 40.1412 -30.7639 -0.559 -0.829 -0.020 191 171 147 0
45.2021 51.9415 -32.9669 0.719 -0.621 -0.313 189 168 149 0
-49.5093 20.2844 -12.7696 0.049 -0.947 -0.316 230 212 182 0
-49.3171 20.3160 -12.8067 0.016 -0.965 -0.261 229 213 182 0
-47.8678 19.6908 -12.9698 0.833 -0.224 0.506 230 215 186 0
-48.0186 20.6133 -13.0684 0.836 -0.250 0.488 230 214 186 0
-47.9022 22.5147 -13.3445 0.695 -0.227 0.682 238 221 194 0
-37.8090 29.2725 -15.9779 -0.732 -0.437 0.522 235 222 204 0
-17.3046 18.6950 -18.0520 0.611 -0.669 -0.423 237 229 210 0
-20.9649 45.0443 -20.9784 -0.564 -0.517 0.643 214 191 171 0
-20.5543 44.4364 -20.9665 -0.523 -0.499 0.691 169 138 122 0
-14.9930 33.9526 -20.5028 -0.563 -0.669 0.485 136 75 68 0
-12.3223 30.9569 -20.5549 0.544 -0.583 0.604 134 68 59 0
-9.5198 31.5517 -21.1134 0.572 -0.566 0.593 140 61 54 0
-9.3824 31.8893 -21.1824 0.334 -0.742 0.582 138 59 53 0
-9.0785 31.4465 -21.1746 -0.006 -0.702 0.712 131 51 45 0
-5.8440 35.5304 -22.2770 0.741 -0.365 0.564 125 69 47 0
-5.5055 34.8207 -22.2391 0.788 -0.482 0.383 130 76 52 0
-5.3200 34.9807 -22.2923 0.610 -0.495 0.619 132 81 55 0
-2.3325 45.9304 -24.2779 0.295 -0.945 -0.144 116 52 39 0
0.1126 46.7046 -24.7996 0.122 -0.991 0.053 163 110 73 0
2.4326 46.5400 -25.1734 0.303 -0.578 0.758 144 74 61 0
35.0677 30.2404 -28.5468 0.679 -0.073 0.731 196 178 156 0
41.4947 40.2365 -30.9909 -0.564 -0.825 0.026 191 170 149 0
41.7430 40.4611 -31.0636 -0.554 -0.833 0.008 191 170 147 0
45.2220 52.1113 -33.2274 0.691 -0.645 -0.327 190 169 150 0
42.8118 31.3688 -30.0206 -0.607 -0.702 0.372 187 166 144 0
-49.6319 20.0473 -12.9187 -0.106 -0.956 -0.273 229 212 184 0
-49.6028 20.3346 -12.9629 0.043 -0.952 -0.304 229 212 182 0
-47.9757 20.7889 -13.3023 0.856 -0.263 0.445 232 216 189 0
-33.9650 11.7068 -14.4491 -0.022 -0.953 -0.301 234 220 198 0
-34.4155 23.8123 -16.0260 -0.660 -0.514 0.548 237 225 203 0
-20.8382 44.4168 -21.1542 -0.594 -0.477 0.648 180 154 137 0
-20.5420 44.2120 -21.1767 -0.415 -0.709 0.570 155 121 106 0
-9.1266 30.4986 -21.2487 0.356 -0.863 0.358 130 52 47 0
-8.7189 30.5339 -21.3230 -0.022 -0.929 0.370 129 50 45 0
-8.5566 30.7509 -21.3802 0.080 -0.872 0.483 125 47 42 0
-8.2388 31.2278 -21.4996 0.255 -0.806 0.534 120 43 38 0
-8.2000 32.0648 -21.6205 0.237 -0.548 0.802 120 42 38 0
-3.4191 37.6014 -23.1915 0.367 -0.209 0.906 110 60 42 0
-2.3749 45.9374 -24.5081 0.279 -0.941 -0.189 120 58 43 0
0.0257 47.1104 -25.0774 0.135 -0.990 0.041 161 111 71 0
7.6835 54.5649 -27.4006 0.791 -0.002 0.612 220 206 185 0
29.2495 23.2462 -26.7974 0.830 -0.280 -0.483 205 192 166 0
31.0484 29.4568 -27.9523 -0.097 -0.918 0.384 202 187 165 0
37.7195 39.3382 -30.4389 0.493 -0.394 0.776 199 178 158 0
41.5141 40.4052 -31.2313 -0.593 -0.804 0.042 191 170 150 0
41.6843 40.2790 -31.2430 -0.593 -0.804 0.042 193 169 148 0
42.5156 30.9730 -30.1135 -0.392 -0.724 0.567 184 164 140 0
42.7793 31.3001 -30.2031 -0.607 -0.702 0.372 185 163 141 0
42.9408 31.2197 -30.2197 -0.606 -0.702 0.375 182 161 140 0
43.3753 32.2120 -30.4293 -0.450 -0.857 0.251 182 160 139 0
-49.6718 20.0134 -13.1094 -0.223 -0.951 -0.211 230 212 185 0
-15.4710 33.7747 -20.8331 -0.553 -0.831 0.065 130 71 63 0
-9.4942 31.0470 -21.4723 0.463 -0.666 0.585 126 50 46 0
-9.1283 30.3141 -21.4331 0.356 -0.861 0.364 123 45 41 0
-8.9314 30.3635 -21.4734 0.389 -0.888 0.246 120 44 40 0
-8.7392 30.4358 -21.5161 0.389 -0.888 0.246 119 43 40 0
-8.5603 30.5723 -21.5654 0.371 -0.893 0.254 119 41 39 0
-2.4380 46.0965 -24.7561 0.357 -0.930 -0.083 121 62 43 0
32.5694 58.6790 -32.4538 -0.198 -0.373 0.906 202 189 168 0
30.8370 29.4142 -28.1078 -0.097 -0.918 0.384 202 187 165 0
31.0196 29.4003 -28.1369 -0.095 -0.910 0.403 202 187 166 0
43.1353 45.0047 -32.3584 0.746 -0.647 0.160 191 170 151 0
43.5474 45.9068 -32.5533 0.734 -0.672 0.100 190 169 150 0
43.9591 46.7954 -32.7464 0.825 -0.564 -0.025 190 169 150 0
43.6988 32.8182 -30.7672 -0.468 -0.842 -0.269 182 161 142 0
45.2128 35.7783 -31.4345 -0.240 -0.970 0.044 178 155 135 0
-47.5355 18.5358 -13.4674 0.757 -0.598 0.263 232 216 190 0
-47.8907 19.7743 -13.5808 0.832 -0.260 0.490 240 221 196 0
-34.9916 12.3793 -14.7344 0.775 -0.470 0.423 234 221 201 0
-35.0052 12.7627 -14.7859 0.764 -0.479 0.432 235 221 201 0
-23.6796 47.9902 -21.6510 -0.579 -0.414 0.703 231 219 203 0
-16.5255 34.2895 -20.9443 -0.707 -0.637 0.308 140 85 77 0
-15.2894 32.9133 -20.9613 -0.384 -0.817 0.431 128 69 63 0
-12.1859 29.8629 -21.0605 -0.331 -0.775 0.539 128 60 52 0
-9.4618 29.7512 -21.5075 0.272 -0.953 0.134 128 53 50 0
-2.2875 46.3922 -25.0604 0.369 -0.906 -0.208 122 65 45 0
-0.0458 47.0257 -25.5300 0.053 -0.998 0.026 157 112 68 0
0.2218 46.7099 -25.5312 -0.150 -0.891 0.428 155 108 65 0
0.4561 46.6823 -25.5671 -0.143 -0.904 0.403 156 105 64 0
0.6671 46.8650 -25.6286 0.238 -0.914 0.328 155 102 62 0
3.3690 45.0265 -25.8296 0.563 -0.795 0.226 144 73 60 0
9.0540 54.4895 -28.1226 0.740 -0.055 0.671 219 210 193 0
30.0674 26.7766 -27.8045 0.810 -0.221 0.543 204 189 169 0
38.0977 40.4666 -31.0888 0.720 -0.053 0.692 198 177 158 0
46.2829 63.1194 -35.6566 0.806 -0.427 0.410 194 175 152 0
46.6435 63.6808 -35.7966 0.885 -0.422 0.194 192 172 151 0
43.7192 32.9569 -30.9903 -0.467 -0.836 -0.286 181 161 141 0
-47.7096 18.0562 -13.5689 0.431 -0.647 0.629 233 217 192 0
-19.6670 28.0634 -19.7464 0.268 -0.790 0.551 234 225 208 0
-15.7980 32.2319 -20.9949 0.153 -0.918 0.365 134 77 73 0
-15.4252 32.4432 -21.0882 0.329 -0.944 0.021 128 69 64 0
-15.3307 32.8985 -21.1689 -0.244 -0.963 0.118 128 67 62 0
-13.2616 30.6526 -21.2006 0.483 -0.504 0.716 124 53 51 0
-12.1509 29.5436 -21.2313 -0.265 -0.738 0.621 128 57 51 0
-3.8046 35.1702 -23.4463 0.723 -0.191 0.664 130 83 54 0
-3.3959 35.2830 -23.5316 0.251 -0.290 0.924 112 66 40 0
-3.3460 45.3714 -24.9738 0.042 -0.874 0.483 118 68 41 0
1.3706 44.2194 -25.6099 0.357 -0.866 0.351 149 87 57 0
3.3577 44.7255 -26.0188 0.718 -0.674 0.171 150 81 65 0
9.1290 57.6908 -28.8400 0.877 -0.039 0.479 220 212 194 0
21.9676 38.1144 -28.2351 -0.378 -0.899 0.220 215 204 186 0
29.1272 60.2099 -32.5892 0.517 -0.646 -0.561 208 195 179 0
41.6407 47.8952 -32.9612 -0.344 -0.832 0.436 190 173 151 0
41.5262 46.3554 -32.7230 0.027 -0.939 -0.343 188 173 150 0
43.9073 41.5198 -32.4396 -0.599 -0.784 -0.162 186 165 146 0
-49.5166 37.5244 -16.2638 0.932 -0.301 0.200 234 221 204 0
-19.6435 27.8425 -19.9278 0.142 -0.907 -0.397 234 225 208 0
-15.8984 30.8642 -20.9968 -0.398 -0.806 0.439 141 86 82 0
-15.7827 31.2193 -21.0676 -0.461 -0.862 0.209 133 78 74 0
-15.8138 32.1226 -21.1923 -0.156 -0.904 0.398 129 72 68 0
-15.4696 32.4400 -21.2963 0.319 -0.948 0.003 126 65 62 0
-15.3411 32.7666 -21.3650 -0.253 -0.962 0.105 128 65 61 0
-10.9622 30.5071 -21.7812 0.159 -0.828 0.538 121 45 46 0
-9.3098 29.6239 -21.9338 0.194 -0.966 -0.171 128 53 54 0
-3.1952 35.1092 -23.7586 0.365 -0.410 0.836 111 65 39 0
-2.9691 35.0219 -23.7843 0.180 -0.391 0.903 108 64 36 0
0.0688 45.3305 -25.7825 0.446 -0.714 0.539 156 109 60 0
1.1206 44.0739 -25.7797 0.361 -0.882 0.303 149 89 53 0
1.3450 44.0920 -25.8203 0.124 -0.870 0.476 149 88 55 0
1.5643 44.1575 -25.8669 0.033 -0.873 0.487 150 86 56 0
1.7861 44.2012 -25.9107 0.099 -0.874 0.476 154 90 61 0
2.8642 44.7497 -26.1722 0.704 -0.663 0.255 156 89 67 0
3.0726 44.9467 -26.2359 0.704 -0.663 0.255 153 86 65 0
3.2743 45.2254 -26.3101 0.705 -0.656 0.271 150 84 63 0
3.4301 46.0318 -26.4526 -0.020 -0.975 0.219 150 84 63 0
3.6598 46.0188 -26.4896 -0.020 -0.975 0.219 149 86 62 0
3.8892 46.0057 -26.5266 -0.020 -0.975 0.219 146 86 59 0
4.3612 45.8133 -26.5788 0.043 -0.410 0.911 142 84 56 0
5.1594 44.2889 -26.4945 0.424 -0.433 0.795 136 82 55 0
5.3416 44.8599 -26.6075 0.779 -0.288 0.557 136 84 57 0
24.9604 31.0808 -27.9456 0.294 -0.757 -0.583 209 198 180 0
30.2202 26.8620 -28.2288 0.760 -0.189 0.621 204 188 172 0
31.3838 31.0017 -29.0217 0.805 -0.195 0.561 201 186 167 0
41.2351 60.5080 -34.9369 -0.374 -0.733 0.568 199 181 159 0
41.6100 47.8442 -33.1775 -0.338 -0.828 0.447 192 175 152 0
45.0550 37.5439 -32.2780 -0.491 -0.723 0.486 180 162 138 0
-41.5031 10.1773 -13.8665 0.210 -0.975 0.079 236 219 196 0
-24.1272 46.4994 -22.0989 -0.509 -0.632 0.584 231 222 203 0
-23.8729 46.4664 -22.1370 -0.523 -0.637 0.567 230 221 202 0
-23.6711 46.6073 -22.1917 -0.459 -0.716 0.526 231 219 202 0
-23.5258 46.9381 -22.2645 -0.598 -0.451 0.662 231 218 200 0
-15.5342 32.5128 -21.5123 -0.250 -0.942 0.224 125 64 61 0
-15.2616 32.2958 -21.5267 -0.412 -0.572 0.709 128 64 62 0
-13.5157 30.4798 -21.5571 -0.389 -0.691 0.609 126 51 50 0
-13.2883 30.4122 -21.5856 -0.358 -0.666 0.655 125 50 49 0
-13.0850 30.4400 -21.6240 -0.353 -0.635 0.687 126 50 48 0
-11.5184 30.0245 -21.8283 -0.111 -0.994 0.009 122 44 46 0
-11.3155 30.0486 -21.8661 -0.070 -0.992 0.107 121 42 46 0
-11.0898 29.9746 -21.8934 0.081 -0.796 0.600 120 42 46 0
-10.0406 29.9332 -22.0647 0.057 -0.992 -0.108 118 44 44 0
-5.6287 29.5168 -22.7498 0.723 -0.479 0.497 112 42 36 0
-3.3830 34.6959 -23.8844 0.366 -0.420 0.830 143 96 70 0
-3.1825 34.7721 -23.9294 0.365 -0.410 0.836 135 89 62 0
-2.9954 34.9376 -23.9852 0.278 -0.412 0.868 116 71 44 0
-2.8157 35.1561 -24.0474 0.293 -0.411 0.863 109 65 34 0
-0.1766 45.1259 -25.9470 0.364 -0.651 0.666 157 114 63 0
1.0885 44.0074 -25.9977 0.152 -0.877 0.456 148 88 51 0
1.3185 43.9726 -26.0315 0.124 -0.870 0.476 150 89 54 0
1.5435 43.9831 -26.0711 0.124 -0.870 0.476 151 90 57 0
1.7683 43.9951 -26.1109 0.111 -0.878 0.466 154 93 60 0
1.9824 44.1121 -26.1641 0.095 -0.870 0.484 155 94 63 0
3.3980 45.9583 -26.6725 -0.066 -0.962 0.265 150 85 61 0
3.6287 45.9328 -26.7078 -0.066 -0.962 0.265 149 87 60 0
3.8551 45.9563 -26.7495 -0.020 -0.975 0.219 145 85 57 0
5.1432 44.0113 -26.6837 0.349 -0.533 0.771 128 74 52 0
16.2002 28.4433 -26.2830 -0.138 -0.884 0.446 220 211 194 0
24.6191 29.6851 -27.8871 0.299 -0.617 -0.728 210 198 182 0
33.0945 46.8326 -31.8196 -0.263 -0.521 0.812 200 186 169 0
33.2190 28.7194 -29.1999 0.737 -0.155 0.658 199 184 161 0
38.6063 52.5576 -33.5858 0.601 -0.025 0.799 198 183 159 0
41.5219 41.7589 -32.5044 -0.447 -0.798 0.403 189 171 149 0
44.1059 42.4933 -33.0482 0.243 -0.377 0.894 189 167 146 0
44.7986 43.6895 -33.3397 -0.405 -0.475 0.781 184 166 144 0
43.2028 30.4108 -31.1340 0.591 -0.751 0.294 180 162 138 0
44.8742 35.4378 -32.1494 0.038 -0.999 0.023 180 159 139 0
-23.6103 42.3068 -21.8119 0.236 -0.912 0.336 236 224 210 0
-23.3668 42.2852 -21.8498 0.380 -0.914 0.141 234 223 207 0
-23.8001 44.4648 -22.0985 0.453 -0.869 -0.200 232 223 205 0
-23.9290 47.2855 -22.4931 -0.582 -0.449 0.678 230 219 200 0
-15.1447 31.6849 -21.6724 -0.169 -0.938 -0.302 125 63 60 0
-11.3810 30.1471 -22.0805 -0.056 -0.986 0.157 121 42 47 0
-3.5862 34.3886 -24.0221 0.740 -0.343 0.578 138 87 64 0
-3.3720 34.3748 -24.0562 0.554 -0.298 0.777 142 95 69 0
-3.1815 34.5128 -24.1087 0.342 -0.411 0.845 144 99 70 0
-2.9996 34.7096 -24.1684 0.605 -0.335 0.723 136 90 62 0
-2.8158 34.8974 -24.2272 0.275 -0.435 0.858 117 73 42 0
-1.4850 36.0124 -24.6164 0.159 -0.947 0.278 128 78 45 0
-0.4040 44.7751 -26.0924 0.393 -0.742 0.543 154 114 61 0
-0.2066 45.0382 -26.1646 0.510 -0.684 0.522 154 113 60 0
3.7856 46.3197 -27.0275 0.623 -0.669 0.404 145 84 59 0
9.1156 55.1617 -29.2323 0.890 -0.037 0.453 219 211 191 0
9.7572 57.5204 -29.6888 0.476 -0.569 -0.670 222 213 196 0
27.0895 54.7151 -32.1995 0.115 -0.750 0.652 209 198 182 0
27.3186 54.6894 -32.2344 0.157 -0.772 0.615 208 198 182 0
32.8168 48.0756 -32.1858 -0.174 -0.360 0.916 202 189 172 0
30.7279 28.1188 -28.8871 0.712 -0.167 0.683 201 186 170 0
33.2592 29.0691 -29.4545 0.530 -0.142 0.836 199 184 161 0
33.6899 29.4399 -29.5819 0.690 -0.160 0.706 197 182 160 0
44.9169 45.9540 -33.9145 -0.313 -0.856 0.410 188 166 145 0
44.2048 41.3142 -33.1094 -0.437 -0.848 -0.300 184 166 142 0
45.0920 43.3022 -33.5526 -0.384 -0.551 0.741 182 164 140 0
44.3515 36.4125 -32.4105 -0.566 -0.461 0.683 179 161 137 0
-19.7015 26.2851 -20.3127 0.587 -0.757 0.286 236 226 209 0
-24.3871 44.6316 -22.2656 -0.439 -0.783 -0.441 234 222 206 0
-23.5312 42.6477 -22.1133 0.466 -0.850 0.245 233 221 205 0
-15.5444 32.2123 -21.8990 0.165 -0.913 -0.372 120 57 57 0
-15.2216 31.8055 -21.8926 -0.172 -0.941 -0.293 122 58 56 0
-12.2579 28.4396 -21.8888 -0.056 -0.978 0.202 121 42 41 0
-11.6301 30.1372 -22.2484 -0.086 -0.992 0.090 121 42 47 0
-6.5452 28.5542 -22.8684 -0.229 -0.842 0.489 118 40 39 0
-3.5805 34.1052 -24.1976 0.740 -0.343 0.578 122 67 47 0
-3.3945 34.2677 -24.2533 0.297 -0.433 0.851 127 76 52 0
-3.1913 34.3234 -24.2958 0.297 -0.433 0.851 133 86 59 0
-2.4200 34.8311 -24.5017 0.569 -0.229 0.790 122 77 46 0
-2.2091 34.8402 -24.5386 0.832 -0.179 0.525 117 70 41 0
-0.6163 44.3095 -26.2223 0.420 -0.789 0.448 156 116 64 0
4.4625 40.5279 -26.5127 0.277 -0.955 0.109 140 79 55 0
6.7877 45.1771 -27.5994 0.395 -0.819 -0.417 122 79 58 0
9.1285 53.9142 -29.2997 0.907 -0.053 0.418 218 209 187 0
11.0580 44.9686 -28.2877 -0.508 -0.764 -0.398 220 211 196 0
27.0432 54.5255 -32.4093 0.115 -0.750 0.652 210 198 184 0
27.2732 54.5115 -32.4460 0.157 -0.772 0.615 210 198 184 0
27.4282 53.7124 -32.3527 0.300 -0.924 0.238 211 199 185 0
25.3653 24.5288 -27.6429 -0.004 -0.997 0.075 207 196 177 0
32.6994 47.4159 -32.2996 -0.294 -0.392 0.871 201 188 171 0
44.8808 46.7497 -34.2523 -0.224 -0.915 0.336 189 167 146 0
44.9795 46.2908 -34.2003 -0.445 -0.811 0.381 188 166 145 0
43.8737 38.4156 -32.8369 -0.709 -0.697 0.112 182 164 142 0
-24.8610 45.2016 -22.5140 -0.478 -0.825 -0.302 234 223 206 0
-24.1599 44.5061 -22.5267 0.394 -0.910 -0.132 232 221 204 0
-15.5956 32.2345 -22.1102 0.030 -0.947 -0.321 120 55 56 0
-15.2845 31.8728 -22.1078 -0.152 -0.937 -0.313 122 54 55 0
-3.3143 33.5089 -24.3688 0.382 -0.219 0.898 118 64 43 0
-3.1469 33.7861 -24.4389 0.453 -0.305 0.838 122 69 47 0
-0.0145 44.6653 -26.6120 -0.447 -0.784 0.431 148 104 52 0
0.3340 45.6196 -26.8150 -0.056 -0.852 0.521 146 95 48 0
0.5589 45.6638 -26.8596 -0.055 -0.859 0.509 144 92 46 0
0.7377 46.1288 -26.9600 0.421 -0.804 0.420 141 88 44 0
0.9833 45.9891 -26.9802 0.389 -0.827 0.405 143 90 47 0
2.1338 43.6954 -26.8266 0.676 -0.706 0.210 148 94 56 0
4.4270 40.5128 -26.7307 0.428 -0.900 0.085 139 77 56 0
4.6285 40.7218 -26.7962 0.351 -0.936 0.021 139 77 57 0
9.7135 56.5995 -30.0541 0.756 -0.023 0.654 220 211 194 0
9.9161 57.8174 -30.2725 0.763 -0.024 0.645 220 211 196 0
26.7225 51.3419 -32.1195 0.775 -0.434 0.459 210 198 182 0
26.9401 51.2518 -32.1425 0.831 -0.466 0.304 209 197 181 0
27.7291 52.3909 -32.4475 0.444 -0.545 0.712 208 196 182 0
33.8634 52.6552 -33.5193 0.289 -0.897 -0.334 199 186 169 0
34.2610 53.8398 -33.7655 0.283 -0.851 -0.443 199 186 169 0
44.7958 46.4683 -34.4220 -0.364 -0.852 0.376 190 169 150 0
45.0340 46.5942 -34.4811 -0.379 -0.870 0.316 189 168 149 0
45.2042 46.4364 -34.4859 -0.460 -0.810 0.365 187 167 146 0
45.3877 46.3357 -34.5015 -0.462 -0.822 0.332 184 166 142 0
45.5291 46.0648 -34.4843 -0.401 -0.877 0.265 181 163 140 0
43.8954 38.5710 -33.0755 -0.706 -0.708 0.022 181 163 141 0
-24.2927 44.7627 -22.7854 0.569 -0.820 -0.054 230 221 204 0
-12.4427 30.5441 -22.5975 0.619 -0.489 0.614 120 42 42 0
-10.3645 27.9037 -22.5420 -0.226 -0.933 0.281 123 44 50 0
-10.1791 27.9871 -22.5859 -0.038 -0.836 0.547 124 45 50 0
-7.6944 28.8009 -23.1278 0.477 -0.750 0.457 125 49 50 0
-7.4767 28.7367 -23.1546 0.220 -0.811 0.543 120 42 42 0
-7.2846 28.7979 -23.1962 0.134 -0.853 0.504 118 40 38 0
-5.9539 28.2388 -23.3340 0.233 -0.889 0.394 116 41 40 0
-5.7736 28.3586 -23.3826 0.204 -0.899 0.388 118 45 42 0
-4.6480 28.8681 -23.6497 0.291 -0.662 0.690 106 39 33 0
-4.4218 28.7355 -23.6674 0.615 -0.665 0.424 105 39 33 0
-3.1277 33.4125 -24.6010 0.471 -0.331 0.818 116 58 40 0
-2.9387 33.5509 -24.6540 0.471 -0.331 0.818 117 59 40 0
0.1172 45.1558 -26.9446 -0.282 -0.753 0.595 146 99 50 0
0.3109 45.4688 -27.0251 -0.165 -0.986 -0.012 144 95 48 0
0.5528 45.3595 -27.0490 -0.106 -0.887 0.449 142 92 49 0
0.7532 45.6232 -27.1230 0.430 -0.838 0.334 139 89 47 0
2.9517 44.1760 -27.2705 0.682 -0.085 0.727 143 82 55 0
4.1868 40.3342 -26.8895 0.382 -0.911 0.154 146 81 60 0
4.4009 40.3878 -26.9336 0.405 -0.908 0.107 143 78 59 0
4.6381 40.1613 -26.9388 0.139 -0.884 -0.447 139 76 58 0
5.2558 40.6273 -27.1139 -0.596 -0.803 0.016 126 67 51 0
5.4616 40.7954 -27.1742 -0.320 -0.798 -0.510 125 68 51 0
7.5644 46.1116 -28.3416 0.361 -0.130 0.924 113 76 64 0
8.5708 48.8244 -28.9261 0.896 -0.075 0.437 130 109 95 0
9.9214 56.5469 -30.3357 0.756 -0.013 0.654 218 209 193 0
26.1184 30.4974 -29.0657 0.399 -0.896 0.198 206 194 179 0
32.2021 48.8909 -32.9045 -0.509 -0.442 0.739 200 189 171 0
33.8510 52.7432 -33.7715 0.249 -0.901 -0.354 199 186 169 0
34.3232 54.4386 -34.1104 0.245 -0.860 -0.447 199 186 169 0
34.4673 53.8729 -34.0480 -0.204 -0.961 -0.188 201 185 170 0
37.9578 55.8000 -34.9293 -0.084 -0.729 -0.680 197 181 165 0
39.5339 54.4683 -34.9900 0.822 -0.104 0.559 196 179 159 0
44.8988 46.9790 -34.7438 -0.313 -0.851 0.423 188 168 150 0
45.1757 47.2627 -34.8337 -0.487 -0.706 0.515 188 168 150 0
45.2452 46.6815 -34.7564 -0.246 -0.822 0.514 186 167 147 0
45.3885 46.4126 -34.7393 -0.478 -0.763 0.436 184 166 144 0
45.5852 46.3675 -34.7654 -0.357 -0.879 0.317 182 164 142 0
43.8934 38.6303 -33.2962 -0.691 -0.722 -0.045 181 163 141 0
43.2891 31.6896 -32.1317 0.475 -0.167 0.864 179 160 144 0
-17.7209 33.3226 -22.3562 0.004 -0.611 0.792 126 69 69 0
-10.2690 28.1994 -22.8113 -0.043 -0.978 0.204 124 45 50 0
-10.0908 28.3181 -22.8596 -0.079 -0.972 0.221 121 43 49 0
-9.4340 28.1301 -22.9406 -0.165 -0.791 0.589 120 43 49 0
-9.2168 28.0725 -22.9680 0.280 -0.841 0.462 119 42 48 0
0.1442 44.5748 -27.0955 -0.223 -0.967 0.128 140 96 46 0
0.3678 44.6167 -27.1395 -0.082 -0.933 0.352 140 94 48 0
0.6368 44.2533 -27.1282 -0.039 -0.883 0.468 140 93 51 0
0.8775 44.1331 -27.1500 0.003 -0.906 0.423 138 89 48 0
0.9866 45.2212 -27.3369 -0.236 -0.331 0.914 136 85 47 0
1.2611 44.7948 -27.3168 -0.145 -0.185 0.972 136 83 46 0
3.7016 40.4519 -27.0528 0.407 -0.865 0.293 146 82 57 0
3.9348 40.2927 -27.0672 0.443 -0.843 -0.306 146 81 58 0
4.1643 40.1693 -27.0865 0.377 -0.875 -0.303 150 85 63 0
4.3667 40.3575 -27.1496 0.394 -0.871 -0.294 147 82 63 0
4.5992 40.1904 -27.1627 0.144 -0.887 -0.438 141 77 59 0
4.8206 40.1507 -27.1937 -0.349 -0.843 -0.409 137 75 58 0
5.6509 40.7037 -27.4186 -0.536 -0.826 -0.177 122 65 48 0
7.5050 46.5179 -28.6307 0.049 -0.177 0.983 109 71 62 0
8.5679 48.1055 -29.0550 0.907 -0.082 0.413 122 100 89 0
27.0683 29.0515 -29.2029 0.673 -0.713 -0.195 205 193 177 0
34.3127 54.5398 -34.3685 0.300 -0.863 -0.406 200 186 170 0
34.5484 54.5930 -34.4162 0.334 -0.830 -0.446 199 183 168 0
32.7862 33.5145 -30.8533 -0.250 -0.889 -0.383 196 183 166 0
37.3423 56.3656 -35.1594 -0.269 -0.960 -0.078 196 183 165 0
37.7820 57.6201 -35.4276 -0.032 -0.914 -0.404 196 183 166 0
38.0852 58.0436 -35.5441 -0.105 -0.933 -0.345 197 181 165 0
38.0101 56.2456 -35.2527 0.068 -0.694 -0.717 194 179 163 0
39.8616 55.1426 -35.3922 0.826 -0.108 0.553 198 180 160 0
39.4746 28.7275 -31.2326 0.193 -0.803 -0.565 191 170 151 0
44.7618 47.3631 -35.0077 -0.270 -0.823 0.500 187 168 151 0
44.8338 46.7819 -34.9297 -0.134 -0.808 0.574 187 168 151 0
45.0393 46.7681 -34.9620 -0.248 -0.837 0.488 187 168 151 0
45.2002 46.5689 -34.9581 -0.246 -0.822 0.514 187 168 150 0
45.3371 46.2742 -34.9354 -0.475 -0.762 0.440 185 167 147 0
45.5694 46.3755 -34.9900 -0.334 -0.886 0.323 182 164 144 0
45.7371 46.2122 -34.9928 -0.150 -0.981 -0.122 182 164 143 0
43.2632 32.3694 -32.4323 0.333 -0.089 0.939 180 161 145 0
-36.2726 16.4898 -16.8304 0.462 -0.464 0.756 234 223 205 0
-18.3375 33.0267 -22.4262 -0.043 -0.741 0.670 141 88 82 0
-9.5330 28.3921 -23.1728 0.304 -0.687 0.661 118 43 48 0
-9.2336 27.9633 -23.1557 0.278 -0.838 0.470 124 47 53 0
-6.3595 27.8318 -23.6161 0.481 -0.798 0.363 119 44 45 0
-6.1846 27.9753 -23.6679 0.483 -0.797 0.363 113 41 40 0
-4.9971 29.2515 -24.0668 -0.166 -0.739 0.654 110 38 39 0
-4.6098 29.3707 -24.1504 0.424 -0.593 0.685 109 38 37 0
-4.1861 30.4831 -24.3958 0.806 -0.497 0.321 120 51 48 0
-1.2268 35.8406 -25.7315 0.497 0.044 0.867 145 97 55 0
0.9052 43.5246 -27.2937 -0.123 -0.911 0.395 136 88 46 0
3.4556 40.3387 -27.2208 0.253 -0.764 0.594 147 85 62 0
3.6685 40.4076 -27.2672 0.260 -0.753 0.604 143 80 57 0
3.8438 40.9019 -27.3741 0.569 -0.810 0.143 143 78 56 0
4.0844 40.6637 -27.3770 0.642 -0.751 0.153 144 79 57 0
4.4094 39.4237 -27.2369 0.592 -0.802 -0.083 143 78 59 0
6.1978 41.7550 -27.9019 -0.280 -0.516 0.810 122 67 53 0
7.7539 45.4601 -28.7435 0.276 -0.272 0.922 106 70 63 0
9.1189 50.5434 -29.7694 0.900 -0.102 0.424 172 158 143 0
25.9670 31.3353 -29.5762 -0.252 -0.955 0.158 208 196 182 0
26.0330 30.1182 -29.3963 0.257 -0.962 0.092 208 196 182 0
26.4168 28.4205 -29.1942 0.097 -0.840 0.533 205 193 178 0
27.0610 29.1840 -29.4218 0.663 -0.718 -0.211 205 193 177 0
33.7564 52.4338 -34.1895 0.036 -0.859 -0.510 200 187 170 0
33.9940 52.5241 -34.2435 0.034 -0.860 -0.509 203 189 173 0
37.6034 58.0880 -35.7203 -0.126 -0.922 -0.366 194 181 162 0
38.8106 59.6993 -36.1751 0.601 -0.741 -0.298 193 180 161 0
44.6674 47.0404 -35.1697 -0.261 -0.843 0.470 187 168 151 0
44.8197 46.7993 -35.1573 -0.269 -0.827 0.494 186 167 150 0
45.0109 46.7249 -35.1777 -0.269 -0.827 0.494 186 167 150 0
45.2018 46.6506 -35.1979 -0.269 -0.827 0.494 185 167 148 0
45.3209 46.2813 -35.1600 -0.309 -0.883 0.352 184 166 146 0
45.7268 46.2423 -35.2218 -0.150 -0.981 -0.122 181 163 143 0
43.9610 36.6952 -33.4286 -0.456 -0.712 -0.534 181 162 144 0
44.1244 36.5833 -33.4384 -0.467 -0.718 -0.517 180 161 144 0
-36.2184 14.7921 -16.7638 -0.070 -0.919 0.387 234 221 205 0
-36.6242 16.6779 -16.9953 0.864 -0.495 0.098 233 222 205 0
-36.4767 16.7773 -17.0357 0.866 -0.493 0.087 233 222 205 0
-51.3569 48.1340 -19.5262 0.473 -0.149 0.868 235 223 208 0
-51.1601 48.2641 -19.5797 0.448 -0.129 0.885 234 222 208 0
-20.5714 28.9178 -21.6203 -0.044 -0.879 0.475 232 224 207 0
-15.5168 30.4815 -22.7131 -0.037 -0.971 0.237 120 54 54 0
-9.4729 27.9366 -23.3191 0.287 -0.829 0.480 121 46 51 0
-9.2501 27.8529 -23.3430 0.278 -0.838 0.470 126 50 54 0
-4.7135 29.7416 -24.4008 0.636 -0.719 0.280 109 37 38 0
-4.5585 30.0298 -24.4724 0.630 -0.745 0.219 112 38 39 0
-4.3669 30.1101 -24.5172 0.626 -0.747 0.223 116 43 44 0
-4.1178 29.8527 -24.5180 0.279 -0.769 0.575 115 44 44 0
-1.0121 35.5478 -25.9408 0.487 0.080 0.870 145 94 53 0
4.9070 38.2037 -27.3514 0.686 -0.631 0.361 131 69 48 0
5.1283 38.1214 -27.3753 -0.330 -0.830 0.449 131 68 49 0
6.1111 39.3637 -27.7367 0.463 -0.306 0.832 122 63 51 0
6.1854 41.4118 -28.0742 -0.555 -0.690 0.465 118 62 51 0
6.4276 41.0775 -28.0616 -0.522 -0.688 0.504 114 62 50 0
6.6697 40.7260 -28.0463 -0.544 -0.706 0.454 111 62 50 0
6.8732 40.9551 -28.1166 0.903 -0.424 0.077 109 63 50 0
10.7634 49.0577 -30.0527 0.794 -0.495 0.352 216 207 192 0
14.8564 28.9532 -27.5457 -0.621 -0.782 -0.045 221 210 195 0
21.5213 25.5191 -28.1143 -0.143 -0.443 0.885 212 203 186 0
26.0386 30.3972 -29.6433 0.203 -0.979 0.021 209 196 181 0
26.1356 29.5088 -29.5185 -0.340 -0.902 -0.266 208 195 180 0
36.9392 57.0157 -35.6895 0.068 -0.799 -0.598 196 183 163 0
37.4127 58.4956 -36.0035 -0.149 -0.905 -0.399 195 182 162 0
38.8484 60.0613 -36.4920 0.629 -0.778 0.011 192 181 160 0
39.2202 60.8452 -36.6785 0.580 -0.768 -0.270 193 181 160 0
43.9607 44.9914 -34.9543 0.746 -0.626 0.225 186 168 150 0
44.5906 46.7922 -35.3454 -0.183 -0.963 -0.199 184 166 148 0
44.8058 46.8178 -35.3854 -0.183 -0.955 -0.231 182 164 146 0
45.0294 46.8787 -35.4325 -0.190 -0.950 -0.246 180 162 143 0
45.1987 46.7130 -35.4344 -0.118 -0.987 -0.106 180 163 143 0
45.3326 46.4038 -35.4077 -0.086 -0.994 -0.061 182 166 147 0
45.5386 46.3949 -35.4407 -0.107 -0.993 -0.041 181 165 145 0
-36.4111 15.0543 -16.9646 -0.201 -0.953 0.225 234 222 206 0
-36.7447 16.8050 -17.1901 0.897 -0.437 0.068 234 222 206 0
-36.6024 16.9149 -17.2315 0.856 -0.448 0.258 234 222 206 0
-19.2890 23.5325 -21.1822 0.728 -0.664 -0.168 232 226 208 0
-20.7046 28.5269 -21.7480 0.246 -0.814 0.526 232 225 207 0
-20.5852 28.8137 -21.8140 -0.044 -0.879 0.475 232 223 206 0
-25.3105 46.5504 -23.8737 0.596 -0.801 -0.056 230 222 203 0
-18.0406 33.1849 -22.9403 0.634 -0.563 0.530 125 69 69 0
-15.6873 30.9437 -22.9730 -0.746 -0.588 0.313 117 52 53 0
-14.5364 30.6145 -23.1122 -0.566 -0.514 0.645 123 45 49 0
-13.7192 31.5696 -23.4018 -0.185 -0.124 0.975 116 37 43 0
-11.0068 26.4655 -23.0347 0.324 -0.946 0.001 122 41 48 0
-4.2877 29.4242 -24.6307 0.154 -0.866 0.475 118 41 43 0
-2.3009 29.7553 -25.0153 0.602 -0.696 0.391 114 39 34 0
-0.8753 35.8345 -26.2292 0.260 0.079 0.962 140 86 51 0
4.9044 37.7970 -27.5085 0.634 -0.374 0.677 127 66 45 0
5.0670 38.4383 -27.6386 -0.140 -0.839 0.526 126 64 45 0
5.2685 38.6111 -27.6999 0.529 -0.737 0.421 124 64 45 0
6.0907 39.1498 -27.9236 0.421 -0.323 0.848 119 61 47 0
6.3795 41.2574 -28.3102 -0.528 -0.773 -0.351 112 59 48 0
7.5988 42.9322 -28.7825 0.930 -0.365 0.053 98 62 53 0
10.0221 56.2892 -31.3315 0.978 -0.067 0.196 213 204 187 0
10.5233 48.2236 -30.1200 0.864 -0.475 0.170 214 205 188 0
10.7308 48.9517 -30.2715 0.767 -0.518 0.379 215 206 191 0
11.4976 45.9195 -29.9126 0.518 -0.644 0.563 216 208 193 0
14.8281 28.9874 -27.7494 -0.621 -0.782 -0.045 218 208 193 0
15.2029 26.8093 -27.4621 0.606 -0.794 0.051 219 208 194 0
16.2304 48.7282 -31.1531 0.657 -0.497 0.567 218 209 193 0
16.4492 48.1209 -31.0920 0.241 -0.602 0.762 217 208 193 0
21.4470 24.7447 -28.1722 0.222 -0.473 0.853 213 204 187 0
26.0145 30.3880 -29.8403 0.203 -0.979 0.021 207 194 178 0
32.2599 36.8218 -31.9152 -0.425 -0.379 0.822 200 184 169 0
36.9505 57.2379 -35.9759 0.052 -0.806 -0.589 197 184 163 0
37.8384 58.3967 -36.3101 -0.240 -0.885 -0.400 195 183 161 0
41.8090 48.6383 -35.4055 0.191 -0.640 0.744 186 173 152 0
44.5430 46.6676 -35.5452 -0.160 -0.962 -0.220 179 164 146 0
44.8102 46.9136 -35.6293 -0.192 -0.952 -0.238 179 164 144 0
45.0241 46.9325 -35.6680 -0.203 -0.962 -0.181 178 164 142 0
45.2141 46.8523 -35.6868 -0.229 -0.957 -0.179 178 164 144 0
45.3469 46.5369 -35.6583 -0.157 -0.984 -0.082 177 164 146 0
45.5228 46.4034 -35.6662 -0.086 -0.994 -0.061 179 166 147 0
-19.3028 23.4361 -21.3667 0.729 -0.667 -0.153 232 226 208 0
-25.4057 46.6801 -24.1258 0.609 -0.790 -0.065 229 221 202 0
-24.2955 43.9175 -23.8620 0.367 -0.876 -0.314 228 220 201 0
-1.0660 32.3113 -25.8454 0.507 -0.135 0.851 119 54 35 0
3.7252 40.9786 -28.0511 0.434 -0.076 0.897 134 72 53 0
3.8862 41.6538 -28.1876 0.416 -0.097 0.904 133 71 54 0
4.1946 40.6457 -28.0752 0.090 -0.265 0.960 132 70 52 0
4.7263 39.5219 -27.9812 0.283 -0.378 0.882 126 67 48 0
5.0387 38.3432 -27.8418 -0.138 -0.835 0.532 127 67 49 0
5.2490 38.4037 -27.8867 0.679 -0.659 0.323 127 68 52 0
6.9655 41.8349 -28.7298 0.396 -0.869 0.299 103 56 47 0
7.5538 43.0928 -29.0321 0.929 -0.362 0.080 94 57 49 0
10.0056 55.6533 -31.4806 0.972 -0.065 0.225 213 204 187 0
10.7847 46.0015 -30.0426 0.058 -0.533 0.844 215 205 190 0
14.6031 43.1599 -30.2170 0.069 -0.745 0.664 216 209 193 0
15.1758 26.9207 -27.6747 0.556 -0.831 -0.023 217 208 193 0
16.4117 47.7651 -31.2662 0.319 -0.532 0.784 217 208 193 0
26.9870 48.7733 -33.1911 0.756 -0.608 0.241 206 196 179 0
41.4092 46.8323 -35.2777 -0.510 -0.820 0.260 185 172 153 0
40.6045 41.0871 -34.2106 -0.770 -0.610 0.190 183 170 152 0
41.2110 36.6720 -33.5944 0.674 -0.171 0.719 185 168 148 0
44.8101 46.9905 -35.8698 -0.263 -0.965 -0.020 180 166 147 0
45.0448 47.0959 -35.9260 -0.248 -0.969 0.003 178 164 144 0
45.2067 46.8971 -35.9207 -0.240 -0.970 0.026 177 164 144 0
45.3702 46.7077 -35.9171 -0.159 -0.986 -0.039 176 163 145 0
-24.6124 44.7598 -24.1896 0.250 -0.911 -0.327 229 219 200 0
-24.4233 44.9318 -24.2493 0.353 -0.901 -0.253 229 215 196 0
-16.4001 31.6499 -23.4012 -0.756 -0.591 0.281 118 56 60 0
-1.1973 31.5023 -25.9046 0.338 -0.246 0.908 118 48 34 0
-1.0326 31.8015 -25.9812 0.333 -0.224 0.916 117 49 33 0
3.5879 39.6641 -28.0410 0.497 -0.149 0.855 138 79 54 0
3.7298 40.5128 -28.2040 0.409 -0.120 0.905 135 74 53 0
3.9622 40.3681 -28.2189 0.052 -0.237 0.970 133 73 53 0
4.1844 40.3347 -28.2504 0.047 -0.240 0.970 133 73 54 0
4.5578 38.5118 -28.0130 -0.463 -0.839 0.284 132 74 54 0
4.7918 38.2907 -28.0156 -0.109 -0.922 0.373 130 71 53 0
5.0115 38.2345 -28.0429 -0.150 -0.835 0.529 130 71 53 0
5.2185 38.3357 -28.0939 0.702 -0.657 0.276 130 72 55 0
5.4098 38.6431 -28.1762 0.754 -0.648 -0.110 126 70 54 0
6.0784 41.3908 -28.7388 -0.474 -0.772 -0.424 111 59 45 0
6.9321 41.7969 -28.9474 -0.381 -0.899 0.216 102 54 48 0
7.1434 41.9433 -29.0066 0.089 -0.879 0.468 98 52 48 0
7.3364 42.4046 -29.1145 0.667 -0.501 0.551 93 53 49 0
7.5665 42.2490 -29.1271 0.863 -0.350 0.364 92 56 49 0
9.4550 50.1624 -30.7412 0.967 -0.071 0.246 168 151 141 0
10.2066 55.7854 -31.7899 0.901 -0.054 0.430 213 204 187 0
10.7422 46.2459 -30.3118 0.044 -0.679 0.733 215 205 189 0
11.7438 42.0853 -29.7948 0.016 -0.999 -0.027 215 208 190 0
12.0751 47.3379 -30.7128 0.953 -0.206 0.223 215 208 191 0
14.5715 41.7352 -30.2074 -0.023 -0.737 0.675 215 208 194 0
27.1281 58.0375 -34.9732 0.467 -0.835 0.290 209 197 183 0
32.7316 45.9721 -33.9228 -0.360 -0.362 0.860 200 187 168 0
33.0337 46.5802 -34.0729 -0.275 -0.358 0.892 199 186 169 0
38.5615 60.1954 -37.2287 0.263 -0.962 0.069 196 180 163 0
38.8087 60.2591 -37.2802 0.263 -0.962 0.069 196 181 162 0
43.6419 68.1437 -39.3791 -0.655 -0.511 0.556 190 175 154 0
40.6250 41.2716 -34.4629 -0.748 -0.647 0.145 185 172 155 0
38.1618 21.8019 -30.8549 0.671 -0.436 -0.599 182 166 148 0
38.5330 22.6768 -31.0603 0.646 -0.449 -0.617 183 165 149 0
40.1369 25.8259 -31.8443 0.252 -0.901 -0.353 179 164 144 0
43.2943 35.8099 -34.0094 0.780 -0.133 0.611 179 163 140 0
-25.9486 44.2156 -24.1212 -0.270 -0.709 -0.652 233 224 209 0
-24.6982 44.8623 -24.4361 0.358 -0.903 -0.236 231 219 201 0
-24.4951 44.9901 -24.4911 0.349 -0.907 -0.235 230 214 195 0
-16.0498 30.9919 -23.5672 -0.724 -0.679 0.124 119 55 61 0
-14.3067 30.0384 -23.6981 -0.486 -0.472 0.736 116 40 45 0
-12.9554 28.0394 -23.5903 0.002 -0.647 0.762 118 35 46 0
-8.6364 27.0944 -24.1502 0.299 -0.805 0.512 135 52 60 0
-6.7695 26.8641 -24.4218 0.192 -0.697 0.691 123 45 47 0
-5.9635 27.9159 -24.7303 -0.077 -0.978 0.192 119 45 46 0
-0.9792 31.1511 -26.0951 0.374 -0.126 0.919 113 43 31 0
3.7512 39.8629 -28.3276 0.530 -0.115 0.840 138 81 55 0
3.9369 40.2354 -28.4203 0.393 -0.096 0.915 136 79 54 0
4.3574 37.9131 -28.1043 0.428 -0.120 0.896 134 76 53 0
4.4478 39.3797 -28.3630 -0.169 -0.250 0.953 131 73 51 0
4.6781 39.2243 -28.3754 -0.138 -0.239 0.961 128 70 49 0
4.9471 38.5845 -28.3137 0.107 -0.253 0.961 127 69 50 0
5.1647 38.5608 -28.3459 0.399 -0.202 0.895 126 69 51 0
5.4557 40.4073 -28.7010 0.717 -0.221 0.661 124 68 53 0
5.6570 40.6421 -28.7734 0.822 -0.148 0.549 120 65 51 0
6.3981 42.6502 -29.2301 -0.341 -0.935 0.101 101 53 41 0
6.6535 42.1387 -29.1875 -0.380 -0.865 0.327 101 54 44 0
6.8862 41.9555 -29.1957 -0.379 -0.864 0.331 99 51 46 0
7.0931 42.1787 -29.2671 -0.321 -0.858 0.401 96 51 47 0
9.2970 47.4578 -30.5100 0.954 -0.035 0.297 115 95 88 0
9.4563 49.2080 -30.8272 0.955 -0.035 0.293 137 121 111 0
9.6248 50.8771 -31.1324 0.953 -0.096 0.286 193 180 167 0
10.0124 53.2602 -31.5927 0.955 -0.112 0.273 209 202 182 0
10.1676 55.8189 -32.0436 0.934 -0.049 0.353 212 203 186 0
15.1362 30.4174 -28.6481 -0.454 -0.887 -0.088 214 208 194 0
15.3453 32.5090 -29.0303 0.054 -0.949 -0.312 214 207 193 0
20.0377 20.2716 -27.7760 0.077 -0.934 -0.348 214 205 190 0
20.2101 20.2184 -27.7958 -0.112 -0.957 -0.269 213 204 189 0
20.3695 19.9421 -27.7763 -0.056 -0.903 -0.426 212 203 188 0
20.5687 20.3600 -27.8788 0.287 -0.957 0.027 212 203 188 0
26.9964 56.9042 -35.0172 0.433 -0.862 0.264 210 198 184 0
27.0065 54.4361 -34.6088 -0.470 -0.842 0.263 208 196 182 0
29.3204 33.0562 -31.4408 0.244 -0.639 -0.729 204 188 175 0
33.0885 47.1251 -34.4036 -0.396 -0.756 0.520 200 187 169 0
43.6040 68.0743 -39.6295 -0.708 -0.541 0.453 192 177 156 0
41.3971 50.0635 -36.2709 0.050 -0.579 0.814 186 174 152 0
39.0090 36.5117 -33.6230 0.114 -0.764 -0.635 186 173 153 0
39.7229 33.5846 -33.2552 -0.814 -0.581 0.015 185 169 149 0
40.0335 26.1900 -32.0782 0.650 -0.467 -0.599 183 164 149 0
44.5581 39.4117 -35.0259 0.791 -0.157 0.591 180 161 142 0
-25.1405 43.0436 -24.3015 -0.403 -0.883 -0.239 232 223 206 0
-25.3313 44.3910 -24.4963 -0.451 -0.883 0.130 231 222 205 0
-24.9864 44.0692 -24.4993 -0.231 -0.937 -0.263 232 221 205 0
-25.1034 45.2048 -24.6707 0.057 -0.884 -0.464 233 220 204 0
-24.8426 45.1510 -24.7049 -0.048 -0.983 -0.177 232 217 201 0
-24.6201 45.2189 -24.7532 -0.025 -0.985 -0.171 227 208 192 0
-24.3589 45.1621 -24.7870 0.378 -0.903 -0.206 203 176 160 0
-16.0669 30.8892 -23.7631 -0.665 -0.742 0.083 117 53 58 0
-15.6548 30.1635 -23.7095 -0.106 -0.945 0.309 119 52 58 0
-15.4812 30.3054 -23.7621 -0.072 -0.994 0.079 116 48 52 0
-14.9109 30.5546 -23.8985 -0.259 -0.897 -0.359 114 42 46 0
-13.6981 29.1456 -23.8627 -0.605 -0.652 0.457 116 36 43 0
-12.9334 27.7844 -23.7607 0.019 -0.647 0.762 121 38 50 0
-3.4736 28.5173 -25.4514 0.002 -0.981 -0.195 138 54 51 0
-3.2722 28.5247 -25.4860 0.002 -0.981 -0.195 154 70 66 0
-2.2533 31.1451 -26.0951 0.795 -0.071 0.603 121 37 36 0
2.6445 33.3568 -27.2782 0.313 -0.125 0.942 148 94 59 0
2.8165 33.7034 -27.3650 0.364 -0.110 0.925 149 94 58 0
3.9923 36.7944 -28.0791 0.473 -0.039 0.880 146 89 59 0
4.1639 37.2626 -28.1862 0.459 -0.069 0.886 144 87 59 0
5.1532 38.2537 -28.5166 0.577 -0.117 0.809 119 61 43 0
5.9432 42.2772 -29.3235 0.804 -0.027 0.594 110 59 45 0
6.1594 42.3585 -29.3729 0.226 -0.019 0.974 105 55 42 0
6.6663 41.3882 -29.2939 0.009 -0.126 0.992 98 51 43 0
6.8842 41.4191 -29.3352 -0.222 -0.774 0.593 98 51 46 0
7.0651 42.0506 -29.4713 -0.317 -0.851 0.420 96 51 48 0
7.3002 41.8118 -29.4701 0.627 -0.305 0.717 93 51 50 0
7.8809 43.2748 -29.8121 0.849 -0.203 0.487 88 54 49 0
9.0798 46.3532 -30.5280 0.586 -0.489 0.646 99 78 72 0
9.4673 48.0246 -30.8730 0.966 -0.019 0.256 123 107 96 0
10.9199 45.5145 -30.6920 -0.211 -0.964 0.163 215 206 190 0
11.2320 42.3606 -30.2138 0.037 -0.873 -0.486 215 206 189 0
20.1984 20.4307 -28.0154 -0.108 -0.960 -0.259 211 203 187 0
20.3684 20.3334 -28.0272 0.304 -0.941 0.146 211 202 187 0
20.5491 20.4231 -28.0722 0.251 -0.962 0.105 212 203 188 0
26.7589 57.2324 -35.2852 -0.144 -0.985 -0.096 210 198 184 0
26.9594 56.8224 -35.2495 -0.146 -0.982 -0.118 209 197 183 0
27.1970 54.2995 -34.8650 -0.077 -0.996 0.036 206 195 180 0
24.7885 22.7368 -29.1634 0.209 -0.964 0.162 205 193 177 0
29.2264 34.0106 -31.7928 0.012 -0.979 0.202 205 189 176 0
29.3980 33.8297 -31.7908 0.166 -0.966 0.200 204 188 175 0
35.7369 48.9744 -35.3855 -0.336 -0.926 -0.170 198 182 167 0
36.5014 50.9503 -35.8441 -0.088 -0.876 -0.474 198 182 167 0
31.3809 18.1640 -29.4876 -0.131 -0.756 -0.641 195 179 163 0
31.5940 18.4403 -29.5693 0.111 -0.831 -0.545 195 179 163 0
40.5649 49.2640 -36.2342 0.408 -0.707 0.579 187 174 155 0
41.1252 49.8962 -36.4332 0.597 -0.722 0.349 186 174 154 0
38.6735 35.9178 -33.6786 -0.150 -0.908 -0.391 185 174 152 0
-38.5926 13.8829 -17.3641 0.074 -0.381 0.922 236 222 209 0
-24.1628 40.5736 -24.2849 -0.061 -0.878 0.475 229 222 204 0
-25.1757 45.2624 -24.9138 -0.026 -0.987 -0.160 233 219 203 0
-24.9563 45.3411 -24.9634 -0.240 -0.949 0.205 233 216 201 0
-24.7188 45.3627 -25.0064 -0.129 -0.975 0.181 225 203 189 0
-16.9143 32.2268 -24.0662 -0.497 -0.334 0.801 114 50 54 0
-15.7144 30.2168 -23.9232 0.360 -0.457 0.814 117 51 53 0
-15.3509 30.4430 -24.0218 -0.024 -0.717 0.697 112 42 46 0
-14.8534 30.9720 -24.1940 -0.216 -0.853 -0.474 115 39 43 0
-9.0188 26.6200 -24.4199 0.505 -0.698 0.507 140 57 64 0
-8.1596 26.3828 -24.5217 0.076 -0.789 0.609 132 46 53 0
-7.9597 26.3901 -24.5561 0.246 -0.888 0.389 128 43 50 0
-4.6214 27.9060 -25.3658 0.469 -0.827 0.309 127 47 50 0
-4.4328 27.9833 -25.4101 0.121 -0.974 0.193 128 43 46 0
-3.5227 28.5847 -25.6628 -0.043 -0.970 -0.238 132 45 43 0
-3.3198 28.5839 -25.6962 -0.043 -0.970 -0.238 145 56 55 0
-3.1209 28.6071 -25.7331 -0.024 -0.966 -0.256 134 44 43 0
-2.9117 28.5661 -25.7607 0.013 -0.999 0.045 129 39 39 0
2.1256 33.9686 -27.5117 0.625 -0.012 0.780 132 77 47 0
5.6717 39.4724 -29.0332 0.815 -0.088 0.572 107 53 40 0
5.8363 40.1940 -29.1830 0.822 -0.067 0.566 107 55 42 0
6.0060 40.8781 -29.3273 0.682 -0.052 0.730 107 56 43 0
7.1175 40.6251 -29.4682 0.234 -0.354 0.905 94 49 44 0
9.0546 46.1089 -30.7201 0.763 -0.419 0.493 94 71 65 0
10.4378 45.4217 -30.8322 -0.408 -0.909 -0.083 209 201 185 0
10.8821 45.6143 -30.9384 -0.256 -0.956 0.143 216 204 192 0
11.2001 42.2899 -30.4263 0.016 -0.903 -0.429 215 206 191 0
11.3905 43.3889 -30.6445 -0.034 -0.901 -0.432 213 207 191 0
18.4212 31.1030 -29.7207 0.040 -0.891 -0.453 214 205 190 0
20.9070 26.9540 -29.4271 0.539 -0.611 0.579 212 200 186 0
26.7736 57.7396 -35.6269 -0.087 -0.978 -0.188 209 196 180 0
26.9328 56.8568 -35.5032 -0.146 -0.982 -0.118 207 194 178 0
27.3554 56.3136 -35.4809 -0.245 -0.920 -0.305 206 194 178 0
29.3780 33.8484 -31.9995 0.095 -0.970 0.222 202 189 173 0
27.8642 20.7671 -29.5271 0.899 -0.429 -0.083 200 187 170 0
32.2801 43.3080 -34.0864 -0.172 -0.308 0.936 200 184 169 0
31.2458 18.4517 -29.6932 -0.137 -0.767 -0.626 194 181 165 0
31.4108 18.4434 -29.7191 -0.137 -0.767 -0.626 193 180 164 0
31.6216 18.7030 -29.7981 -0.021 -0.766 -0.643 193 180 164 0
31.8375 18.9878 -29.8822 0.041 -0.836 -0.547 193 180 164 0
39.8702 33.5533 -33.6851 -0.796 -0.543 -0.266 183 167 151 0
41.4258 38.8023 -34.8340 0.929 -0.364 -0.067 184 167 150 0
45.1375 40.2803 -35.6991 0.777 -0.132 0.616 175 160 140 0
-24.2162 41.3154 -24.6399 0.942 -0.335 0.030 230 220 203 0
-25.2783 45.4153 -25.1686 -0.021 -0.995 0.103 232 218 203 0
-25.0273 45.3951 -25.2066 -0.159 -0.969 0.190 231 213 199 0
-24.7826 45.3941 -25.2468 -0.128 -0.973 0.190 220 196 183 0
-17.1895 29.2713 -23.7321 -0.180 -0.918 0.353 121 59 61 0
-14.8566 30.0156 -24.2452 -0.012 -0.858 0.514 114 37 43 0
-9.6285 26.4490 -24.4961 0.021 -0.864 0.503 130 49 55 0
-6.3298 26.0786 -24.9773 0.347 -0.866 0.360 119 40 46 0
-5.9432 26.1471 -25.0529 0.026 -0.866 0.499 125 46 54 0
-6.0963 27.9963 -25.3452 -0.065 -0.998 -0.014 131 51 59 0
-5.8906 27.9833 -25.3769 -0.065 -0.998 -0.014 130 50 58 0
-4.7290 27.1645 -25.4281 0.261 -0.937 0.230 129 48 50 0
-4.0464 27.8662 -25.6614 -0.046 -0.994 0.099 120 34 34 0
-3.7649 28.5913 -25.8324 0.287 -0.928 -0.236 124 36 37 0
-3.1659 28.6511 -25.9416 -0.082 -0.937 -0.339 127 37 37 0
2.1830 33.1114 -27.5908 0.572 -0.036 0.820 122 65 42 0
2.3569 33.4265 -27.6737 0.502 -0.060 0.863 126 68 44 0
5.3316 35.1397 -28.4591 0.626 -0.452 0.636 115 58 40 0
5.6848 38.8183 -29.1492 0.817 -0.073 0.572 102 50 37 0
5.8583 39.3994 -29.2776 0.746 -0.051 0.664 102 50 38 0
6.0369 39.9369 -29.3994 0.662 -0.045 0.748 101 51 40 0
8.8589 44.6432 -30.6736 0.872 -0.311 0.377 87 63 59 0
9.4622 46.3675 -31.0694 -0.609 -0.777 0.162 107 91 82 0
9.9341 45.9029 -31.0675 -0.462 -0.883 0.085 180 169 155 0
10.1703 45.6233 -31.0585 -0.515 -0.856 0.040 212 201 187 0
10.4014 45.4597 -31.0686 -0.508 -0.861 0.035 209 199 185 0
10.6327 45.2723 -31.0746 -0.416 -0.908 -0.055 211 201 189 0
11.4915 46.8825 -31.4929 -0.406 -0.912 -0.048 211 208 191 0
17.6671 26.2002 -28.9612 -0.385 -0.674 0.631 214 205 190 0
18.1977 31.0842 -29.8875 0.286 -0.813 -0.508 214 205 190 0
26.7189 57.4574 -35.8236 -0.074 -0.977 -0.200 209 197 181 0
30.4990 53.3816 -35.7480 -0.624 -0.755 -0.201 203 191 177 0
30.7318 53.4154 -35.7922 -0.763 -0.646 -0.005 201 189 175 0
28.6117 22.6151 -30.1530 0.949 -0.311 0.048 200 187 171 0
31.0980 18.6711 -29.8863 -0.076 -0.727 -0.682 195 182 166 0
31.2838 18.7833 -29.9363 -0.105 -0.746 -0.658 193 180 164 0
31.4221 18.6134 -29.9299 -0.137 -0.767 -0.626 192 179 163 0
31.5869 18.6021 -29.9552 -0.151 -0.762 -0.629 193 180 164 0
31.8282 19.0346 -30.0693 -0.032 -0.872 -0.489 192 179 163 0
41.1286 51.2007 -37.1289 0.174 -0.788 -0.591 190 174 158 0
41.4350 51.6303 -37.2533 0.495 -0.702 -0.512 190 174 158 0
41.4869 39.1542 -35.1194 0.916 -0.401 0.011 184 167 151 0
42.3006 40.1157 -35.4189 0.637 -0.322 0.701 180 164 149 0
42.4788 40.0248 -35.4327 0.877 -0.337 0.343 179 163 148 0
-25.0660 42.3153 -24.9115 -0.170 -0.698 0.696 228 223 204 0
-17.2134 29.1964 -23.9288 -0.157 -0.892 0.425 121 57 59 0
-12.6090 26.8130 -24.2742 0.170 -0.650 0.740 116 34 46 0
-11.2465 26.2543 -24.4019 0.311 -0.772 0.555 122 41 50 0
-6.5319 25.8922 -25.1163 0.209 -0.936 0.282 120 41 47 0
-5.9614 26.0410 -25.2362 0.026 -0.866 0.499 132 52 61 0
-4.0725 27.7966 -25.8524 -0.060 -0.997 0.044 120 34 37 0
