ply
format ascii 1.0
element vertex 832
property float x
property float y
property float z
property float nx
property float ny
property float nz
property uchar diffuse_red
property uchar diffuse_green
property uchar diffuse_blue
property uchar class
end_header
-26.8201 38.5526 -34.3730 -0.447 -0.870 -0.207 190 168 162 0
-25.9643 38.7904 -34.5966 -0.586 -0.799 0.136 145 99 102 0
-19.1900 27.5703 -32.8924 -0.482 -0.534 0.694 117 46 57 0
-19.0349 27.7689 -32.9742 -0.335 -0.672 0.660 120 47 58 0
-15.5991 24.0314 -32.6277 0.423 -0.888 -0.178 122 40 52 0
-15.2440 24.2242 -32.7455 0.423 -0.888 -0.178 124 40 53 0
-11.0316 23.2518 -33.2780 0.021 -0.839 -0.544 122 31 46 0
-10.5969 23.0591 -33.3085 0.797 -0.548 -0.256 120 32 48 0
-6.6159 23.9549 -34.2930 0.232 -0.762 -0.604 127 33 51 0
-0.6228 24.7781 -35.6359 0.742 -0.537 0.400 82 16 30 0
1.6273 25.9986 -36.3817 0.099 -0.915 -0.391 65 15 23 0
1.8124 26.1549 -36.4579 0.769 -0.606 0.204 64 14 23 0
2.0074 26.1912 -36.5041 0.035 -0.854 -0.519 64 13 21 0
6.4936 33.0962 -39.1770 0.439 -0.755 0.487 59 28 25 0
8.3449 47.0754 -43.2314 -0.391 -0.877 0.280 58 74 43 0
8.5744 47.3304 -43.3420 0.843 -0.537 0.028 62 84 48 0
8.8081 47.3234 -43.3840 0.811 -0.573 0.119 60 87 46 0
9.0690 44.8375 -42.7738 -0.313 -0.892 0.327 62 90 47 0
11.9403 56.9811 -46.5328 0.759 -0.055 0.649 73 114 65 0
26.5757 24.1922 -40.5840 -0.500 -0.859 -0.111 190 176 165 0
28.5516 23.9145 -40.8811 -0.004 -0.711 0.703 184 173 161 0
28.8597 24.6310 -41.1289 -0.577 -0.708 0.407 185 173 161 0
29.1399 24.1355 -41.0501 -0.434 -0.865 0.252 186 174 162 0
29.3859 24.4846 -41.1888 0.153 -0.975 0.160 183 173 162 0
33.9904 20.7023 -41.0498 -0.359 -0.866 0.347 182 170 156 0
34.3523 20.7523 -41.1310 0.454 -0.733 0.506 181 168 155 0
41.8539 42.7003 -48.3587 -0.511 -0.733 0.449 176 162 151 0
45.5847 46.2524 -50.0007 0.638 -0.542 -0.548 169 154 145 0
-27.1812 38.7715 -34.6068 -0.423 -0.892 -0.160 226 210 199 0
-26.9108 38.6516 -34.6255 -0.336 -0.922 -0.192 201 179 173 0
-26.1739 41.6219 -35.5571 0.929 -0.213 0.304 136 80 89 0
-21.8894 30.1803 -33.3035 0.186 -0.940 -0.286 131 68 76 0
-21.8168 31.4232 -33.6491 -0.739 -0.610 -0.285 121 60 67 0
-19.1481 27.2278 -33.0285 -0.557 -0.576 0.598 117 46 57 0
-19.0400 27.5970 -33.1474 -0.395 -0.588 0.706 117 44 56 0
-15.6859 24.1842 -32.8643 0.350 -0.891 -0.289 123 41 53 0
-11.1699 22.7454 -33.3263 0.582 -0.602 -0.546 123 30 47 0
-11.0697 23.2136 -33.4702 0.019 -0.846 -0.534 121 29 46 0
-10.8769 23.2385 -33.5130 0.001 -0.848 -0.530 121 29 46 0
-10.7452 23.5644 -33.6247 0.760 -0.649 -0.026 122 31 48 0
-6.9476 25.7170 -34.9115 -0.676 -0.673 -0.301 128 34 49 0
-2.5687 22.7004 -34.9263 -0.053 -0.871 -0.489 105 27 43 0
-1.8139 22.8574 -35.1097 0.362 -0.901 -0.241 98 25 42 0
-1.6167 22.8250 -35.1381 0.369 -0.899 -0.237 97 25 42 0
-0.9881 24.1473 -35.6091 0.309 -0.947 0.086 86 17 32 0
-1.0386 26.4423 -36.2127 -0.664 -0.740 0.108 84 17 32 0
-0.6621 24.7632 -35.8347 0.197 -0.976 0.091 83 17 31 0
0.6431 25.5014 -36.2766 0.378 -0.866 0.328 66 12 23 0
0.7814 26.1537 -36.4767 0.620 -0.776 -0.114 66 13 23 0
1.1888 26.0291 -36.5198 0.045 -0.968 -0.246 65 14 23 0
1.5736 26.1631 -36.6277 -0.240 -0.967 0.086 64 14 24 0
1.9579 26.3115 -36.7394 0.459 -0.888 -0.024 62 12 21 0
2.1403 26.5147 -36.8279 0.084 -0.892 -0.443 62 12 22 0
2.2602 27.5537 -37.1279 -0.206 -0.871 -0.445 64 14 24 0
6.0182 33.5572 -39.4361 0.698 -0.195 0.689 57 22 24 0
8.0599 47.5032 -43.5443 -0.430 -0.720 0.544 56 66 37 0
8.3022 47.0273 -43.4626 -0.400 -0.602 0.692 59 75 43 0
8.5286 47.4851 -43.6273 0.868 -0.429 0.250 62 84 47 0
12.1583 58.0414 -47.1277 0.740 -0.029 0.673 75 114 65 0
12.4537 61.1458 -48.0124 0.681 0.004 0.733 78 117 70 0
15.4443 45.8661 -44.4910 0.162 -0.918 0.362 194 189 158 0
15.6233 44.6698 -44.2049 -0.046 -0.829 0.557 194 189 159 0
15.7839 43.1474 -43.8283 -0.174 -0.899 0.402 195 189 161 0
28.9868 25.5064 -41.5901 -0.512 -0.631 0.583 183 173 161 0
29.1457 25.3532 -41.5789 -0.521 -0.634 0.572 184 173 160 0
29.2209 24.7329 -41.4273 -0.624 -0.662 0.415 184 173 160 0
34.0310 20.9709 -41.3238 -0.039 -0.641 0.766 184 172 158 0
39.2614 28.1786 -44.2296 -0.073 -0.935 0.348 172 159 147 0
46.1917 47.7421 -50.7548 0.836 -0.456 -0.307 170 153 143 0
46.8937 49.4672 -51.3472 0.831 -0.456 -0.317 170 153 143 0
-27.9291 39.4658 -34.8974 -0.647 -0.757 -0.091 228 219 207 0
-27.2614 38.8356 -34.8528 -0.416 -0.896 -0.157 226 211 200 0
-26.9993 38.7429 -34.8769 -0.327 -0.924 -0.196 209 188 181 0
-26.1895 39.1387 -35.1351 -0.498 -0.866 0.043 144 99 104 0
-26.1941 39.9223 -35.3451 -0.117 -0.962 0.248 143 92 98 0
-19.5064 27.5816 -33.2759 -0.417 -0.878 0.236 120 51 62 0
-19.1481 27.0392 -33.1970 -0.479 -0.686 0.547 124 53 64 0
-19.0072 27.2863 -33.2899 -0.331 -0.567 0.754 122 50 61 0
-15.9572 24.2664 -33.0481 -0.286 -0.746 0.601 120 38 50 0
-15.0651 24.7488 -33.3450 0.543 -0.748 -0.382 120 36 49 0
-11.1637 23.4452 -33.7245 0.332 -0.769 -0.546 121 29 45 0
-11.0594 23.9034 -33.8673 0.557 -0.684 -0.472 121 28 46 0
-10.7724 23.4719 -33.8049 0.759 -0.650 -0.039 125 31 49 0
-10.1448 22.3155 -33.6112 -0.533 -0.808 0.253 123 30 50 0
-2.3915 22.5006 -35.1124 -0.126 -0.986 -0.108 102 25 45 0
-0.5551 25.2308 -36.1910 0.455 -0.880 0.133 81 17 31 0
-0.2775 26.3994 -36.5574 0.367 -0.423 0.828 77 16 31 0
0.2022 25.5587 -36.4210 0.322 -0.525 0.787 73 14 26 0
0.4105 25.4453 -36.4295 0.317 -0.872 0.374 70 12 24 0
0.6068 25.4571 -36.4694 0.349 -0.864 0.364 66 11 22 0
0.7352 26.2149 -36.6974 0.126 -0.777 0.617 65 13 22 0
0.9358 26.1922 -36.7288 -0.168 -0.798 0.579 65 14 23 0
1.1406 26.1199 -36.7477 -0.091 -0.959 -0.267 65 14 23 0
1.5178 26.3499 -36.8802 0.473 -0.660 -0.584 60 10 21 0
1.7487 25.9532 -36.8167 0.769 -0.606 0.204 60 10 21 0
3.5675 31.6954 -38.7024 -0.137 -0.636 -0.760 57 12 17 0
3.7879 31.4764 -38.6848 0.003 -0.602 -0.799 57 13 18 0
7.7491 38.5916 -41.3411 0.953 -0.209 -0.221 63 59 31 0
7.7982 46.7072 -43.5344 0.791 -0.506 0.343 59 62 31 0
8.0295 46.7960 -43.6016 0.426 -0.587 0.689 56 66 33 0
8.2627 46.7888 -43.6433 -0.391 -0.550 0.738 60 76 40 0
12.3268 55.2659 -46.6854 -0.047 -0.543 0.839 80 119 70 0
15.4186 46.2183 -44.8293 -0.093 -0.943 -0.319 195 190 150 0
15.7610 43.5100 -44.1646 0.394 -0.813 -0.429 199 191 158 0
22.8248 30.9989 -42.1200 0.743 -0.599 0.297 192 182 170 0
22.9450 30.3027 -41.9551 0.667 -0.741 0.080 192 182 169 0
25.4631 39.4390 -44.8853 0.972 -0.221 0.080 190 181 168 0
28.1281 24.9772 -41.4922 -0.504 -0.859 0.088 185 175 164 0
41.4466 42.1246 -48.6001 -0.657 -0.753 -0.033 177 164 155 0
41.8060 42.7084 -48.8245 -0.242 -0.916 0.319 176 163 153 0
-26.5119 39.2341 -35.3451 -0.312 -0.947 -0.076 155 114 116 0
-26.2411 39.1126 -35.3628 -0.491 -0.869 0.053 147 102 107 0
-26.1135 39.4601 -35.4809 -0.240 -0.964 0.116 146 95 100 0
-19.4738 27.2756 -33.4193 -0.429 -0.836 0.342 120 51 61 0
-19.1633 26.9062 -33.3772 -0.479 -0.686 0.547 125 54 65 0
-18.9945 27.0503 -33.4478 -0.336 -0.562 0.756 124 51 62 0
-17.2455 25.1372 -33.2563 -0.353 -0.503 0.789 127 46 57 0
-13.3703 25.9954 -34.2135 -0.168 -0.901 -0.400 121 30 44 0
-13.1295 25.8295 -34.2135 -0.302 -0.813 -0.498 122 31 45 0
-12.7070 25.7596 -34.2736 -0.496 -0.722 -0.482 121 33 46 0
-11.3868 23.3415 -33.8649 0.465 -0.799 -0.381 121 30 44 0
-11.1738 23.2713 -33.8857 0.511 -0.792 -0.336 121 30 45 0
-10.7964 24.3452 -34.2474 0.595 -0.670 -0.444 122 28 45 0
-5.1138 24.9201 -35.4658 0.229 -0.449 -0.864 127 43 68 0
-1.6215 27.3334 -36.7730 0.374 -0.652 -0.660 87 17 35 0
-0.6109 25.3728 -36.4305 0.086 -0.996 -0.000 81 17 31 0
0.0561 26.6468 -36.9006 0.902 -0.411 -0.131 72 13 26 0
0.4900 26.2765 -36.8813 -0.456 -0.687 0.566 66 11 21 0
0.6873 26.2938 -36.9229 -0.042 -0.726 0.686 65 13 22 0
1.0771 26.3840 -37.0202 0.012 -0.864 -0.503 67 16 25 0
4.2121 27.0216 -37.7793 0.957 -0.279 -0.083 56 14 17 0
4.3488 28.1279 -38.1047 0.921 -0.362 -0.143 55 13 16 0
5.2410 30.4845 -38.9104 0.758 -0.332 0.562 56 16 18 0
7.7027 38.8241 -41.6315 0.952 -0.207 -0.226 63 58 30 0
7.7608 46.4109 -43.6990 0.497 -0.687 0.530 59 63 31 0
7.9888 46.6453 -43.8052 0.361 -0.595 0.718 58 68 34 0
15.7573 44.3316 -44.6306 0.874 -0.486 0.021 201 191 141 0
17.3227 44.1199 -44.8659 0.362 -0.783 0.506 197 188 158 0
19.6882 42.7851 -44.9463 0.063 -0.910 0.410 196 187 172 0
24.3327 35.5857 -43.8631 0.952 -0.297 0.074 189 179 167 0
28.1075 25.0099 -41.7019 -0.499 -0.864 0.065 184 174 164 0
28.4514 24.8512 -41.7232 -0.440 -0.793 0.422 183 173 163 0
40.0382 48.1018 -50.1927 0.896 -0.426 -0.124 179 168 153 0
40.5889 49.5199 -50.6801 0.891 -0.454 -0.005 180 169 154 0
42.0018 52.6406 -51.7903 0.696 -0.568 -0.439 177 167 152 0
40.9428 41.0558 -48.4518 -0.413 -0.891 -0.187 176 162 153 0
41.4283 42.1511 -48.8395 -0.657 -0.753 -0.033 176 162 153 0
41.9028 43.1886 -49.2094 -0.608 -0.794 0.005 175 162 152 0
41.9431 42.5121 -49.0336 -0.568 -0.821 -0.060 174 162 150 0
42.1311 42.4193 -49.0436 -0.286 -0.929 0.233 174 161 149 0
46.5085 50.6794 -52.1013 0.943 -0.280 0.180 171 157 145 0
-26.1166 39.2744 -35.6749 -0.350 -0.930 -0.109 148 97 102 0
-23.0157 31.2401 -34.0602 0.232 -0.474 0.849 133 78 84 0
-17.2231 24.8608 -33.4000 -0.537 -0.586 0.607 128 46 56 0
-17.0312 24.9062 -33.4483 -0.603 -0.731 0.318 122 40 53 0
-13.2198 26.0199 -34.4642 -0.224 -0.562 0.796 123 34 46 0
-12.9996 25.9471 -34.4855 0.277 -0.746 0.605 124 36 48 0
-12.3325 25.6876 -34.5392 -0.797 -0.307 0.519 118 30 41 0
-10.8744 24.5018 -34.4877 0.597 -0.669 -0.443 121 29 44 0
-10.1363 21.8219 -33.8938 -0.196 -0.854 0.481 118 25 43 0
-9.8483 21.3557 -33.8203 0.018 -0.782 0.623 118 25 45 0
-8.4228 23.1178 -34.5677 -0.006 -0.998 -0.061 130 33 51 0
-8.2261 23.1188 -34.6047 -0.006 -0.998 -0.061 131 33 51 0
-7.1289 24.7929 -35.2667 0.847 -0.530 -0.044 127 30 47 0
-1.6905 27.5716 -37.0412 0.370 -0.655 -0.659 87 16 34 0
-0.6337 25.1977 -36.5903 0.049 -0.998 -0.044 81 17 31 0
-0.3949 24.7956 -36.5252 0.269 -0.935 -0.230 80 17 31 0
0.4666 26.0898 -37.0394 -0.256 -0.726 0.639 67 12 22 0
0.6738 25.9973 -37.0529 -0.013 -0.696 0.718 66 14 24 0
1.5482 27.4154 -37.6034 0.544 -0.573 -0.613 63 13 24 0
2.0946 28.1353 -37.9020 -0.185 -0.791 -0.583 62 12 23 0
4.4494 29.2426 -38.6442 0.681 -0.702 0.211 55 15 16 0
4.8404 29.5257 -38.7945 0.847 -0.523 0.093 57 17 17 0
5.1951 30.6168 -39.1587 0.839 -0.496 0.224 57 18 19 0
6.6051 31.2871 -39.6051 0.937 -0.279 0.212 66 38 29 0
7.6685 38.5248 -41.7800 0.949 -0.221 -0.225 62 58 29 0
7.7180 46.3708 -43.9317 0.389 -0.603 0.697 59 62 30 0
7.9493 46.4396 -43.9937 0.365 -0.599 0.713 58 69 34 0
8.6242 48.0434 -44.5577 0.581 -0.574 0.577 59 87 44 0
12.7414 55.8076 -47.4467 0.812 -0.056 0.581 96 120 62 0
13.0094 56.8980 -47.7945 0.756 -0.012 0.654 101 123 63 0
17.2100 42.7507 -44.7160 0.322 -0.909 0.265 199 186 147 0
17.4173 42.4860 -44.6824 0.004 -0.937 0.349 198 185 150 0
17.6385 42.4790 -44.7218 -0.400 -0.769 0.499 199 187 156 0
17.8530 42.3621 -44.7299 -0.400 -0.769 0.499 198 187 160 0
19.8960 43.0840 -45.3086 0.130 -0.677 0.724 194 187 170 0
22.3019 30.3973 -42.2937 0.697 -0.565 0.441 192 182 170 0
23.3050 32.2704 -42.9925 0.495 -0.786 0.371 189 181 171 0
35.4144 38.9172 -47.0691 -0.520 -0.656 -0.547 181 169 157 0
39.0404 44.8180 -49.3576 0.942 -0.337 -0.000 179 170 153 0
40.5507 49.4751 -50.9113 0.889 -0.458 0.004 178 169 154 0
41.8297 52.0312 -51.8481 0.852 -0.524 0.006 177 168 153 0
42.2394 52.7894 -52.1317 0.833 -0.548 -0.078 174 167 151 0
41.4495 42.3349 -49.1294 -0.671 -0.742 0.018 176 162 152 0
-49.0604 14.0571 -24.7044 -0.532 -0.630 0.566 232 224 216 0
-26.3681 39.1372 -35.8354 -0.330 -0.943 -0.051 150 105 110 0
-25.9595 38.5638 -35.7539 -0.307 -0.834 -0.458 149 99 104 0
-23.0424 31.1442 -34.2574 0.092 -0.564 0.821 134 78 84 0
-23.0785 31.9978 -34.4855 -0.354 -0.447 0.821 133 76 83 0
-17.2814 24.8923 -33.6126 -0.555 -0.792 0.255 127 47 57 0
-13.4832 26.0683 -34.6446 -0.296 -0.357 0.886 123 37 49 0
-13.0043 25.7499 -34.6464 0.247 -0.759 0.603 124 37 49 0
-12.3801 25.6877 -34.7457 -0.761 -0.277 0.587 118 30 41 0
-10.9754 21.8783 -33.9600 -0.426 -0.861 -0.279 119 31 44 0
-10.7305 21.6411 -33.9404 -0.412 -0.858 -0.309 122 32 48 0
-8.5343 23.4849 -34.8572 -0.260 -0.956 0.138 131 34 51 0
-7.0591 25.3094 -35.6342 0.760 -0.604 0.240 129 33 49 0
-6.4435 22.7653 -35.0493 0.053 -0.952 -0.301 125 31 47 0
-1.6700 27.0119 -37.1078 0.848 -0.512 -0.133 89 18 36 0
-1.3151 25.6228 -36.7919 0.341 -0.884 -0.321 87 18 34 0
-0.6765 25.2141 -36.7987 -0.005 -0.957 0.290 82 18 32 0
0.6879 25.4014 -37.1047 0.192 -0.567 0.801 66 13 23 0
0.8831 25.4262 -37.1479 0.193 -0.573 0.797 66 15 24 0
1.0271 26.0301 -37.3409 -0.623 -0.618 -0.479 65 14 23 0
2.0469 28.2271 -38.1354 -0.128 -0.989 -0.081 63 13 22 0
4.2283 28.8614 -38.7168 0.719 -0.681 0.137 55 13 15 0
4.4252 28.9594 -38.7804 0.721 -0.665 0.195 55 14 15 0
5.1759 30.1842 -39.2573 0.849 -0.528 -0.015 57 19 19 0
6.0069 29.8265 -39.3140 -0.090 -0.462 0.882 58 28 20 0
7.9029 46.5771 -44.2747 -0.505 -0.767 0.396 60 73 37 0
8.5793 48.1149 -44.8239 0.522 -0.462 0.717 57 86 42 0
11.6765 52.7375 -46.6730 0.676 -0.616 0.405 83 114 55 0
17.1828 42.9403 -45.0056 0.292 -0.933 0.210 196 180 120 0
17.3813 42.5098 -44.9242 0.225 -0.960 0.166 198 182 128 0
17.6033 42.5145 -44.9669 0.230 -0.962 0.149 199 184 137 0
17.8384 42.7373 -45.0720 -0.253 -0.885 0.392 200 186 145 0
18.8377 41.1384 -44.8187 0.097 -0.970 0.225 194 188 166 0
23.1661 20.2512 -39.8813 -0.024 -1.000 0.014 187 177 165 0
29.1067 36.2750 -45.3967 -0.278 -0.937 -0.210 185 175 163 0
29.4841 37.3409 -45.7602 -0.035 -0.999 -0.034 185 175 163 0
46.6777 49.0472 -52.1873 0.935 -0.354 -0.014 170 155 142 0
44.1746 39.3379 -49.0499 -0.402 -0.848 0.346 169 153 140 0
-49.0078 13.8702 -24.8630 -0.532 -0.630 0.566 233 226 218 0
-32.7502 46.7202 -36.9921 0.124 -0.963 -0.240 234 226 216 0
-28.0898 39.2090 -35.7797 -0.434 -0.866 -0.249 228 219 205 0
-27.8672 39.2466 -35.8316 -0.363 -0.866 -0.344 225 216 200 0
-26.6711 39.1675 -36.0326 -0.335 -0.937 -0.100 155 116 118 0
-26.4092 39.0765 -36.0562 -0.335 -0.937 -0.100 152 109 113 0
-26.0589 38.6948 -36.0157 -0.465 -0.826 -0.320 152 103 108 0
-22.9582 30.6789 -34.3729 -0.166 -0.986 -0.033 136 80 86 0
-22.8516 31.0491 -34.4953 -0.029 -0.656 0.754 136 80 86 0
-20.3109 27.4599 -33.9744 -0.508 -0.592 0.626 125 60 68 0
-19.1916 26.4464 -33.9022 -0.491 -0.582 0.648 119 49 60 0
-17.3551 24.9821 -33.8388 -0.560 -0.821 0.113 123 42 55 0
-12.9863 25.4508 -34.7826 -0.197 -0.379 0.904 123 35 49 0
-12.7631 25.3597 -34.7990 -0.196 -0.386 0.902 119 31 44 0
-12.5389 25.2615 -34.8136 -0.197 -0.381 0.903 118 30 43 0
-8.5352 23.2443 -35.0007 -0.184 -0.969 0.163 134 38 53 0
-7.9010 23.0045 -35.0525 -0.373 -0.928 -0.013 140 43 57 0
-7.4373 23.7409 -35.3429 -0.085 -0.976 0.202 125 29 43 0
-5.0761 23.7881 -35.7959 -0.020 -0.991 -0.134 124 40 65 0
-1.8216 24.4930 -36.5975 0.633 -0.706 -0.316 86 16 31 0
-1.7394 27.2524 -37.3773 0.880 -0.464 -0.101 85 15 33 0
-1.4972 26.8887 -37.3216 -0.190 -0.894 -0.407 82 15 30 0
-0.3249 25.2396 -37.0833 -0.088 -0.763 0.640 74 13 27 0
0.6589 25.2767 -37.2768 0.181 -0.774 0.607 66 13 22 0
0.8518 25.3253 -37.3262 0.463 -0.813 0.354 65 13 23 0
0.9696 26.2223 -37.5967 -0.618 -0.615 -0.489 62 11 20 0
1.1898 25.9768 -37.5697 -0.614 -0.623 -0.485 60 9 19 0
3.2944 33.4328 -40.0272 0.064 -0.622 -0.781 57 12 15 0
4.1964 28.7255 -38.8913 0.697 -0.689 0.197 56 13 16 0
4.5825 29.0632 -39.0568 0.909 -0.415 0.031 56 15 18 0
4.9543 29.7307 -39.3110 0.852 -0.523 -0.003 58 18 21 0
5.7233 30.7936 -39.7487 -0.123 -0.982 -0.141 55 24 17 0
5.9220 30.9549 -39.8304 -0.136 -0.951 -0.276 58 28 18 0
8.0766 47.4260 -44.7946 0.645 -0.487 0.589 57 78 37 0
11.6316 52.6089 -46.8927 0.680 -0.612 0.404 104 120 50 0
17.1292 42.6449 -45.1569 0.197 -0.937 0.288 199 179 103 0
17.3390 42.4216 -45.1341 0.269 -0.940 0.209 197 178 107 0
17.5602 42.4119 -45.1726 -0.011 -0.982 -0.187 195 177 113 0
17.7821 42.4175 -45.2156 -0.011 -0.982 -0.187 194 177 120 0
18.8106 41.2705 -45.0894 -0.493 -0.864 -0.103 197 188 158 0
25.2921 46.3919 -47.7158 -0.380 -0.854 0.355 188 178 166 0
28.7920 35.7697 -45.4254 -0.211 -0.948 -0.236 184 174 162 0
29.0659 36.2027 -45.5964 -0.203 -0.966 -0.162 183 173 161 0
29.3078 36.4280 -45.7039 -0.212 -0.977 -0.036 183 173 161 0
39.4705 48.9297 -51.0606 0.613 -0.682 -0.399 179 169 154 0
41.6079 42.3210 -49.6281 -0.695 -0.719 -0.030 176 163 151 0
42.2396 43.1320 -49.9705 -0.680 -0.715 -0.163 175 161 150 0
43.4304 35.3493 -48.0364 0.536 -0.813 0.227 168 151 139 0
48.1663 43.7961 -51.2587 0.203 -0.938 -0.281 255 255 254 0
-30.0439 44.3333 -37.0916 0.745 -0.482 -0.462 228 220 209 0
-26.7064 39.0880 -36.2493 -0.247 -0.960 -0.131 155 120 120 0
-26.4856 39.1302 -36.3022 -0.335 -0.937 -0.100 151 110 114 0
-26.2136 39.0057 -36.3181 -0.374 -0.908 -0.189 153 105 109 0
-22.8881 30.9863 -34.6996 -0.219 -0.938 0.268 137 82 87 0
-21.3233 28.5931 -34.3231 -0.253 -0.859 -0.446 128 66 74 0
-21.0203 28.2793 -34.2920 -0.285 -0.849 -0.445 128 65 73 0
-20.8981 28.5918 -34.4019 -0.276 -0.884 -0.376 125 59 68 0
-20.3495 28.9057 -34.5916 0.066 -0.802 -0.594 122 54 64 0
-19.3609 26.8715 -34.2080 -0.680 -0.728 0.085 125 56 66 0
-17.6309 25.0622 -34.0252 -0.537 -0.835 0.122 121 41 54 0
-17.3847 24.9037 -34.0268 -0.537 -0.835 0.122 124 43 56 0
-17.2806 25.2865 -34.1530 -0.302 -0.888 -0.346 124 42 56 0
-12.5195 24.9532 -34.9461 0.117 -0.301 0.946 118 30 44 0
-8.5753 23.2191 -35.1963 -0.184 -0.969 0.163 136 41 55 0
-8.3724 23.1886 -35.2255 -0.267 -0.956 0.123 153 57 71 0
-7.9485 23.0226 -35.2581 -0.345 -0.938 -0.015 146 51 65 0
-7.5330 24.0402 -35.6194 0.041 -0.971 -0.234 124 29 43 0
-5.1408 23.9336 -36.0348 0.005 -0.989 -0.145 121 36 61 0
-4.9251 23.8084 -36.0400 0.402 -0.913 0.068 127 43 67 0
-2.0786 23.0124 -36.3477 0.180 -0.942 -0.284 94 19 34 0
-0.3879 25.4559 -37.3441 -0.229 -0.942 0.244 75 14 26 0
-0.1583 25.1409 -37.2989 -0.195 -0.888 0.415 72 14 26 0
0.3114 24.3653 -37.1699 0.001 -0.835 0.550 72 15 24 0
0.6333 25.1165 -37.4394 0.441 -0.823 0.358 65 11 21 0
0.8251 25.1754 -37.4915 0.532 -0.776 0.339 64 11 21 0
4.3653 28.6103 -39.1087 0.698 -0.572 0.432 56 13 18 0
4.5427 29.0653 -39.2687 0.906 -0.423 -0.023 57 15 20 0
4.7069 29.8057 -39.5058 0.858 -0.514 0.026 58 16 21 0
5.0917 30.2835 -39.7107 0.439 -0.732 -0.521 58 19 22 0
5.2886 30.4509 -39.7940 0.085 -0.986 -0.143 57 20 21 0
5.4468 31.4992 -40.1159 -0.319 -0.933 -0.166 57 22 20 0
5.6844 30.7766 -39.9586 -0.109 -0.980 -0.163 57 26 19 0
5.8796 31.0248 -40.0641 -0.133 -0.945 -0.300 60 31 21 0
6.3642 34.7608 -41.1967 0.776 -0.491 0.395 69 42 22 0
6.7651 35.5086 -41.4799 0.733 -0.516 0.444 74 52 27 0
7.1863 35.7129 -41.6153 0.819 -0.551 0.162 78 63 32 0
7.3914 36.0438 -41.7457 0.836 -0.533 0.133 71 62 30 0
7.3392 46.9661 -44.7833 0.871 -0.440 0.219 62 62 28 0
8.2216 50.1127 -45.8254 0.274 -0.564 0.779 57 83 41 0
17.1025 42.8475 -45.4512 0.248 -0.887 0.391 203 182 91 0
19.0077 41.4725 -45.4222 -0.082 -0.919 -0.386 194 184 152 0
32.0317 25.7059 -43.4472 0.920 -0.335 -0.205 179 169 157 0
39.3978 48.7305 -51.2418 0.666 -0.722 -0.187 179 168 154 0
47.4067 56.9267 -55.0190 0.597 -0.792 0.131 174 158 146 0
43.6110 36.7717 -48.6895 0.331 -0.711 0.621 170 153 141 0
-28.5673 37.4382 -35.6855 -0.434 -0.512 0.741 231 222 213 0
-26.3074 39.1167 -36.5772 -0.340 -0.921 -0.191 152 107 111 0
-20.9905 27.9917 -34.4397 -0.641 -0.767 -0.029 128 67 75 0
-20.5783 27.2924 -34.3198 -0.607 -0.794 0.004 126 60 70 0
-20.1522 28.7710 -34.8144 -0.382 -0.723 -0.576 122 54 65 0
-15.0395 24.2720 -34.5007 -0.325 -0.945 -0.019 121 33 47 0
-13.4756 23.6134 -34.6064 -0.552 -0.828 -0.101 119 30 47 0
-10.7801 24.1094 -35.2468 0.279 -0.915 0.291 117 29 45 0
-10.5668 24.0437 -35.2680 0.217 -0.937 0.273 119 29 46 0
-8.6083 23.1544 -35.3822 -0.176 -0.975 0.135 133 39 51 0
-8.4071 23.1337 -35.4137 -0.176 -0.971 0.160 150 55 66 0
-8.2064 23.1146 -35.4457 -0.286 -0.953 0.098 160 64 76 0
-7.9948 23.0333 -35.4622 -0.283 -0.951 0.124 144 49 61 0
-7.5712 24.0037 -35.8136 0.081 -0.902 -0.425 127 30 45 0
-6.6003 22.9250 -35.6910 0.289 -0.873 -0.393 125 36 50 0
-6.4068 22.9415 -35.7316 0.182 -0.936 -0.301 126 36 52 0
-2.6125 25.4366 -37.1379 -0.525 -0.839 0.140 97 20 36 0
-2.3091 24.5751 -36.9523 -0.507 -0.840 0.192 95 20 37 0
-2.0966 24.4489 -36.9563 -0.028 -0.877 0.479 93 20 37 0
-1.7770 25.0934 -37.1968 -0.168 -0.967 0.192 86 15 31 0
0.2863 24.2080 -37.3316 -0.129 -0.893 0.432 71 13 22 0
1.1180 25.8729 -37.9540 -0.137 -0.913 -0.385 63 9 21 0
1.3171 25.8643 -37.9885 -0.135 -0.913 -0.384 61 9 21 0
2.5235 28.3373 -38.9076 -0.345 -0.842 0.416 62 13 22 0
3.3637 34.3814 -40.7621 0.085 -0.605 -0.792 55 10 13 0
5.0614 30.0895 -39.8717 0.545 -0.724 0.422 59 19 22 0
5.2616 30.1797 -39.9343 0.304 -0.776 0.553 58 21 21 0
5.6574 30.4847 -40.0935 -0.118 -0.927 0.355 58 28 18 0
5.8651 30.4157 -40.1128 -0.077 -0.934 0.349 61 32 20 0
6.3260 34.6933 -41.4003 0.767 -0.503 0.397 70 43 21 0
6.5228 35.1522 -41.5658 0.710 -0.517 0.478 73 48 24 0
6.7259 35.4615 -41.6905 0.710 -0.539 0.454 76 54 29 0
7.1474 35.6585 -41.8242 0.830 -0.543 0.126 76 61 30 0
7.2994 46.7896 -44.9800 0.871 -0.440 0.219 61 62 27 0
7.5292 46.9703 -45.0735 0.863 -0.471 0.182 60 70 34 0
7.9641 48.7115 -45.6436 0.819 -0.429 0.380 58 80 41 0
8.4253 49.5545 -45.9662 0.296 -0.580 0.759 57 84 39 0
8.8346 55.2344 -47.6381 0.555 -0.420 0.718 62 88 46 0
13.2776 54.3046 -48.2028 0.652 0.022 0.758 195 174 67 0
14.5440 40.9521 -44.6865 -0.318 -0.916 -0.245 206 185 66 0
14.7536 40.6480 -44.6400 0.198 -0.873 -0.446 206 187 68 0
14.9756 40.7082 -44.6982 0.217 -0.868 -0.448 208 189 71 0
15.2046 40.9429 -44.8067 -0.150 -0.941 -0.303 209 188 71 0
15.4219 40.8738 -44.8277 -0.152 -0.945 -0.290 210 186 71 0
15.9884 43.7285 -45.7351 0.373 -0.868 -0.329 209 186 75 0
16.2725 45.0081 -46.1474 0.078 -0.912 -0.403 208 186 76 0
20.2428 43.6906 -46.5153 0.454 -0.851 0.263 193 185 162 0
20.4734 43.7843 -46.5844 0.431 -0.835 0.342 193 185 163 0
20.7025 43.8561 -46.6472 0.458 -0.836 0.302 193 185 165 0
21.5931 39.0414 -45.4599 0.298 -0.819 0.491 192 183 168 0
21.8718 39.7244 -45.7037 0.366 -0.771 0.520 193 183 171 0
22.0433 39.2713 -45.6082 0.120 -0.736 0.666 193 183 171 0
29.8648 56.9348 -52.0251 -0.192 -0.897 0.398 187 177 165 0
32.0524 25.9284 -43.7197 0.920 -0.336 -0.202 177 168 155 0
40.8574 46.5068 -51.1384 0.444 -0.511 -0.736 179 166 157 0
39.6504 38.8556 -48.7643 0.408 -0.287 0.867 174 165 149 0
43.3590 35.2513 -48.4410 0.337 -0.833 0.440 170 152 142 0
47.4592 48.9299 -53.0464 0.223 -0.885 -0.409 170 150 143 0
-21.9404 28.8778 -34.7366 0.317 -0.804 0.503 133 74 81 0
-20.2837 26.8115 -34.4595 -0.014 -0.943 -0.334 124 59 67 0
-14.1026 21.8426 -34.2011 -0.270 -0.401 0.875 118 32 45 0
-13.8504 24.1605 -34.9038 0.622 -0.777 -0.095 118 30 46 0
-11.1972 24.9423 -35.6177 0.452 -0.729 -0.513 118 29 45 0
-10.8437 24.1948 -35.4718 0.215 -0.947 0.240 117 29 45 0
-9.0657 23.2470 -35.5337 -0.100 -0.844 0.526 125 33 48 0
-8.6494 23.1346 -35.5792 -0.176 -0.975 0.135 128 34 46 0
-8.4489 23.1174 -35.6116 -0.185 -0.971 0.151 137 41 53 0
-8.0389 23.0313 -35.6633 -0.185 -0.971 0.151 131 36 47 0
-7.6307 24.0904 -36.0388 0.082 -0.904 -0.419 123 27 43 0
-7.4673 24.2979 -36.1278 -0.659 -0.752 -0.021 122 28 44 0
-2.8508 25.4099 -37.2996 -0.372 -0.837 0.402 98 20 36 0
-2.0636 23.8245 -36.9971 0.079 -0.927 0.367 91 18 35 0
-1.8067 23.3070 -36.8984 0.327 -0.916 -0.233 87 16 32 0
-1.6211 23.3878 -36.9557 0.327 -0.916 -0.233 85 14 30 0
-1.6154 25.0484 -37.4267 -0.248 -0.836 0.490 82 14 27 0
0.2597 24.0663 -37.4969 -0.021 -0.877 0.481 68 12 21 0
0.8900 25.7500 -38.0904 0.763 -0.347 0.545 62 9 18 0
5.2237 30.1408 -40.1374 0.302 -0.776 0.554 58 22 21 0
5.4167 30.3969 -40.2456 -0.346 -0.885 0.312 58 25 20 0
5.6289 30.2293 -40.2376 -0.161 -0.903 0.398 58 28 19 0
5.8276 30.3696 -40.3142 0.300 -0.929 0.216 62 32 20 0
7.2568 46.7276 -45.2082 0.220 -0.476 0.852 62 64 27 0
7.5031 46.2002 -45.1046 0.361 -0.404 0.841 61 71 33 0
7.9177 48.8101 -45.9201 0.848 -0.419 0.326 57 79 37 0
8.1408 49.6267 -46.1926 0.597 -0.585 0.549 56 83 38 0
8.5487 54.5806 -47.6701 0.630 -0.683 0.369 59 86 41 0
8.7956 54.6549 -47.7369 0.621 -0.689 0.373 62 90 44 0
15.7964 40.2495 -44.9606 0.108 -0.949 -0.297 208 187 73 0
17.1874 41.7057 -45.6310 -0.157 -0.741 -0.653 202 180 80 0
17.7786 44.2620 -46.4640 -0.348 -0.866 -0.360 197 177 84 0
19.9332 43.0373 -46.5175 0.262 -0.947 -0.184 194 183 154 0
20.1751 43.2899 -46.6339 0.167 -0.932 0.323 193 184 159 0
20.4144 43.4998 -46.7377 -0.142 -0.713 0.687 191 184 160 0
21.5330 38.7609 -45.6045 0.341 -0.744 0.575 192 182 166 0
21.7638 38.9420 -45.6986 0.258 -0.812 0.524 192 182 168 0
21.9426 38.5767 -45.6284 0.331 -0.767 0.549 191 182 168 0
30.0653 55.1961 -51.8391 0.435 -0.668 0.604 185 177 164 0
31.6940 18.2992 -41.7013 0.940 -0.306 0.151 179 170 155 0
47.4111 48.8466 -53.2630 0.448 -0.664 -0.598 166 148 139 0
-28.2834 39.7849 -36.8929 0.134 -0.971 -0.197 225 215 202 0
-27.8977 40.0573 -37.0421 -0.256 -0.951 0.176 224 211 202 0
-27.6754 40.1022 -37.0961 -0.104 -0.977 0.184 223 207 199 0
-27.3830 39.9237 -37.0995 -0.116 -0.967 0.228 198 176 170 0
-27.1794 40.0277 -37.1668 0.587 -0.671 0.453 157 128 124 0
-19.8773 25.9326 -34.5047 -0.462 -0.881 0.103 122 57 65 0
-17.1369 23.3989 -34.2910 0.209 -0.968 0.141 127 50 62 0
-15.3960 24.5027 -34.9283 -0.246 -0.934 -0.258 117 34 48 0
-14.7343 23.4428 -34.7490 -0.081 -0.690 0.719 118 34 47 0
-10.0245 22.8559 -35.4552 0.676 -0.707 0.207 117 30 46 0
-9.1466 23.4370 -35.7836 -0.340 -0.930 0.140 124 32 48 0
-8.3655 23.5018 -35.9469 0.295 -0.890 0.347 128 32 46 0
-8.1722 23.5288 -35.9904 0.282 -0.890 0.358 123 28 42 0
-8.0267 23.8266 -36.1022 0.451 -0.880 -0.146 121 28 41 0
-7.6499 23.9434 -36.2054 0.070 -0.996 0.051 122 26 42 0
-6.9933 23.5784 -36.2232 -0.080 -0.996 0.034 129 38 53 0
-6.6815 22.8883 -36.0843 0.771 -0.633 -0.071 129 41 55 0
-2.0721 23.5495 -37.1275 0.054 -0.974 -0.222 89 16 33 0
-2.0747 25.2261 -37.6048 0.039 -0.837 0.546 86 15 31 0
0.1989 24.2758 -37.7556 0.342 -0.754 0.561 65 10 18 0
0.3876 24.3515 -37.8122 0.331 -0.753 0.569 64 11 19 0
0.5855 24.3320 -37.8433 0.374 -0.695 0.614 64 12 19 0
0.8664 25.5629 -38.2462 -0.121 -0.869 -0.479 62 10 17 0
3.5714 29.6964 -39.9256 0.030 -0.995 -0.096 60 15 17 0
3.4022 35.8776 -41.6555 0.056 -0.517 -0.854 57 13 15 0
5.7894 30.3400 -40.5203 0.152 -0.987 -0.057 62 33 19 0
7.0104 45.5572 -45.0827 0.503 -0.386 0.773 66 60 27 0
7.2364 45.7961 -45.1927 0.450 -0.448 0.772 64 67 30 0
7.8673 49.1088 -46.2536 0.540 -0.835 -0.111 58 79 37 0
8.0966 49.5974 -46.4353 0.516 -0.856 -0.037 57 83 37 0
8.2794 53.0565 -47.4549 0.627 -0.715 -0.309 60 89 42 0
15.4071 42.3924 -45.7380 0.127 -0.882 -0.455 210 188 68 0
19.9059 43.1551 -46.7896 0.257 -0.948 -0.187 192 179 141 0
20.1400 43.3047 -46.8757 0.171 -0.981 -0.094 193 183 151 0
20.3662 43.3494 -46.9304 0.171 -0.981 -0.094 193 186 156 0
33.5623 31.7051 -46.0596 0.714 -0.534 -0.454 178 167 155 0
39.2897 44.7157 -50.8289 0.638 -0.768 -0.062 183 169 155 0
38.7920 30.0379 -46.5543 -0.712 -0.665 0.225 176 162 151 0
49.1410 58.3525 -56.5414 0.893 -0.414 -0.174 170 156 143 0
-28.3573 39.8244 -37.1386 0.134 -0.971 -0.197 225 215 202 0
-27.9460 40.0172 -37.2701 -0.265 -0.949 0.168 224 211 202 0
-27.7227 40.0589 -37.3234 -0.120 -0.971 0.209 225 211 202 0
-27.4288 39.8759 -37.3253 -0.116 -0.967 0.228 208 187 180 0
-27.1936 39.8785 -37.3697 0.587 -0.671 0.453 167 139 134 0
-17.2747 22.9737 -34.3565 0.162 -0.951 0.263 125 49 58 0
-16.5736 23.3674 -34.5993 -0.039 -0.943 0.330 122 41 51 0
-16.8195 25.1041 -35.0520 -0.208 -0.960 -0.189 120 39 50 0
-14.1623 25.0887 -35.5398 0.291 -0.954 -0.068 118 31 47 0
-14.1305 25.8334 -35.7593 0.005 -0.176 0.984 118 31 47 0
-8.2486 23.7058 -36.2383 0.457 -0.881 -0.125 124 29 43 0
-8.0683 23.8084 -36.3012 0.457 -0.881 -0.125 121 28 43 0
-7.6928 23.9336 -36.4067 0.063 -0.995 0.077 124 28 45 0
-4.0529 21.9993 -36.5258 0.126 -0.912 0.390 110 33 51 0
-3.9000 22.2923 -36.6382 0.074 -0.899 0.431 109 32 50 0
-3.6777 22.0876 -36.6207 0.163 -0.916 0.367 105 28 45 0
-3.4858 22.1003 -36.6599 0.195 -0.900 0.390 101 23 39 0
-2.7563 25.5707 -37.7907 -0.343 -0.886 0.312 94 18 36 0
-2.3852 24.1695 -37.4574 -0.543 -0.828 0.139 92 19 36 0
-2.1382 23.7544 -37.3841 0.093 -0.995 0.046 89 16 32 0
-2.0948 25.0419 -37.7615 0.037 -0.848 0.529 85 14 30 0
-0.6514 24.5098 -37.8762 -0.255 -0.858 0.446 69 8 20 0
3.5481 29.4231 -40.0638 0.248 -0.953 0.174 59 15 16 0
4.0031 28.6283 -39.9200 0.958 -0.282 -0.045 58 15 16 0
5.7873 29.4574 -40.4884 -0.296 -0.935 -0.196 63 35 19 0
6.9745 45.2658 -45.2441 0.433 -0.469 0.770 64 60 26 0
7.1982 45.5738 -45.3739 0.192 -0.542 0.818 64 68 31 0
9.6769 57.9449 -49.3826 0.953 -0.261 0.157 119 123 53 0
9.9274 58.7844 -49.6699 0.951 -0.255 0.176 147 145 68 0
15.4421 44.2351 -46.5168 -0.062 -0.775 -0.629 211 192 64 0
18.6638 41.7887 -46.4116 -0.322 -0.938 -0.127 187 168 81 0
19.7006 46.9769 -48.0922 -0.001 -0.993 -0.115 180 163 91 0
19.8732 43.2042 -47.0417 0.127 -0.960 -0.251 182 167 113 0
20.1071 43.3478 -47.1262 0.039 -0.996 -0.081 186 173 128 0
20.3309 43.3602 -47.1713 0.039 -0.996 -0.081 192 182 143 0
20.5521 43.3413 -47.2068 0.180 -0.983 -0.016 195 186 152 0
21.4859 38.9890 -46.1310 0.126 -0.772 0.623 193 183 165 0
39.1765 44.3401 -50.9431 0.684 -0.728 -0.037 182 168 154 0
42.1194 49.3075 -52.9134 0.730 -0.528 -0.434 180 168 153 0
41.3416 44.3339 -51.3423 -0.670 -0.720 -0.182 180 166 155 0
-28.8390 39.6624 -37.2510 0.280 -0.943 0.181 227 218 205 0
-28.8310 40.3668 -37.4560 0.266 -0.866 0.423 226 216 204 0
-28.3761 39.6925 -37.3453 0.251 -0.857 0.451 225 215 203 0
-28.0169 39.3084 -37.3008 0.196 -0.908 -0.369 225 213 203 0
-27.7823 40.0544 -37.5597 -0.103 -0.940 0.326 225 211 202 0
-27.4949 39.8929 -37.5662 -0.122 -0.943 0.310 217 197 190 0
-27.2077 39.7296 -37.5722 0.587 -0.671 0.453 176 149 145 0
-26.9140 39.5430 -37.5726 0.760 -0.576 0.301 158 123 121 0
-26.6905 39.5812 -37.6250 0.744 -0.613 0.264 158 116 117 0
-20.3847 26.6145 -35.0453 -0.576 -0.816 -0.045 126 61 69 0
-17.3535 23.0830 -34.5858 0.148 -0.989 -0.016 125 48 58 0
-17.0409 23.4236 -34.7420 0.146 -0.960 0.239 125 48 58 0
-16.8039 23.2891 -34.7470 0.443 -0.885 -0.142 126 46 57 0
-17.1234 25.2927 -35.2668 0.174 -0.979 -0.103 124 43 55 0
-16.8989 25.2180 -35.2867 0.066 -0.974 -0.215 122 40 53 0
-16.5658 25.5198 -35.4356 -0.335 -0.942 -0.024 119 37 51 0
-16.3452 25.4595 -35.4589 -0.348 -0.937 -0.014 116 35 49 0
-15.9242 25.4164 -35.5244 -0.090 -0.984 0.155 115 33 47 0
-14.0382 24.3473 -35.5644 0.469 -0.193 0.862 119 32 48 0
-10.0130 23.3400 -36.0181 0.780 -0.484 0.396 121 34 50 0
-8.6117 24.3648 -36.5734 0.399 -0.740 -0.541 123 29 45 0
-7.8877 24.7988 -36.8327 0.456 -0.665 -0.591 124 28 45 0
-7.0737 23.5319 -36.6173 0.219 -0.911 -0.349 121 30 45 0
-6.5491 23.9542 -36.8364 -0.218 -0.936 0.278 120 30 46 0
-2.8028 22.4879 -37.1058 0.653 -0.736 -0.180 95 20 38 0
-2.3177 24.8959 -37.8912 -0.200 -0.901 0.384 89 16 33 0
-2.1230 24.9264 -37.9361 0.043 -0.841 0.539 86 14 30 0
-1.9161 24.8530 -37.9531 -0.252 -0.847 0.469 83 12 26 0
-1.5039 24.7109 -37.9883 -0.465 -0.791 0.398 88 19 32 0
2.9255 28.9713 -40.0387 0.700 -0.455 0.551 61 15 17 0
3.1023 29.3736 -40.1876 0.704 -0.294 0.647 61 16 17 0
3.3056 29.3880 -40.2294 0.638 -0.467 0.612 59 14 16 0
5.5128 30.1718 -40.8642 -0.036 -0.999 -0.022 61 33 18 0
6.9083 46.0654 -45.7142 0.686 -0.358 0.633 64 61 26 0
8.4174 54.1147 -48.3190 0.850 -0.518 -0.095 62 89 41 0
9.3869 56.5803 -49.2107 0.914 -0.390 0.108 129 127 55 0
9.8818 58.5171 -49.8618 0.956 -0.234 0.175 160 150 64 0
18.6334 41.8822 -46.6748 -0.312 -0.941 -0.131 189 169 78 0
19.6189 43.2708 -47.2583 0.116 -0.964 -0.238 177 159 85 0
19.8449 43.3112 -47.3118 0.116 -0.964 -0.238 176 159 94 0
20.0759 43.4149 -47.3845 0.073 -0.991 -0.111 178 164 106 0
20.2961 43.3786 -47.4147 0.039 -0.996 -0.081 186 172 123 0
21.2344 43.9243 -47.7460 0.330 -0.942 -0.067 195 183 161 0
21.5406 42.3603 -47.3508 0.162 -0.930 0.330 192 182 164 0
21.7632 42.3822 -47.3983 0.162 -0.930 0.330 190 182 163 0
29.7055 53.4226 -52.0573 0.977 -0.157 0.144 185 178 163 0
31.4350 49.4424 -51.2274 0.928 -0.135 0.346 182 173 162 0
42.2365 49.9006 -53.3581 0.761 -0.541 -0.357 180 168 152 0
41.1798 42.9158 -51.1446 -0.699 -0.704 -0.126 180 163 153 0
46.0727 50.7481 -54.3126 0.920 -0.388 -0.062 171 159 146 0
-29.1380 39.6652 -37.4449 0.230 -0.964 0.131 228 220 208 0
-28.9183 39.7169 -37.5005 0.269 -0.944 0.192 227 219 206 0
-28.9082 40.4141 -37.7052 0.244 -0.864 0.440 226 217 204 0
-28.1171 39.4306 -37.5653 0.235 -0.905 -0.355 223 212 201 0
-28.0351 39.9127 -37.7207 -0.117 -0.966 0.231 223 212 201 0
-27.8300 40.0120 -37.7874 -0.105 -0.940 0.325 224 210 201 0
-27.5223 39.7866 -37.7787 -0.207 -0.949 0.237 220 201 194 0
-27.2635 39.7140 -37.8054 -0.270 -0.940 -0.209 186 160 155 0
-26.9384 39.4272 -37.7821 -0.228 -0.953 -0.197 161 126 124 0
-26.7003 39.4178 -37.8234 -0.232 -0.950 -0.209 160 118 119 0
-26.3569 39.0654 -37.7843 0.733 -0.599 0.321 156 110 112 0
-20.5145 26.8832 -35.3200 -0.548 -0.811 -0.204 127 63 71 0
-19.9031 25.4766 -35.0238 -0.396 -0.661 0.638 126 60 69 0
-17.0191 23.1534 -34.8809 0.194 -0.933 0.302 127 48 61 0
-16.8000 26.2433 -35.8202 -0.306 -0.935 -0.178 118 36 49 0
-16.5449 26.0524 -35.8118 -0.271 -0.950 -0.155 117 35 48 0
-14.8599 23.3629 -35.3408 -0.185 -0.898 0.400 115 34 46 0
-12.4276 24.1510 -36.0195 0.146 -0.916 0.373 120 31 44 0
-8.6266 24.1977 -36.7355 0.271 -0.742 0.613 122 29 44 0
-8.2273 24.1984 -36.8094 0.266 -0.759 0.595 121 29 44 0
-7.9371 24.8239 -37.0450 0.175 -0.872 -0.458 122 28 45 0
-2.3481 24.7996 -38.0707 0.019 -0.839 0.544 89 16 32 0
-2.1515 24.8130 -38.1109 0.043 -0.841 0.539 88 15 29 0
-1.7398 24.6807 -38.1485 -0.284 -0.841 0.461 88 17 31 0
3.0853 29.0219 -40.3030 0.707 -0.273 0.652 61 15 17 0
6.5189 35.5594 -42.8392 -0.538 -0.683 0.494 77 60 28 0
7.4040 53.0827 -48.1003 0.776 -0.620 0.115 62 76 37 0
7.8947 53.1405 -48.2078 0.706 -0.701 -0.103 64 85 40 0
8.1332 53.5669 -48.3759 0.746 -0.651 -0.139 65 89 42 0
8.3684 54.3016 -48.6331 0.873 -0.488 -0.029 68 91 42 0
8.6102 54.7448 -48.8067 0.873 -0.488 -0.029 79 91 37 0
8.8529 55.2438 -48.9967 0.846 -0.526 -0.082 98 98 37 0
9.5868 57.4297 -49.7682 0.941 -0.286 0.182 157 143 58 0
9.8368 58.1173 -50.0144 0.949 -0.255 0.187 164 147 56 0
10.6008 59.8354 -50.6554 0.944 -0.319 0.081 169 154 47 0
14.6516 43.2861 -46.5897 -0.113 -0.960 -0.256 210 193 55 0
15.0179 41.0460 -46.0057 -0.083 -0.974 -0.210 210 192 56 0
15.9955 38.3371 -45.3983 0.052 -0.945 -0.322 206 188 65 0
16.2043 38.1986 -45.3967 0.037 -0.978 -0.205 205 188 65 0
16.4175 38.1585 -45.4244 -0.169 -0.976 -0.138 205 188 65 0
19.3671 43.3826 -47.4891 0.232 -0.944 -0.235 182 163 79 0
19.5875 43.3422 -47.5181 0.133 -0.981 -0.139 178 160 81 0
19.8223 43.4958 -47.6062 0.066 -0.992 -0.110 175 158 84 0
20.0473 43.5161 -47.6536 0.066 -0.992 -0.110 176 160 93 0
20.2613 43.3970 -47.6585 0.039 -0.996 -0.081 178 162 105 0
22.3168 46.3288 -48.8912 0.383 -0.708 0.593 189 182 163 0
22.2758 38.9958 -46.7505 0.287 -0.687 0.668 188 180 164 0
22.7775 37.6436 -46.4498 0.496 -0.849 -0.183 190 182 168 0
31.0954 48.9561 -51.2776 0.943 -0.209 0.258 182 174 163 0
32.5203 53.4497 -52.8481 0.923 -0.171 0.344 182 174 162 0
33.8232 28.6896 -45.8861 0.842 -0.413 -0.347 178 167 154 0
42.2646 50.1287 -53.6826 0.771 -0.545 -0.328 177 165 152 0
41.2869 42.5905 -51.3090 -0.688 -0.714 -0.130 179 163 153 0
48.4319 56.9371 -56.8028 0.917 -0.394 -0.060 168 156 143 0
43.6062 36.5132 -49.9697 -0.344 -0.926 0.158 168 151 140 0
-29.3015 39.9741 -37.7538 0.234 -0.967 0.099 228 220 207 0
-29.0799 40.0221 -37.8088 0.234 -0.967 0.099 227 219 206 0
-29.1460 41.6944 -38.2864 0.586 -0.562 0.584 223 214 202 0
-27.8849 39.9923 -38.0206 -0.229 -0.941 0.247 223 210 201 0
-27.5831 39.7863 -38.0159 -0.212 -0.956 0.201 223 205 197 0
-27.3458 39.7830 -38.0588 -0.264 -0.941 -0.211 200 175 170 0
-27.0652 39.6402 -38.0687 -0.228 -0.948 -0.221 164 129 127 0
-26.8128 39.5866 -38.0996 -0.228 -0.948 -0.221 163 121 122 0
-25.9743 38.3843 -37.9022 0.309 -0.592 0.744 156 106 109 0
-26.1678 39.7886 -38.2778 0.401 -0.905 0.144 150 99 103 0
-18.9941 24.9959 -35.2691 0.243 -0.893 0.380 125 55 65 0
-16.7272 26.5739 -36.1497 -0.035 -0.855 -0.518 119 37 49 0
-12.6511 24.0365 -36.1588 0.128 -0.921 0.369 124 36 48 0
-12.4574 24.0710 -36.2046 0.146 -0.916 0.373 123 33 45 0
-11.9993 23.8110 -36.2130 0.088 -0.980 -0.180 120 28 43 0
-8.4668 23.0721 -36.6486 -0.019 -0.980 0.196 120 29 44 0
-6.2261 23.8664 -37.2948 0.282 -0.905 0.318 118 30 44 0
-6.0464 23.9841 -37.3624 0.228 -0.927 0.297 119 32 47 0
-2.7294 22.7853 -37.6235 0.081 -0.778 -0.623 94 18 34 0
-2.3794 24.7109 -38.2520 0.043 -0.841 0.539 90 17 31 0
3.4336 29.3164 -40.6738 0.699 -0.258 0.667 57 16 16 0
3.7534 27.4503 -40.1863 0.808 -0.473 0.351 57 16 17 0
7.5954 53.4773 -48.5185 0.758 -0.645 -0.098 65 82 39 0
7.8407 53.5508 -48.5853 0.720 -0.635 -0.282 67 85 40 0
8.0757 54.2197 -48.8246 0.829 -0.559 0.008 70 89 43 0
8.3181 54.5682 -48.9714 0.845 -0.534 0.002 76 91 40 0
8.5611 54.9524 -49.1288 0.845 -0.534 0.002 94 99 40 0
8.8042 55.4459 -49.3182 0.857 -0.513 0.035 130 123 57 0
9.2956 56.4120 -49.6918 0.870 -0.439 0.222 155 140 53 0
9.5422 57.1312 -49.9480 0.865 -0.498 0.051 160 142 49 0
9.7928 57.5492 -50.1167 0.865 -0.498 0.051 167 146 49 0
10.0460 57.5883 -50.1749 0.833 -0.546 -0.085 170 150 48 0
10.2986 58.1364 -50.3820 0.846 -0.530 -0.056 170 151 45 0
11.5051 50.2376 -48.2912 0.431 -0.902 -0.039 190 172 44 0
11.7469 50.5017 -48.4132 0.232 -0.927 -0.295 192 174 45 0
12.5979 44.2633 -46.7430 -0.013 -0.754 -0.656 207 188 57 0
12.8355 44.7789 -46.9379 0.278 -0.601 -0.749 209 191 59 0
13.0670 44.9125 -47.0198 0.331 -0.569 -0.753 210 192 55 0
13.3045 45.2997 -47.1770 0.383 -0.560 -0.734 209 191 53 0
13.4556 42.0883 -46.2643 0.240 -0.921 -0.308 209 191 54 0
14.4569 45.4900 -47.4454 -0.453 -0.745 -0.490 211 196 55 0
15.7464 38.4161 -45.6115 0.020 -0.928 -0.372 208 191 62 0
19.0722 46.1696 -48.4963 -0.104 -0.942 -0.318 190 168 69 0
19.5531 43.3726 -47.7658 0.133 -0.981 -0.139 181 162 76 0
20.0143 43.5601 -47.9058 0.060 -0.994 -0.092 175 158 85 0
20.2264 43.4155 -47.9026 0.039 -0.996 -0.081 175 157 94 0
21.6296 41.6894 -47.6561 -0.069 -0.956 0.286 190 183 164 0
30.9974 48.5446 -51.3928 0.884 -0.388 0.259 183 174 162 0
36.4087 36.1541 -48.7624 0.912 -0.409 -0.010 179 170 153 0
41.1224 44.6410 -52.1182 -0.680 -0.502 0.535 178 166 154 0
47.7886 50.6037 -55.0949 -0.471 -0.721 -0.508 167 151 138 0
-29.1150 39.9405 -38.0278 0.712 -0.692 0.117 227 219 206 0
-29.1068 40.6437 -38.2366 0.739 -0.659 0.139 225 217 204 0
-29.1615 41.5495 -38.4937 0.598 -0.554 0.579 224 214 202 0
-28.2458 39.4508 -38.0436 0.093 -0.936 0.338 224 212 200 0
-26.2658 39.9128 -38.5448 0.241 -0.969 0.046 151 99 104 0
-20.0200 25.5218 -35.4525 -0.471 -0.767 0.435 128 62 72 0
-18.8782 25.1352 -35.5489 -0.087 -0.917 0.390 122 52 60 0
-18.5383 25.3984 -35.6892 -0.177 -0.976 0.131 133 58 67 0
-18.3112 25.3214 -35.7084 -0.433 -0.878 -0.206 131 53 64 0
-15.0683 22.9982 -35.6211 -0.197 -0.975 0.099 116 33 45 0
-14.9987 23.5345 -35.7920 -0.175 -0.980 -0.097 115 32 44 0
-12.6853 23.9766 -36.3489 0.056 -0.875 0.481 140 50 62 0
-12.4873 23.9910 -36.3896 0.146 -0.916 0.373 127 37 49 0
-12.2625 23.8820 -36.3989 -0.303 -0.887 0.349 122 31 45 0
-10.7393 22.3289 -36.2217 -0.089 -0.976 -0.197 124 32 43 0
-10.5468 22.3530 -36.2643 -0.050 -0.985 -0.163 123 31 42 0
-10.3604 22.4074 -36.3147 0.064 -0.996 -0.065 123 32 42 0
-10.1654 22.4194 -36.3542 0.070 -0.996 -0.054 122 32 44 0
-9.9911 22.5359 -36.4207 0.091 -0.996 0.006 121 32 45 0
-9.8250 24.7531 -37.1051 0.918 -0.349 -0.188 116 24 39 0
-8.5071 23.0473 -36.8450 -0.022 -0.978 0.209 118 28 43 0
-8.3072 23.0356 -36.8784 -0.022 -0.978 0.209 120 28 43 0
-8.0835 22.8899 -36.8767 0.108 -0.949 -0.296 121 29 44 0
-2.9695 24.3397 -38.2469 0.425 -0.894 0.141 90 17 34 0
-2.7980 24.5495 -38.3404 0.253 -0.961 0.112 88 16 32 0
-2.6018 24.5651 -38.3812 0.145 -0.928 0.343 86 15 30 0
-2.4045 24.5719 -38.4196 0.019 -0.839 0.544 90 18 32 0
-1.1870 24.2976 -38.5631 -0.269 -0.846 0.460 79 17 29 0
-1.0120 24.4996 -38.6549 -0.074 -0.997 0.009 73 13 25 0
3.2711 28.0668 -40.4964 0.718 -0.583 -0.381 58 16 17 0
3.4444 28.5160 -40.6608 0.598 -0.416 0.685 57 16 17 0
7.0434 44.8073 -46.1283 0.644 -0.364 0.673 61 73 31 0
7.5460 53.6202 -48.8198 0.811 -0.550 -0.201 65 83 38 0
8.0273 54.3317 -49.1183 0.794 -0.560 -0.235 77 91 41 0
8.2682 54.7886 -49.2975 0.798 -0.553 -0.237 94 102 47 0
8.5098 55.3013 -49.4932 0.839 -0.543 -0.043 124 120 56 0
8.7551 55.6629 -49.6450 0.875 -0.483 0.042 142 128 54 0
11.4652 50.6671 -48.6714 0.224 -0.855 0.468 192 173 44 0
11.7023 50.3462 -48.6205 0.431 -0.902 -0.039 195 176 45 0
11.9494 51.0252 -48.8663 0.129 -0.890 -0.437 198 179 47 0
12.1909 51.0918 -48.9304 0.129 -0.890 -0.437 201 183 49 0
12.5609 44.4812 -47.0493 0.435 -0.563 -0.703 208 190 55 0
12.7978 44.9362 -47.2271 0.410 -0.570 -0.712 209 191 56 0
13.0341 45.2908 -47.3752 0.410 -0.570 -0.712 209 192 53 0
18.8266 46.4918 -48.7972 0.426 -0.799 -0.423 192 173 65 0
18.8528 43.4834 -47.9148 -0.397 -0.898 -0.188 191 170 66 0
19.5542 47.0445 -49.0943 -0.159 -0.986 -0.039 186 167 70 0
21.6420 42.2115 -48.0539 0.234 -0.866 0.441 188 181 160 0
21.8701 42.2929 -48.1200 0.306 -0.804 0.510 190 181 164 0
22.1463 42.8812 -48.3444 0.147 -0.879 0.454 189 181 164 0
22.4336 43.5636 -48.5986 0.196 -0.962 0.189 189 182 164 0
32.3849 28.4386 -45.9728 -0.776 -0.618 -0.127 180 170 156 0
36.3421 35.9693 -48.9230 0.910 -0.414 -0.013 178 169 154 0
42.1130 52.5896 -54.8879 0.620 -0.772 0.140 182 168 155 0
43.0001 53.3864 -55.2864 0.656 -0.741 0.144 180 166 154 0
43.2367 53.4035 -55.3351 0.620 -0.769 0.154 179 167 155 0
43.5059 48.1155 -53.8253 -0.770 -0.638 -0.010 178 163 150 0
43.7572 48.2265 -53.9044 -0.719 -0.682 -0.135 178 162 149 0
46.7935 52.8494 -55.8273 0.924 -0.371 -0.088 172 159 148 0
47.4980 48.1095 -54.5595 0.056 -0.886 -0.460 166 152 139 0
-29.2725 40.2317 -38.3349 0.588 -0.780 0.215 228 220 208 0
-29.0761 40.3593 -38.4089 0.588 -0.780 0.215 226 218 206 0
-29.1419 41.2966 -38.6750 0.598 -0.560 0.573 223 214 203 0
-27.0087 40.5935 -38.8590 0.275 -0.742 -0.612 162 116 118 0
-26.3264 39.9140 -38.7830 0.217 -0.975 -0.039 152 101 105 0
-26.1153 39.9969 -38.8464 0.256 -0.966 0.025 147 96 101 0
-18.5773 25.3539 -35.8871 -0.187 -0.975 0.117 134 57 67 0
-18.3591 25.3098 -35.9142 -0.453 -0.865 -0.216 134 55 66 0
-18.1167 25.1756 -35.9189 -0.512 -0.844 -0.156 128 48 59 0
-15.4475 23.5224 -35.9196 -0.027 -0.983 -0.184 120 36 50 0
-12.7106 23.8761 -36.5285 0.056 -0.875 0.481 161 71 83 0
-12.5103 23.8803 -36.5666 0.128 -0.920 0.369 135 44 56 0
-12.2872 23.7786 -36.5775 -0.301 -0.887 0.351 125 33 47 0
-12.0958 23.8222 -36.6257 0.071 -0.980 -0.186 119 27 43 0
-10.7951 22.3772 -36.4362 -0.089 -0.976 -0.197 139 47 58 0
-10.5944 22.3619 -36.4686 -0.043 -0.984 -0.175 139 47 58 0
-10.3964 22.3597 -36.5044 -0.043 -0.984 -0.175 131 40 51 0
-10.0349 22.5270 -36.6206 0.126 -0.992 0.015 121 30 42 0
-8.7585 23.0937 -37.0238 -0.321 -0.929 0.185 119 27 42 0
-8.3015 22.7571 -37.0081 -0.183 -0.939 -0.292 121 30 45 0
-7.9867 23.2063 -37.1994 -0.221 -0.620 0.753 120 28 43 0
-7.6775 23.7053 -37.4045 0.202 -0.973 -0.113 120 28 43 0
-7.5813 24.3029 -37.5996 0.021 -0.963 -0.269 119 27 42 0
-7.3842 24.3187 -37.6406 0.021 -0.963 -0.269 120 27 42 0
-6.3883 23.1005 -37.4623 -0.463 -0.793 0.397 128 39 53 0
-2.9875 24.1505 -38.4001 0.076 -0.901 -0.428 92 19 36 0
-2.8269 24.4432 -38.5166 0.285 -0.876 -0.389 89 19 34 0
-2.6507 24.6196 -38.6014 -0.034 -0.803 0.596 84 16 30 0
-2.4362 24.4875 -38.6017 0.021 -0.835 0.550 89 18 32 0
-1.4375 22.6844 -38.2503 -0.056 -0.995 0.087 82 17 30 0
-1.2416 22.6705 -38.2822 -0.056 -0.995 0.087 81 17 31 0
-0.8424 24.3746 -38.8616 -0.164 -0.982 -0.092 70 13 24 0
0.0378 25.4429 -39.3408 0.589 -0.513 0.625 66 14 18 0
4.0318 31.7358 -41.9445 0.830 -0.407 0.381 58 21 16 0
8.7123 55.3803 -49.8258 0.613 -0.321 0.722 146 128 47 0
8.9540 56.1312 -50.0933 0.825 -0.208 0.525 154 133 42 0
9.2024 56.4527 -50.2345 0.866 -0.146 0.478 160 141 42 0
9.4433 57.9274 -50.7166 0.973 -0.108 0.202 167 146 42 0
11.6673 51.2299 -49.1377 -0.063 -0.532 0.844 197 179 45 0
13.4515 45.2338 -47.6861 0.193 -0.962 -0.194 208 193 53 0
13.7064 46.2271 -48.0279 0.435 -0.866 -0.246 210 196 55 0
14.1824 46.6964 -48.2549 0.241 -0.837 -0.490 211 197 56 0
14.6608 40.4421 -46.4862 0.036 -0.944 -0.328 212 197 54 0
19.0649 43.8457 -48.3075 0.000 -0.916 -0.401 188 170 65 0
19.4730 46.4351 -49.1514 0.033 -0.996 -0.082 186 170 68 0
21.8761 42.7375 -48.4961 0.243 -0.895 0.375 191 181 161 0
22.0909 42.6670 -48.5147 0.112 -0.860 0.497 190 180 162 0
22.2894 42.4291 -48.4807 0.002 -0.817 0.577 189 180 163 0
21.9126 30.2247 -44.7880 0.499 -0.821 -0.278 188 179 164 0
36.7395 36.9536 -49.5156 0.926 -0.371 0.073 177 168 153 0
42.2999 52.5213 -55.1611 0.708 -0.670 0.221 182 168 155 0
42.6636 53.0717 -55.3915 0.631 -0.764 0.137 182 168 155 0
42.9475 53.2854 -55.5072 0.631 -0.764 0.137 181 168 155 0
43.2359 53.5150 -55.6285 0.504 -0.863 0.010 180 167 154 0
43.6728 54.3456 -55.9555 0.655 -0.711 -0.255 179 167 153 0
44.2149 38.1831 -51.2569 0.186 -0.978 -0.095 167 152 138 0
48.1218 51.1542 -55.8272 -0.362 -0.920 -0.149 164 151 135 0
-30.1206 44.8780 -39.8180 0.765 -0.544 0.346 224 212 203 0
-28.1130 39.3913 -38.5474 0.158 -0.917 -0.367 224 211 202 0
-27.9990 39.7741 -38.6827 -0.012 -0.988 0.156 222 211 201 0
-26.3658 39.8454 -39.0044 0.200 -0.893 -0.402 153 104 108 0
-26.2181 40.1372 -39.1188 0.267 -0.963 -0.024 148 99 103 0
-18.2263 25.3927 -36.1816 -0.406 -0.879 -0.250 129 47 59 0
-15.1307 23.6765 -36.2379 -0.418 -0.766 0.489 119 35 50 0
-13.6737 23.4793 -36.4469 0.040 -0.967 -0.253 120 32 48 0
-12.9401 23.7900 -36.6747 0.069 -0.875 0.479 134 46 59 0
-12.7381 23.7863 -36.7107 0.069 -0.875 0.479 142 53 65 0
-12.5470 23.8317 -36.7595 0.176 -0.933 0.315 130 40 52 0
-12.3140 23.6850 -36.7585 -0.323 -0.882 0.344 123 32 46 0
-12.1527 23.8678 -36.8427 0.081 -0.979 -0.186 119 27 43 0
-10.8452 22.3977 -36.6438 0.064 -0.996 -0.065 153 61 72 0
-10.6506 22.4128 -36.6841 0.064 -0.996 -0.065 160 68 79 0
-10.4559 22.4280 -36.7244 0.064 -0.996 -0.065 147 55 66 0
-10.2505 22.3891 -36.7506 -0.069 -0.994 -0.089 125 32 45 0
-9.2189 23.1930 -37.1806 -0.361 -0.890 0.278 121 25 41 0
-8.1541 22.7864 -37.2549 -0.172 -0.935 -0.311 123 31 46 0
-7.9963 23.0090 -37.3504 -0.214 -0.624 0.751 121 29 43 0
-7.7568 23.9047 -37.6621 0.182 -0.978 -0.105 119 27 41 0
-7.5317 23.7543 -37.6586 0.065 -0.976 -0.210 120 28 41 0
-7.3469 23.8370 -37.7173 0.087 -0.978 -0.189 120 28 41 0
-2.9558 23.5748 -38.4464 0.140 -0.913 -0.383 91 19 35 0
-2.2732 24.4302 -38.8276 -0.079 -0.826 0.558 90 21 32 0
-2.0650 24.3436 -38.8400 -0.071 -0.827 0.557 87 20 31 0
-1.6975 22.8944 -38.4745 -0.123 -0.847 0.516 84 18 30 0
-1.5117 22.9734 -38.5323 -0.156 -0.884 0.440 83 18 31 0
-1.4874 24.4774 -38.9862 -0.004 -0.995 -0.100 81 18 33 0
-1.2920 24.4981 -39.0283 0.001 -0.995 -0.098 79 17 32 0
0.0141 25.2664 -39.4982 0.592 -0.512 0.622 65 12 19 0
1.5038 28.8666 -40.8482 0.279 -0.424 -0.861 61 11 21 0
3.9890 31.7681 -42.1723 0.814 -0.483 0.321 59 24 17 0
4.1553 32.5306 -42.4309 0.826 -0.484 0.290 60 26 17 0
11.9893 41.8689 -46.6625 -0.386 -0.847 0.364 204 189 49 0
12.8809 41.6701 -46.7670 -0.483 -0.746 0.458 208 196 55 0
13.3115 40.9915 -46.6434 0.083 -0.816 0.572 209 198 56 0
21.8317 42.6390 -48.7026 0.243 -0.895 0.375 193 181 157 0
22.0507 42.6125 -48.7350 0.124 -0.849 0.513 192 180 160 0
33.3358 27.7498 -46.3681 0.946 -0.323 -0.011 183 171 157 0
39.1525 43.0569 -52.0127 0.959 -0.237 0.153 180 168 154 0
41.5641 51.4811 -54.9740 0.805 -0.594 0.007 182 168 155 0
41.9522 52.1495 -55.2452 0.711 -0.663 0.236 182 168 155 0
42.1765 52.1220 -55.2782 0.695 -0.682 0.229 181 167 154 0
42.4829 52.4373 -55.4288 0.468 -0.803 0.369 179 165 152 0
42.6598 47.6180 -54.0209 0.702 -0.587 0.403 178 165 152 0
43.0410 48.2472 -54.2791 -0.830 -0.552 -0.078 177 165 151 0
42.3340 42.0818 -52.3064 0.810 -0.561 0.170 176 164 150 0
42.6499 42.4785 -52.4830 0.859 -0.460 0.223 175 162 148 0
47.6992 48.9784 -55.3543 0.384 -0.808 -0.446 164 150 137 0
-61.7274 29.3511 -29.6012 -0.013 -0.986 -0.168 255 255 255 0
-30.3359 43.0840 -39.4989 -0.023 -0.906 0.424 228 220 209 0
-30.0057 43.5678 -39.7051 0.612 -0.555 0.563 222 216 204 0
-30.2432 45.0588 -40.1101 0.763 -0.577 0.292 224 212 203 0
