ply
format ascii 1.0
element vertex 808
property float x
property float y
property float z
property float nx
property float ny
property float nz
property uchar diffuse_red
property uchar diffuse_green
property uchar diffuse_blue
property uchar class
end_header
18.8455 30.6406 -63.5282 -0.469 -0.880 -0.074 162 157 147 0
20.0476 31.9950 -64.3862 -0.319 -0.680 -0.660 161 155 141 0
20.3465 32.7384 -64.7869 -0.554 -0.765 -0.328 161 155 143 0
20.5549 32.7028 -64.8110 -0.508 -0.772 -0.382 159 153 141 0
21.1580 34.1453 -65.5930 -0.747 -0.588 0.309 158 151 141 0
25.9390 42.9362 -70.5738 -0.906 -0.424 0.007 164 151 137 0
24.5085 19.0632 -59.2964 0.462 -0.357 0.812 159 147 135 0
24.7266 19.2474 -59.4237 0.494 -0.390 0.777 159 147 135 0
25.1907 19.7606 -59.7506 0.432 -0.573 0.696 160 148 136 0
25.5366 20.6319 -60.2193 0.442 -0.504 0.742 159 147 134 0
27.8570 25.7656 -63.0362 0.930 -0.260 0.260 159 143 129 0
28.2208 26.6089 -63.4955 0.936 -0.297 0.188 159 142 129 0
28.5747 27.3875 -63.9231 0.933 -0.315 0.174 159 143 129 0
29.7319 30.1057 -65.4007 0.900 -0.355 0.252 155 142 127 0
31.4146 26.7127 -64.1650 -0.171 -0.629 -0.759 150 136 123 0
33.6892 27.9312 -65.1691 -0.346 -0.762 0.547 147 133 121 0
44.7406 47.2325 -76.2128 -0.122 -0.596 0.794 137 124 109 0
-72.1718 36.1431 -48.6148 0.130 -0.970 -0.205 255 255 255 0
-23.3279 30.0960 -55.3143 0.656 -0.738 0.158 213 209 214 0
-15.4004 26.8963 -55.3749 -0.828 -0.549 0.114 204 196 209 0
-16.2782 32.2206 -57.6687 -0.741 -0.658 -0.134 203 196 206 0
-15.1923 32.3693 -57.9487 0.565 -0.697 0.442 201 196 202 0
-8.7973 28.0790 -57.2064 -0.381 -0.861 -0.338 193 193 201 0
-8.5452 32.4748 -59.2902 0.272 -0.710 0.649 192 192 200 0
-8.2319 35.1589 -60.5936 0.377 -0.899 0.224 192 192 201 0
-8.0150 35.2310 -60.6692 0.377 -0.899 0.224 192 192 201 0
-7.8221 35.4954 -60.8290 0.001 -0.816 0.577 190 190 200 0
-7.4701 34.4890 -60.4317 0.365 -0.798 0.480 189 189 198 0
4.4562 29.4038 -60.3971 0.198 -0.956 -0.214 186 187 179 0
4.9441 25.8859 -58.8635 0.259 -0.951 -0.171 185 186 178 0
5.3474 26.2574 -59.1139 0.002 -0.972 0.234 186 187 179 0
5.5478 26.6203 -59.3209 0.364 -0.800 0.478 186 187 179 0
6.1486 28.8603 -60.4746 0.039 -0.995 -0.092 183 184 176 0
7.4475 38.4258 -65.1550 0.671 -0.741 0.015 181 183 173 0
8.8742 42.3894 -67.2672 0.468 -0.616 -0.633 180 181 169 0
10.9295 9.4184 -52.4049 0.405 -0.852 -0.333 174 176 165 0
13.6591 44.3497 -69.1050 -0.188 -0.700 -0.688 172 172 160 0
13.9203 44.7879 -69.3587 0.171 -0.563 -0.809 172 172 160 0
14.7365 32.4788 -63.8197 -0.471 -0.694 0.545 165 167 154 0
16.0068 24.8554 -60.5379 0.088 -0.971 0.221 163 160 151 0
16.0738 23.3478 -59.8531 0.288 -0.711 0.641 163 159 150 0
16.4691 23.3807 -59.9452 0.279 -0.719 0.637 162 158 149 0
24.4858 19.1033 -59.5243 0.166 -0.419 0.892 158 145 134 0
24.6742 19.1197 -59.5685 0.322 -0.390 0.863 156 144 132 0
24.8493 19.0615 -59.5756 0.520 -0.295 0.802 159 147 134 0
26.6034 24.4987 -62.4335 -0.081 -0.581 0.810 159 142 130 0
27.6276 24.7491 -62.7486 0.875 -0.135 0.465 157 142 127 0
28.4464 26.8985 -63.9028 0.924 -0.314 0.219 156 142 126 0
28.7639 27.4871 -64.2370 0.932 -0.303 0.200 155 142 126 0
27.7907 18.1032 -59.7040 -0.086 -0.995 -0.042 152 140 124 0
28.6676 17.1183 -59.4186 -0.403 -0.898 0.177 149 137 123 0
31.2272 26.8895 -64.4394 -0.116 -0.680 -0.724 150 136 123 0
31.5000 27.2178 -64.6444 -0.109 -0.667 -0.737 150 135 122 0
33.4928 31.4510 -66.9915 -0.569 -0.789 -0.231 147 134 123 0
33.8180 31.0865 -66.8860 -0.030 -0.856 0.516 145 133 121 0
42.7127 46.7634 -75.8724 -0.541 -0.841 0.010 139 126 111 0
44.7991 40.7788 -73.5079 -0.859 -0.462 0.222 255 255 255 0
-72.2891 36.1832 -48.8785 0.130 -0.970 -0.205 255 255 255 0
-23.8843 29.4925 -55.1717 0.801 -0.439 0.407 217 213 215 0
-18.8964 30.7177 -56.7106 -0.555 -0.704 -0.442 209 201 212 0
-18.6415 30.5706 -56.6917 -0.562 -0.679 -0.473 207 199 209 0
-14.6965 25.2610 -54.9890 0.423 -0.817 -0.392 204 196 207 0
-15.3743 31.8756 -57.9334 0.508 -0.561 0.654 202 196 203 0
-15.2588 32.4215 -58.2097 0.626 -0.666 0.406 203 197 205 0
-14.3981 32.5926 -58.4565 -0.588 -0.808 -0.038 202 198 204 0
-13.5638 46.8664 -65.2567 0.822 -0.503 -0.266 195 193 201 0
-7.8092 33.2207 -60.0288 0.395 -0.756 0.523 192 192 202 0
4.3366 23.8874 -58.0481 -0.271 -0.869 -0.414 185 186 179 0
8.5608 13.3727 -53.9790 -0.013 -0.789 0.614 179 179 167 0
10.1804 25.2773 -59.8300 -0.207 -0.893 -0.400 175 177 168 0
10.3451 24.1358 -59.3311 -0.053 -0.933 -0.357 175 177 168 0
10.5141 8.4327 -52.0611 0.408 -0.912 0.037 174 176 165 0
10.7158 9.1994 -52.4569 0.312 -0.905 -0.289 174 176 165 0
10.9013 9.5328 -52.6480 0.409 -0.869 -0.281 174 175 165 0
11.0842 9.7801 -52.7985 0.481 -0.821 -0.306 173 174 164 0
11.2660 9.9876 -52.9303 0.435 -0.847 -0.306 171 174 160 0
11.4465 10.1528 -53.0422 0.243 -0.939 0.243 170 172 159 0
14.6372 31.6144 -63.6430 -0.305 -0.887 0.345 163 166 154 0
15.0762 31.8102 -63.8193 -0.291 -0.859 0.421 162 163 152 0
15.6996 37.3565 -66.5198 -0.277 -0.292 0.916 161 161 151 0
15.9774 38.0780 -66.9093 0.792 -0.409 0.453 161 161 151 0
15.0103 13.6066 -55.3409 -0.150 -0.860 0.487 162 159 149 0
15.1756 13.4605 -55.3050 -0.101 -0.877 0.470 161 157 148 0
27.5457 39.3175 -69.7334 0.155 -0.802 0.577 159 147 135 0
24.4458 19.0448 -59.7032 0.364 -0.419 0.832 159 147 135 0
24.6456 19.1258 -59.7797 0.361 -0.419 0.833 158 145 133 0
28.7274 27.4589 -64.4481 0.929 -0.283 0.240 155 142 125 0
28.0627 16.9513 -59.4324 -0.436 -0.898 -0.060 151 138 125 0
28.3462 17.4256 -59.7080 -0.514 -0.769 -0.381 150 137 124 0
33.7691 31.8712 -67.4796 0.524 -0.800 0.292 145 133 122 0
33.7738 31.0256 -67.0873 -0.016 -0.865 0.501 145 133 121 0
33.9511 30.9087 -67.0674 -0.354 -0.908 -0.226 144 133 121 0
33.9285 29.9714 -66.6271 -0.275 -0.938 -0.213 143 132 120 0
38.4674 39.5626 -71.9694 0.434 -0.901 0.023 141 129 115 0
39.0730 41.0265 -72.7679 0.840 -0.412 0.354 141 129 115 0
-72.4067 36.2234 -49.1426 0.130 -0.970 -0.205 255 255 255 0
-71.2726 36.3882 -49.4397 0.034 -0.990 -0.135 239 225 222 0
-23.8961 29.3201 -55.3340 0.801 -0.439 0.407 218 213 216 0
-23.0035 27.6766 -54.7394 0.672 -0.636 0.380 217 208 215 0
-22.8062 27.7480 -54.8111 0.678 -0.640 0.362 214 207 214 0
-18.8436 30.2404 -56.7448 -0.841 -0.540 0.041 210 203 211 0
-18.6624 30.4111 -56.8597 -0.464 -0.858 -0.222 208 202 210 0
-14.6615 19.0153 -52.3120 0.706 -0.694 -0.145 206 198 209 0
-14.7679 25.3498 -55.2509 0.423 -0.817 -0.392 204 196 207 0
-15.2930 32.3088 -58.4004 0.623 -0.659 0.422 204 197 205 0
-7.8331 32.9988 -60.1709 0.416 -0.736 0.534 192 192 202 0
-7.3468 36.3047 -61.8099 -0.854 -0.519 0.032 189 190 200 0
10.6917 9.4184 -52.7496 0.254 -0.933 -0.254 173 173 163 0
10.8720 9.6216 -52.8795 0.223 -0.931 -0.289 173 173 163 0
11.0532 9.8300 -53.0121 0.513 -0.850 0.116 172 172 162 0
11.2339 10.0111 -53.1318 0.338 -0.915 -0.219 169 171 158 0
11.4107 10.1006 -53.2079 0.243 -0.939 0.243 168 170 157 0
14.3189 45.0183 -70.0868 -0.099 -0.995 0.021 164 165 153 0
15.9163 37.8211 -67.0342 0.792 -0.409 0.453 160 160 148 0
14.9650 13.4577 -55.4664 -0.090 -0.850 0.519 161 158 147 0
15.1516 13.5576 -55.5493 -0.126 -0.833 0.539 160 156 146 0
15.4190 14.5656 -56.0722 0.386 -0.849 0.361 161 156 146 0
17.2621 26.2432 -61.8860 0.317 -0.869 0.381 159 152 144 0
21.3935 38.8144 -68.5615 0.267 -0.257 0.929 155 148 138 0
21.8157 38.6037 -68.5450 0.873 -0.131 0.470 153 146 136 0
22.8281 22.0121 -60.9895 -0.506 -0.857 0.095 157 147 133 0
23.0039 21.9098 -60.9759 -0.506 -0.857 0.095 156 147 132 0
22.7859 19.3170 -59.7222 0.092 -0.990 -0.106 156 147 132 0
27.4713 39.0933 -69.8717 0.168 -0.802 0.574 158 146 134 0
28.0524 39.8684 -70.3466 0.283 -0.877 0.388 159 145 134 0
26.2836 24.1576 -62.6628 -0.043 -0.713 0.700 157 143 130 0
26.9502 22.5696 -62.0502 0.841 -0.112 0.530 157 141 128 0
27.8761 25.3272 -63.5184 0.930 -0.357 0.085 153 140 124 0
28.2498 26.2190 -64.0076 0.924 -0.316 0.215 154 141 125 0
33.7679 31.9922 -67.7761 0.212 -0.976 -0.055 145 133 121 0
40.5548 41.6656 -73.6132 -0.667 -0.564 0.487 140 126 115 0
43.5875 48.4287 -77.3618 -0.473 -0.877 -0.081 139 125 111 0
-72.5244 36.2637 -49.4072 0.130 -0.970 -0.205 255 255 255 0
-71.3800 36.4145 -49.6999 0.015 -0.988 -0.156 236 225 221 0
-28.7051 33.2153 -56.4747 0.346 -0.496 -0.796 221 216 216 0
-18.9073 30.2674 -56.9912 -0.844 -0.534 0.047 211 204 212 0
-13.9909 45.6762 -65.1775 0.398 -0.757 -0.518 197 195 205 0
1.1110 18.9384 -55.5559 -0.690 -0.677 -0.257 184 185 189 0
5.1791 28.7687 -60.9591 0.207 -0.957 -0.202 183 182 177 0
5.3894 28.7612 -60.9964 0.209 -0.957 -0.201 182 182 175 0
10.6599 9.4546 -52.9562 0.238 -0.943 -0.233 169 169 159 0
10.8352 9.5425 -53.0314 0.192 -0.970 -0.146 169 169 159 0
11.0206 9.8445 -53.2092 -0.208 -0.868 -0.451 168 168 158 0
11.1942 9.8746 -53.2569 -0.188 -0.873 -0.450 167 168 157 0
14.0145 44.6514 -70.1279 -0.044 -0.997 -0.070 165 166 155 0
15.8042 36.8844 -66.8292 0.851 -0.320 0.417 159 159 147 0
14.4192 13.7232 -55.6889 -0.383 -0.901 0.205 158 158 146 0
14.5955 13.6949 -55.7098 -0.368 -0.930 0.016 157 157 145 0
14.8762 14.9293 -56.3437 -0.563 -0.794 -0.228 157 157 145 0
14.9389 13.5346 -55.7012 -0.321 -0.882 0.345 156 156 144 0
15.1161 13.5247 -55.7309 -0.321 -0.885 0.337 156 155 143 0
15.3691 14.3723 -56.1778 0.326 -0.889 0.322 157 155 143 0
20.1021 33.7677 -66.1998 0.945 -0.211 0.251 152 145 133 0
21.1721 35.4862 -67.2140 0.796 -0.360 0.486 151 144 134 0
22.8019 22.0488 -61.2227 -0.472 -0.881 -0.017 154 144 132 0
22.9715 21.9053 -61.1882 -0.506 -0.857 0.095 154 145 132 0
22.7668 19.3911 -59.9683 0.150 -0.986 -0.067 155 146 132 0
27.4226 39.0191 -70.0845 0.164 -0.805 0.570 156 143 131 0
28.1559 25.9000 -64.0687 0.915 -0.335 0.225 155 141 127 0
35.6762 50.3625 -77.0098 -0.033 -0.860 -0.510 149 137 125 0
36.2155 51.7109 -77.7473 0.621 -0.685 0.381 148 136 124 0
39.6093 45.9551 -75.7038 0.477 -0.611 -0.632 141 128 116 0
40.5165 41.6366 -73.8527 -0.623 -0.758 -0.191 140 126 115 0
42.3448 45.7805 -76.1524 -0.277 -0.672 0.687 141 125 114 0
44.2689 39.3375 -73.5012 -0.865 -0.480 0.146 255 255 254 0
-72.6798 36.3594 -49.6911 0.084 -0.975 -0.204 255 255 255 0
-72.2075 37.5200 -50.3299 0.011 -0.985 -0.172 234 225 220 0
-72.1729 37.8461 -50.4904 0.108 -0.972 -0.208 234 225 220 0
-29.4377 33.8774 -56.8995 0.482 -0.522 0.704 224 220 221 0
-14.6797 20.4825 -53.4426 -0.286 -0.897 -0.337 207 199 212 0
-13.2067 17.2077 -52.1837 0.192 -0.758 0.624 205 197 209 0
-5.0039 36.9002 -63.0595 0.487 -0.557 -0.672 190 189 196 0
1.4497 26.5983 -59.4519 -0.784 -0.563 -0.262 184 184 184 0
1.8258 27.4141 -59.9095 0.190 -0.962 -0.195 183 183 181 0
5.1284 29.1904 -61.3871 -0.082 -0.962 -0.262 181 180 176 0
5.5392 30.0935 -61.8926 0.082 -0.996 0.039 180 180 172 0
7.3656 11.9079 -53.6707 0.218 -0.334 0.917 176 177 171 0
8.1076 14.5690 -55.0694 -0.430 -0.723 0.541 175 176 168 0
8.2884 14.4701 -55.0578 -0.430 -0.723 0.541 174 174 164 0
8.8999 17.7659 -56.7305 0.053 -0.852 -0.520 173 173 163 0
10.6631 31.2355 -63.4239 0.726 -0.558 0.402 168 170 159 0
13.9823 44.8875 -70.5049 -0.013 -0.988 -0.153 160 163 152 0
15.2631 36.1166 -66.6170 -0.258 -0.278 0.925 157 157 145 0
14.3722 13.5448 -55.8003 -0.366 -0.926 0.097 156 156 144 0
14.5779 13.8843 -56.0002 -0.184 -0.980 0.071 155 155 143 0
14.8668 15.2184 -56.6853 -0.515 -0.834 -0.196 154 154 142 0
14.8989 13.4479 -55.8567 -0.344 -0.874 0.344 153 153 141 0
15.0811 13.4963 -55.9148 -0.324 -0.881 0.344 152 153 139 0
15.3708 14.7648 -56.5691 0.239 -0.971 0.030 153 153 139 0
19.9179 32.4883 -65.8080 0.884 -0.156 0.441 150 143 131 0
22.7566 21.9613 -61.3938 -0.461 -0.856 0.233 152 142 130 0
22.9372 21.8892 -61.3949 -0.461 -0.859 0.222 152 142 130 0
23.0170 21.1778 -61.0748 -0.473 -0.872 0.123 152 142 130 0
26.6052 21.0885 -61.7280 0.877 -0.147 0.457 153 139 128 0
27.7306 24.8967 -63.7419 0.902 -0.353 0.249 154 140 128 0
28.0758 25.6503 -64.1641 0.905 -0.338 0.259 154 140 128 0
40.5732 41.9546 -74.2743 -0.705 -0.647 -0.289 139 125 114 0
41.6880 44.3571 -75.6232 -0.230 -0.930 0.288 139 125 114 0
-72.3291 37.5659 -50.5999 0.011 -0.985 -0.172 234 226 220 0
-16.6260 21.7334 -53.8830 0.005 -0.369 0.929 210 203 215 0
-13.2623 48.1870 -67.0663 0.670 -0.553 -0.495 196 194 205 0
-0.9964 13.1169 -52.8268 -0.443 -0.890 0.109 187 186 194 0
1.0372 18.7573 -55.8926 -0.633 -0.714 -0.298 184 184 187 0
5.0885 28.9375 -61.4996 -0.149 -0.977 0.153 180 179 175 0
5.4989 29.7917 -61.9837 0.154 -0.988 0.028 179 179 171 0
8.6747 17.7977 -56.9165 0.322 -0.751 -0.577 172 172 162 0
13.5775 47.1586 -71.7751 0.605 -0.273 0.748 161 162 152 0
14.3551 13.7485 -56.0979 -0.040 -0.966 0.254 152 152 140 0
14.5334 13.7425 -56.1296 -0.032 -0.964 0.266 152 152 140 0
14.8267 15.1377 -56.8473 -0.337 -0.686 0.645 152 151 139 0
22.8970 21.8345 -61.5822 -0.461 -0.856 0.233 151 141 129 0
27.1446 25.0696 -63.9371 0.089 -0.930 0.356 154 140 129 0
26.4642 20.5090 -61.6449 0.867 -0.136 0.479 154 140 129 0
27.6395 24.5875 -63.8045 0.902 -0.349 0.253 152 138 127 0
27.9743 25.2917 -64.2030 0.914 -0.339 0.221 151 137 124 0
41.7312 44.6245 -76.0248 -0.079 -0.971 0.224 138 124 113 0
44.1773 45.9325 -77.1181 -0.027 -0.923 -0.385 134 121 110 0
-72.7290 36.5326 -50.3030 0.069 -0.981 -0.183 255 255 255 0
-72.4358 36.4688 -50.3293 0.193 -0.954 -0.229 133 133 133 0
-72.2257 36.5278 -50.3981 0.193 -0.954 -0.229 71 69 68 0
-28.0606 34.2378 -57.8504 -0.586 -0.756 -0.292 220 215 217 0
-23.6064 27.4367 -55.4751 0.699 -0.713 -0.058 217 212 216 0
-22.6965 29.7075 -56.7318 0.371 -0.830 0.416 213 206 214 0
-16.0976 21.8671 -54.2768 -0.398 -0.632 -0.665 209 201 213 0
5.5509 22.5593 -58.7933 0.390 -0.776 0.497 176 176 168 0
7.8279 12.1110 -54.2612 0.751 -0.602 -0.271 171 172 166 0
11.1293 48.1623 -72.0571 -0.344 -0.936 0.071 166 166 156 0
14.1246 13.5071 -56.1435 -0.144 -0.905 0.401 151 151 139 0
14.3092 13.5852 -56.2164 -0.117 -0.956 0.267 151 151 139 0
14.4705 13.3681 -56.1443 -0.121 -0.975 0.189 150 150 138 0
14.7781 14.9516 -56.9574 -0.316 -0.646 0.695 151 150 138 0
15.1921 13.4738 -56.3341 0.049 -0.706 0.707 150 145 135 0
16.8514 25.5680 -62.4109 0.559 -0.389 0.733 152 145 135 0
28.1744 25.4608 -64.5499 0.907 -0.313 0.282 153 137 124 0
36.2247 51.1413 -78.3287 0.261 -0.228 0.938 148 135 122 0
32.6680 31.3481 -68.2209 0.371 -0.768 0.522 146 133 121 0
-72.8793 36.6201 -50.5861 0.076 -0.977 -0.198 255 255 255 0
-72.5537 36.5090 -50.5958 0.193 -0.954 -0.229 133 133 133 0
-72.3425 36.5667 -50.6642 0.193 -0.953 -0.234 71 69 68 0
-72.5729 37.6579 -51.1414 0.011 -0.985 -0.172 234 225 223 0
-43.3641 34.3190 -55.1894 0.310 -0.818 0.485 231 226 220 0
-28.0601 32.5235 -57.2883 0.038 -0.812 -0.583 220 216 216 0
-25.0039 32.9932 -58.1034 0.160 -0.477 -0.864 217 211 218 0
-23.6103 34.6189 -59.1499 0.226 -0.968 -0.105 215 205 214 0
-10.7772 39.0816 -63.7634 0.153 -0.832 -0.534 196 194 205 0
0.4764 30.3074 -61.7431 -0.742 -0.661 -0.115 182 182 184 0
5.5142 22.2271 -58.8534 -0.275 -0.936 -0.220 174 175 167 0
5.9081 22.4194 -59.0215 0.411 -0.785 0.463 175 176 168 0
7.3471 37.4391 -66.4804 0.088 -0.949 0.304 170 173 166 0
9.3695 18.4765 -57.8053 -0.329 -0.921 -0.210 166 164 155 0
11.5078 46.3610 -71.5499 -0.633 -0.768 0.097 162 164 153 0
13.2442 23.1417 -60.7844 -0.169 -0.185 0.968 153 153 143 0
14.0770 13.3166 -56.2481 -0.287 -0.939 0.190 148 149 137 0
14.4330 13.3107 -56.3140 -0.129 -0.973 0.191 148 147 135 0
14.7345 14.8259 -57.0967 -0.311 -0.633 0.709 147 147 135 0
15.1514 13.3809 -56.4864 0.088 -0.723 0.685 148 143 134 0
16.7435 16.8420 -58.4488 -0.635 -0.743 0.210 147 143 133 0
16.9081 16.6499 -58.3887 -0.596 -0.791 0.143 147 142 133 0
17.0799 16.5352 -58.3671 -0.702 -0.705 0.101 148 141 133 0
26.2829 39.7846 -71.2609 -0.466 -0.733 -0.495 150 138 126 0
24.4584 11.2449 -57.2636 -0.250 -0.447 0.859 151 137 123 0
32.2113 37.1102 -71.1279 -0.374 -0.569 -0.732 148 136 122 0
40.6073 51.3057 -79.5370 0.356 -0.595 -0.721 142 127 115 0
37.8142 36.9241 -72.1216 0.814 -0.512 0.275 139 127 115 0
37.9605 36.6590 -72.0231 -0.041 -0.461 0.887 139 126 115 0
-73.0010 36.6652 -50.8549 0.076 -0.977 -0.198 255 255 255 0
-72.6717 36.5490 -50.8627 0.193 -0.953 -0.234 133 133 134 0
-72.4615 36.6085 -50.9319 0.193 -0.953 -0.234 71 68 69 0
-44.0605 35.2008 -55.7390 0.175 -0.639 0.749 233 227 221 0
-43.7725 35.0876 -55.7401 -0.089 -0.836 0.541 233 226 221 0
-28.8819 34.2294 -58.2028 0.400 -0.887 -0.232 221 217 218 0
-28.0931 32.4242 -57.4881 0.011 -0.959 -0.282 220 216 217 0
-27.8684 32.4352 -57.5367 0.121 -0.897 -0.425 220 216 217 0
-22.7461 31.9698 -58.3021 0.220 -0.687 -0.692 214 205 214 0
-16.2332 22.9179 -55.2121 -0.475 -0.641 -0.603 208 202 212 0
-14.7566 19.8805 -54.0384 0.151 -0.936 -0.317 207 199 211 0
-12.6524 29.3743 -59.0043 -0.729 -0.560 -0.394 201 199 204 0
-12.7893 31.3950 -59.9484 -0.586 -0.810 0.041 200 199 204 0
-10.9327 39.7502 -64.3196 -0.140 -0.880 -0.454 196 194 205 0
0.2999 13.6899 -53.9721 0.475 -0.655 0.587 182 182 180 0
0.0947 25.4601 -59.5854 0.257 -0.905 0.338 182 182 182 0
-0.0211 30.6302 -62.0461 0.377 -0.494 0.784 180 180 181 0
3.3755 25.6386 -60.3045 -0.260 -0.950 0.171 177 176 177 0
3.5804 25.6496 -60.3493 -0.184 -0.977 -0.103 178 176 176 0
5.2740 22.2835 -59.0597 0.220 -0.975 0.022 173 174 168 0
5.4715 22.3350 -59.1225 0.156 -0.988 -0.008 173 174 168 0
5.8670 22.4260 -59.2426 0.301 -0.894 0.331 173 173 167 0
6.0635 22.6492 -59.3877 0.322 -0.882 0.343 173 172 167 0
7.0763 39.1137 -67.4907 0.117 -0.698 0.706 169 170 163 0
7.3007 37.3694 -66.6963 -0.038 -0.933 0.358 168 169 163 0
7.5225 36.4443 -66.2948 0.169 -0.953 0.254 167 168 162 0
9.3332 18.5312 -58.0412 -0.287 -0.924 -0.252 164 162 151 0
14.2462 13.6258 -56.6338 -0.369 -0.921 0.124 148 146 134 0
14.4030 13.3475 -56.5304 -0.206 -0.958 0.200 147 145 133 0
14.7015 14.8300 -57.3000 -0.384 -0.592 0.709 147 145 133 0
14.7494 13.2247 -56.5383 -0.465 -0.712 0.526 147 144 133 0
14.9117 13.0399 -56.4809 -0.328 -0.868 0.373 147 143 134 0
16.7930 23.5892 -61.9106 0.047 -0.907 0.419 147 142 131 0
16.8883 16.7794 -58.6585 -0.342 -0.918 -0.201 145 141 131 0
17.0656 16.7139 -58.6612 -0.342 -0.918 -0.201 145 141 131 0
17.2280 16.5092 -58.5943 -0.443 -0.856 -0.266 146 140 130 0
38.0707 36.3735 -72.1585 -0.034 -0.455 0.890 140 126 115 0
-73.1229 36.7103 -51.1243 0.076 -0.977 -0.198 255 255 255 0
-72.7902 36.5896 -51.1302 0.193 -0.954 -0.229 133 133 134 0
-72.5807 36.6504 -51.2000 0.193 -0.953 -0.234 71 68 68 0
-28.1686 32.4624 -57.7459 0.147 -0.896 -0.419 221 217 218 0
-26.5945 29.5277 -56.6336 -0.658 -0.647 -0.386 219 215 217 0
-23.6283 32.5061 -58.6427 0.142 -0.674 -0.725 214 209 215 0
-23.4493 32.6858 -58.7639 0.144 -0.675 -0.723 213 208 214 0
-13.5441 31.5896 -60.1456 -0.776 -0.476 -0.414 200 197 204 0
-12.9529 32.0138 -60.4643 -0.837 -0.539 -0.097 199 199 206 0
-12.1844 34.0866 -61.6126 -0.411 -0.706 -0.576 200 196 206 0
-11.9912 34.2886 -61.7473 -0.597 -0.628 -0.500 197 194 203 0
-9.2683 29.6051 -60.0129 -0.449 -0.773 -0.447 196 195 205 0
-7.2437 34.2706 -62.6543 0.473 -0.793 -0.384 192 191 199 0
-3.3308 47.0634 -69.5810 -0.860 -0.451 0.237 181 182 186 0
0.2363 14.0148 -54.3246 0.685 -0.652 0.325 183 183 184 0
0.0397 25.6089 -59.8803 0.388 -0.864 0.322 179 179 181 0
1.8866 25.7679 -60.3133 -0.770 -0.629 0.106 178 178 176 0
5.5960 24.9235 -60.6214 -0.473 -0.881 -0.034 171 170 166 0
5.8187 23.1033 -59.7861 0.540 -0.603 0.586 171 170 166 0
7.0299 39.7733 -68.0623 -0.012 -0.773 0.634 166 167 159 0
7.2543 37.2902 -66.9076 -0.038 -0.933 0.358 167 167 159 0
7.4774 36.5785 -66.6073 -0.084 -0.831 0.551 167 168 160 0
11.5603 18.3181 -58.5850 -0.585 -0.803 -0.120 153 153 143 0
14.3369 12.9269 -56.5195 0.133 -0.903 0.408 147 144 133 0
14.5615 13.5097 -56.8440 -0.331 -0.926 0.181 147 144 132 0
14.8743 12.9832 -56.6503 -0.484 -0.729 0.484 146 142 131 0
16.6442 22.3849 -61.5276 0.474 -0.852 0.220 147 142 131 0
17.0306 16.6928 -58.8559 -0.443 -0.856 -0.266 145 141 130 0
25.4166 46.7928 -74.9954 0.975 -0.077 0.209 145 133 121 0
38.0494 36.4048 -72.4203 -0.058 -0.425 0.903 140 128 114 0
-73.2317 36.7360 -51.3873 0.069 -0.979 -0.194 255 255 255 0
-72.9104 36.6325 -51.3990 0.194 -0.955 -0.224 133 133 133 0
-27.5892 29.6655 -56.7563 0.425 -0.839 -0.340 223 217 219 0
-27.8943 31.3706 -57.5238 0.180 -0.868 -0.462 223 219 220 0
-27.2457 29.9975 -56.9834 -0.149 -0.818 -0.556 221 217 218 0
-23.9593 31.0116 -58.1082 0.006 -0.959 -0.282 215 210 214 0
-23.7967 32.0646 -58.6498 0.388 -0.791 -0.473 215 210 216 0
-12.9720 31.8096 -60.6123 -0.888 -0.413 0.201 200 198 208 0
-3.7284 48.1944 -70.3343 -0.867 -0.457 0.197 181 182 186 0
-0.0569 29.6921 -62.0749 0.373 -0.549 0.748 179 179 181 0
5.1173 26.6812 -61.6128 0.147 -0.767 -0.624 171 170 166 0
5.5819 22.7577 -59.8008 -0.408 -0.912 0.041 169 168 164 0
6.5188 40.0362 -68.3552 -0.456 -0.874 0.164 165 166 160 0
7.2079 37.2110 -67.1188 -0.038 -0.933 0.358 165 166 158 0
7.4319 36.6425 -66.8864 -0.085 -0.829 0.553 165 166 158 0
11.5131 18.0842 -58.6788 -0.587 -0.808 0.055 152 152 142 0
11.7822 15.9314 -57.6874 -0.378 -0.541 0.751 151 151 141 0
11.9611 15.8280 -57.6717 -0.378 -0.541 0.751 151 151 141 0
12.1598 16.1030 -57.8433 -0.279 -0.820 0.499 149 148 138 0
15.2180 22.0929 -61.3356 -0.274 -0.816 0.509 148 142 132 0
15.4076 22.0266 -61.3400 -0.274 -0.816 0.509 147 141 131 0
38.4911 50.0189 -79.3546 0.372 -0.920 0.125 147 135 121 0
-73.3540 36.7812 -51.6576 0.069 -0.979 -0.194 255 255 255 0
-73.0281 36.6714 -51.6669 0.194 -0.955 -0.224 133 133 133 0
-72.8166 36.7299 -51.7360 0.193 -0.954 -0.229 71 69 68 0
-28.6967 33.0127 -58.4208 0.223 -0.852 -0.474 220 217 218 0
-28.0158 31.5584 -57.8440 0.180 -0.866 -0.467 221 218 219 0
-27.1436 30.1906 -57.3460 -0.201 -0.835 -0.512 220 216 217 0
-14.4135 34.4950 -61.8924 -0.739 -0.480 -0.473 200 198 204 0
-12.0281 31.1610 -60.7286 -0.454 -0.830 0.324 198 193 203 0
-11.7080 31.8987 -61.1494 -0.561 -0.744 0.363 198 196 205 0
-6.1674 14.1801 -53.5902 -0.428 -0.853 0.299 191 191 201 0
-7.9565 32.0266 -61.9339 0.108 -0.941 -0.321 188 191 198 0
-7.7131 31.8561 -61.8978 -0.244 -0.964 0.102 189 190 197 0
-5.7430 22.9336 -57.9334 0.255 -0.915 -0.313 187 187 194 0
-5.5142 36.0668 -64.3710 0.330 -0.330 0.884 185 186 191 0
-5.0808 36.2920 -64.5641 0.339 -0.664 0.667 188 187 191 0
-0.0594 28.9877 -61.9749 0.348 -0.482 0.804 177 177 179 0
0.1081 29.7263 -62.3667 0.392 -0.473 0.789 176 176 176 0
0.3183 29.7964 -62.4413 0.141 -0.437 0.889 175 175 175 0
4.6720 26.1088 -61.4843 0.091 -0.751 -0.654 169 168 166 0
5.1429 22.6836 -59.9075 -0.640 -0.712 -0.288 167 166 162 0
5.7398 22.7540 -60.0567 -0.328 -0.945 0.010 165 164 162 0
6.4660 41.3891 -69.2686 0.709 -0.057 0.703 163 163 158 0
12.5370 36.3402 -67.9795 0.354 -0.587 0.728 150 149 139 0
12.9953 36.5737 -68.1814 0.335 -0.568 0.752 152 150 139 0
28.8960 40.1102 -72.9645 0.788 -0.524 -0.323 155 139 126 0
38.6855 49.9683 -79.6484 0.801 -0.582 -0.142 144 132 119 0
41.4451 40.2292 -75.4385 0.911 -0.389 0.136 136 122 110 0
43.3345 43.6655 -77.4751 0.495 -0.062 0.867 136 120 108 0
43.3558 37.0916 -74.2789 -0.814 -0.560 0.152 255 255 255 0
-73.5795 36.6091 -51.8022 0.232 -0.941 -0.246 255 255 255 0
-73.4765 36.8264 -51.9283 0.069 -0.979 -0.194 255 255 255 0
-73.1460 36.7104 -51.9352 0.194 -0.955 -0.224 133 133 133 0
-72.9339 36.7682 -52.0042 0.206 -0.954 -0.217 71 68 68 0
-73.1420 38.2011 -52.6649 0.118 -0.977 -0.180 235 224 228 0
-23.8757 27.1322 -56.7285 -0.710 -0.505 -0.491 217 209 220 0
-14.2257 34.4042 -62.1409 -0.781 -0.483 -0.396 201 198 205 0
-13.2491 32.7511 -61.5204 -0.888 -0.438 0.139 197 193 202 0
-12.9561 32.3599 -61.3854 -0.885 -0.424 0.193 197 194 203 0
-12.0622 31.0414 -60.9126 -0.470 -0.824 0.316 198 195 205 0
-12.0829 32.4845 -61.6143 -0.674 -0.601 0.429 198 196 206 0
-7.7893 32.0400 -62.2228 -0.215 -0.972 0.092 187 188 196 0
-4.5653 35.1721 -64.3746 0.461 -0.318 0.829 185 185 187 0
-4.6359 38.2361 -65.8594 0.691 -0.638 -0.339 184 184 187 0
-4.1959 38.4983 -66.0723 0.190 -0.787 0.587 185 184 189 0
0.7716 28.5280 -62.1521 0.068 -0.377 0.924 174 172 177 0
2.4876 27.9820 -62.2152 -0.077 -0.501 -0.862 171 171 170 0
4.6331 25.9027 -61.6111 0.286 -0.780 -0.556 166 165 163 0
5.6978 22.8106 -60.3038 -0.319 -0.948 0.002 163 162 159 0
6.2245 34.5400 -66.1410 -0.118 -0.678 -0.726 162 161 157 0
12.3451 37.9799 -69.0005 0.047 -0.686 0.726 151 149 140 0
12.4518 30.9558 -65.5861 -0.519 -0.813 -0.265 151 148 138 0
12.6496 30.6593 -65.4791 -0.471 -0.779 -0.414 151 147 137 0
15.0514 34.6656 -67.9003 -0.236 -0.643 0.728 148 141 132 0
16.3962 29.8875 -65.8224 0.386 -0.265 0.884 143 140 129 0
24.0801 39.9062 -72.1997 0.118 -0.967 0.227 142 132 122 0
28.7690 19.0704 -62.9126 -0.252 -0.899 0.358 149 133 120 0
41.3682 40.0624 -75.6015 0.915 -0.375 0.151 135 121 110 0
-75.5627 38.9965 -52.8659 0.010 -0.985 -0.170 255 255 255 0
-73.5992 36.8717 -52.1996 0.069 -0.979 -0.194 255 255 255 0
-73.2641 36.7495 -52.2039 0.194 -0.955 -0.224 133 133 133 0
-73.0497 36.8041 -52.2720 0.206 -0.954 -0.217 71 68 67 0
-72.4373 37.0154 -52.4934 -0.123 -0.990 -0.073 235 225 228 0
-29.2979 31.6182 -58.1327 -0.575 -0.640 -0.510 220 219 217 0
-24.4856 28.2927 -57.4239 -0.711 -0.541 -0.450 219 209 222 0
-19.2699 30.2922 -59.4085 -0.587 -0.632 -0.506 207 204 213 0
-18.9506 29.8740 -59.2644 -0.585 -0.633 -0.506 207 205 212 0
-18.6004 29.3145 -59.0569 -0.543 -0.648 -0.535 207 206 212 0
-16.2007 30.4315 -60.0667 0.801 -0.397 0.448 203 200 208 0
-12.1851 32.7658 -61.9850 -0.614 -0.571 0.545 197 195 206 0
-11.7779 31.6631 -61.5216 -0.683 -0.601 0.414 197 195 206 0
-11.4764 31.1785 -61.3415 -0.500 -0.837 0.223 197 195 206 0
-5.8207 9.7457 -51.9005 -0.354 -0.935 -0.032 191 190 198 0
-7.6363 33.9158 -63.4241 -0.291 -0.781 -0.553 188 188 196 0
-6.2855 30.1196 -61.8190 -0.689 -0.664 -0.291 186 187 192 0
-4.4571 40.7265 -67.3805 0.681 -0.642 -0.352 182 181 185 0
-4.9771 48.9976 -71.3434 -0.589 -0.398 0.704 181 181 183 0
-0.0546 27.4528 -61.7064 0.324 -0.421 0.847 174 174 175 0
4.3554 27.1041 -62.3826 -0.516 -0.755 -0.404 166 164 164 0
4.5896 25.9200 -61.8460 0.290 -0.776 -0.560 165 164 162 0
12.4133 31.0062 -65.8479 -0.522 -0.810 -0.267 150 146 135 0
12.6357 31.1864 -65.9792 -0.496 -0.838 -0.230 149 145 134 0
14.0717 33.6967 -67.4882 -0.784 -0.539 -0.308 144 145 137 0
14.7290 33.7553 -67.6433 -0.452 -0.549 0.703 146 142 133 0
14.9895 34.3680 -67.9944 -0.219 -0.649 0.729 146 141 132 0
15.2101 34.3921 -68.0486 -0.219 -0.669 0.711 146 139 131 0
27.3008 40.4547 -73.3501 -0.442 -0.818 0.367 150 138 124 0
28.7794 23.7009 -65.4047 -0.412 -0.566 -0.714 150 134 121 0
36.9772 32.7912 -71.4453 0.840 -0.421 -0.343 140 129 116 0
40.7970 38.9281 -75.1939 0.879 -0.392 0.270 135 121 110 0
-73.6407 36.7980 -52.4282 0.204 -0.944 -0.258 255 255 255 0
-73.3778 36.7818 -52.4707 0.188 -0.957 -0.220 133 133 133 0
-73.1656 36.8400 -52.5401 0.206 -0.954 -0.217 69 68 67 0
-72.9189 36.8475 -52.5912 0.007 -0.991 -0.136 229 223 220 0
-72.6379 36.8041 -52.6237 -0.021 -0.992 -0.127 233 224 224 0
-29.2482 31.9736 -58.5711 -0.605 -0.624 -0.495 221 219 217 0
-29.2031 33.2755 -59.2221 -0.645 -0.572 -0.507 221 218 217 0
-24.7901 29.1413 -58.0296 -0.711 -0.542 -0.448 219 209 219 0
-22.4223 23.8412 -55.8692 -0.681 -0.487 -0.547 214 207 214 0
-14.4262 34.8755 -62.8487 -0.846 -0.482 -0.230 198 197 202 0
-11.5265 31.1542 -61.5693 -0.449 -0.840 0.304 196 194 205 0
-11.2998 31.1198 -61.5959 -0.674 -0.720 0.166 196 194 205 0
-9.5597 31.2921 -62.0150 0.590 -0.177 0.788 192 191 199 0
-9.5229 32.5622 -62.6487 0.099 -0.469 0.878 191 190 198 0
-7.8386 31.6167 -62.5056 -0.392 -0.897 0.205 188 187 195 0
-7.9363 34.0840 -63.7042 -0.154 -0.756 -0.636 188 187 194 0
-4.2750 40.7384 -67.6905 0.848 -0.519 0.110 180 180 184 0
-1.5518 29.9031 -62.8672 0.220 -0.880 0.421 174 174 179 0
-1.4275 34.1311 -64.9772 -0.133 -0.659 0.741 175 175 177 0
1.6631 30.1349 -63.5988 -0.565 -0.747 0.350 171 171 171 0
1.8851 29.9801 -63.5650 -0.556 -0.653 0.514 170 170 170 0
2.1249 29.4000 -63.3249 -0.597 -0.649 0.471 168 168 168 0
2.5765 28.7726 -63.1020 0.070 -0.573 -0.817 166 165 165 0
2.9271 30.8267 -64.1828 -0.316 -0.568 -0.760 166 164 166 0
4.5629 25.1748 -61.7083 0.353 -0.886 -0.299 164 163 161 0
5.5760 25.8889 -62.2551 -0.045 -0.984 -0.175 162 162 159 0
7.7168 39.2958 -69.2811 0.686 -0.721 -0.093 161 155 154 0
12.2967 29.4501 -65.3026 -0.170 -0.814 -0.555 150 145 135 0
12.5997 31.2866 -66.2669 -0.496 -0.838 -0.230 150 145 136 0
12.9014 32.9648 -67.1528 -0.247 -0.955 0.165 150 145 136 0
13.8696 34.6495 -68.1699 -0.791 -0.548 -0.273 146 144 136 0
14.6441 33.1038 -67.5560 -0.443 -0.810 -0.384 146 142 133 0
14.9489 34.3727 -68.2406 -0.129 -0.834 -0.536 146 142 133 0
15.1739 31.4668 -66.8500 -0.372 -0.479 0.795 142 139 127 0
15.3816 31.3915 -66.8528 -0.346 -0.485 0.803 144 138 130 0
16.3752 28.1068 -65.4228 0.489 -0.405 0.773 144 137 127 0
26.8884 40.9341 -73.7703 -0.018 -0.987 0.161 152 140 126 0
28.8934 23.4594 -65.5333 -0.273 -0.555 -0.786 150 132 120 0
38.9574 34.7665 -73.0445 -0.215 -0.722 0.657 139 125 114 0
40.1035 36.5722 -74.1554 -0.078 -0.942 0.328 137 123 112 0
-73.9371 36.7287 -52.6101 0.225 -0.941 -0.251 255 255 255 0
-73.7321 36.7972 -52.6834 0.225 -0.941 -0.251 255 255 255 0
-73.4960 36.8205 -52.7402 0.188 -0.957 -0.220 133 133 133 0
-73.2833 36.8783 -52.8096 0.188 -0.957 -0.220 70 69 68 0
-73.0340 36.8822 -52.8594 0.031 -0.987 -0.159 230 225 222 0
-72.7712 36.8661 -52.9018 0.013 -0.989 -0.150 233 227 224 0
-72.6655 37.0830 -53.0296 -0.123 -0.990 -0.073 233 227 227 0
-33.1532 32.4744 -58.3248 0.657 -0.601 -0.454 224 222 222 0
-23.8422 25.6431 -56.7253 -0.645 -0.555 -0.525 219 210 218 0
-19.0161 26.0141 -57.8349 -0.323 -0.774 -0.544 207 204 213 0
-18.7776 25.9107 -57.8294 -0.323 -0.774 -0.544 207 204 215 0
-17.5247 26.0269 -58.1273 -0.383 -0.595 -0.706 205 202 211 0
-14.1755 34.4451 -62.9418 -0.875 -0.476 0.087 195 194 199 0
-13.0843 32.1451 -62.0112 -0.796 -0.588 0.144 195 192 201 0
-12.0352 27.4214 -59.8715 0.528 -0.847 -0.051 195 192 201 0
-11.5790 31.1446 -61.8042 -0.466 -0.829 0.307 195 193 204 0
-10.6449 29.4413 -61.1392 -0.498 -0.780 0.379 194 192 202 0
-10.6679 30.9730 -61.8939 -0.766 -0.634 0.108 192 190 200 0
-9.8983 31.7252 -62.4143 0.112 -0.450 0.886 191 190 198 0
-8.5812 31.8149 -62.7114 -0.570 -0.786 0.239 186 186 192 0
-8.3329 31.6171 -62.6610 -0.462 -0.831 0.311 187 186 192 0
-7.9222 31.8550 -62.8577 -0.312 -0.927 0.207 187 186 192 0
-7.6831 33.4506 -63.6943 -0.066 -0.871 -0.486 187 186 192 0
-7.4828 33.6421 -63.8277 -0.054 -0.867 -0.496 186 185 191 0
-7.0350 31.8377 -63.0193 -0.707 -0.561 -0.431 186 185 191 0
-5.4321 31.3196 -63.0700 0.740 -0.605 0.295 182 183 187 0
-5.2392 31.5671 -63.2296 0.812 -0.424 0.401 181 181 185 0
-1.6216 33.0709 -64.6688 -0.048 -0.702 0.711 173 173 176 0
-1.2519 34.1086 -65.2540 -0.236 -0.624 0.745 173 173 175 0
0.8467 28.4924 -62.8732 0.278 -0.309 0.909 169 167 168 0
1.0594 28.4830 -62.9094 0.282 -0.314 0.907 168 166 167 0
1.1509 30.8175 -64.0839 -0.491 -0.867 0.087 167 166 165 0
1.8437 29.8714 -63.7479 -0.556 -0.653 0.514 168 168 166 0
2.0670 29.6716 -63.6917 -0.599 -0.622 0.504 167 167 166 0
2.2781 29.7426 -63.7674 -0.652 -0.709 0.270 166 166 164 0
2.4707 30.2787 -64.0701 -0.730 -0.653 0.203 166 166 164 0
2.6846 30.3109 -64.1270 -0.505 -0.768 0.393 165 165 163 0
2.8456 31.8064 -64.8991 0.417 -0.908 -0.039 165 164 164 0
4.5245 24.9706 -61.8334 0.455 -0.851 -0.262 163 162 158 0
7.2045 37.6806 -68.6464 0.736 -0.648 -0.197 160 154 154 0
12.2619 29.5686 -65.5963 -0.052 -0.710 -0.702 151 144 136 0
12.5795 31.7030 -66.7150 -0.587 -0.786 -0.191 150 143 135 0
14.6107 33.2118 -67.8524 -0.724 -0.606 -0.329 143 139 130 0
14.8981 34.2322 -68.4132 -0.085 -0.760 -0.644 142 139 129 0
29.5593 23.9882 -66.1486 -0.011 -0.567 -0.824 151 134 123 0
30.1747 17.5286 -63.0654 -0.519 -0.705 -0.483 144 130 119 0
30.3604 17.5441 -63.1087 -0.362 -0.918 0.163 144 131 119 0
40.6984 38.7859 -75.6190 -0.215 -0.947 -0.239 135 121 110 0
40.9038 38.7357 -75.6335 -0.226 -0.945 -0.238 136 122 111 0
42.9459 42.7393 -78.0094 -0.200 -0.975 0.096 135 118 108 0
-73.8486 36.8330 -52.9522 0.233 -0.940 -0.251 255 255 255 0
-73.6143 36.8593 -53.0101 0.188 -0.957 -0.220 133 133 133 0
-73.4015 36.9171 -53.0797 0.188 -0.957 -0.220 70 69 68 0
-73.1448 36.9105 -53.1256 0.036 -0.987 -0.158 230 225 222 0
-72.9213 36.9528 -53.1895 0.050 -0.987 -0.152 232 227 224 0
-72.7798 37.1169 -53.2983 -0.123 -0.990 -0.073 233 227 226 0
-23.8264 24.6483 -56.4731 -0.669 -0.586 -0.457 219 213 216 0
-16.4330 38.6922 -64.8809 0.024 -0.900 -0.435 198 196 201 0
-15.7719 36.4975 -63.9151 -0.030 -0.970 -0.239 198 196 201 0
-13.0227 31.4848 -61.9467 -0.607 -0.792 -0.067 194 191 200 0
-12.5745 31.4647 -62.0226 -0.749 -0.619 0.237 194 191 201 0
-10.7287 29.6341 -61.4651 -0.436 -0.897 0.076 192 191 199 0
-10.6804 30.7118 -62.0108 -0.545 -0.786 0.292 191 190 198 0
-10.4561 30.6855 -62.0407 -0.656 -0.693 0.297 191 190 198 0
-9.2462 24.2397 -59.0639 0.388 -0.813 -0.435 190 189 197 0
-8.3135 34.4231 -64.3118 -0.166 -0.404 0.900 185 184 189 0
-9.0823 45.9091 -69.8821 0.780 -0.345 0.523 184 183 189 0
-1.5078 33.8687 -65.3401 -0.229 -0.707 0.669 171 171 172 0
2.2330 29.7196 -63.9916 -0.649 -0.714 0.262 164 165 160 0
2.7667 32.6904 -65.5727 -0.036 -0.998 0.060 164 164 162 0
3.2164 32.3750 -65.5019 0.047 -0.999 -0.003 163 163 161 0
3.6952 30.9603 -64.8895 0.209 -0.608 -0.766 162 162 160 0
3.9050 31.1916 -65.0448 0.234 -0.638 -0.734 162 162 159 0
5.6964 25.8807 -62.7444 -0.036 -0.966 0.255 159 158 154 0
9.5139 41.4553 -71.2289 -0.188 -0.821 -0.539 151 152 144 0
12.5431 31.8003 -67.0033 -0.587 -0.786 -0.191 148 142 132 0
21.2398 22.1603 -63.8712 0.975 -0.072 0.208 138 130 119 0
31.1313 19.3406 -64.3632 0.321 -0.839 -0.439 140 130 118 0
39.0538 39.3305 -75.8323 0.391 -0.715 0.579 137 124 112 0
39.3529 39.6201 -76.0337 0.374 -0.701 0.607 139 124 113 0
39.4547 39.1762 -75.8323 -0.432 -0.764 0.479 137 122 111 0
41.0277 39.2759 -76.1834 -0.332 -0.842 -0.426 135 120 110 0
42.9123 42.7259 -78.2619 -0.225 -0.966 0.131 134 119 106 0
-74.1446 36.7624 -53.1339 0.220 -0.942 -0.255 255 255 255 0
-73.9390 36.8305 -53.2073 0.270 -0.928 -0.256 255 255 255 0
-73.7329 36.8981 -53.2806 0.188 -0.957 -0.220 133 133 133 0
-73.5199 36.9560 -53.3503 0.188 -0.957 -0.220 69 69 67 0
-73.2632 36.9497 -53.3963 0.036 -0.987 -0.158 230 225 222 0
-73.0370 36.9884 -53.4590 0.050 -0.987 -0.152 234 228 224 0
-72.8557 37.0935 -53.5462 -0.140 -0.990 0.003 233 228 225 0
-32.9102 32.7170 -59.0062 -0.609 -0.694 0.383 224 220 221 0
-32.7243 32.8470 -59.1068 -0.363 -0.887 0.284 223 219 220 0
-21.8912 17.1287 -53.3219 -0.514 -0.632 0.580 217 215 214 0
-24.0020 25.0501 -56.8784 -0.547 -0.570 -0.613 218 214 215 0
-23.4380 26.8390 -57.8808 -0.536 -0.773 -0.339 214 209 215 0
-16.8765 39.4326 -65.4338 -0.637 -0.771 0.003 198 197 200 0
-16.5233 38.8483 -65.2093 0.024 -0.900 -0.435 197 195 199 0
-15.8443 36.5686 -64.1994 -0.053 -0.966 -0.253 198 196 200 0
-15.9263 38.2133 -65.0061 -0.490 -0.776 -0.398 196 195 198 0
-12.8653 24.4169 -58.6941 -0.819 -0.563 -0.110 195 194 197 0
-10.9814 29.5182 -61.6054 -0.464 -0.837 0.291 190 189 197 0
-9.1851 24.8719 -59.6262 0.281 -0.959 -0.029 188 187 195 0
-9.1881 46.2821 -70.3305 0.768 -0.188 0.612 183 182 187 0
-8.4349 46.2454 -70.4564 0.539 -0.407 0.737 182 181 186 0
-8.5203 49.0662 -71.8504 -0.075 -0.919 -0.387 181 180 185 0
-6.0925 38.4669 -67.0157 -0.746 -0.655 0.118 179 178 183 0
2.1942 29.5503 -64.1441 -0.595 -0.436 0.675 162 163 157 0
3.8211 25.0951 -62.2280 -0.539 -0.842 0.033 162 162 161 0
4.3360 29.3369 -64.4475 -0.802 -0.509 0.314 160 159 155 0
5.8327 28.5620 -64.3466 -0.227 -0.974 -0.023 157 156 152 0
6.8834 37.4216 -68.9774 0.824 -0.560 0.088 155 154 152 0
7.1120 38.0777 -69.3493 0.689 -0.717 -0.108 154 153 151 0
7.3432 38.7519 -69.7306 0.748 -0.607 -0.268 154 153 149 0
13.9002 33.5925 -68.4064 -0.459 -0.574 -0.678 146 142 132 0
14.3001 33.0311 -68.2023 -0.802 -0.513 -0.306 146 139 131 0
17.2179 31.7929 -68.1419 0.356 -0.552 0.754 142 133 124 0
20.6930 17.1108 -61.4663 -0.305 -0.938 0.167 137 129 118 0
28.1478 22.1509 -65.4136 0.372 -0.762 -0.530 149 135 122 0
28.5644 23.2347 -66.0353 0.407 -0.667 -0.624 149 136 122 0
30.1728 18.5286 -63.9902 -0.187 -0.581 -0.792 142 129 119 0
39.3377 39.6765 -76.3187 0.171 -0.599 0.782 139 126 113 0
39.4184 39.1536 -76.0727 -0.330 -0.700 0.634 137 125 112 0
-74.2678 36.8071 -53.4067 0.227 -0.943 -0.244 255 255 255 0
-74.0520 36.8606 -53.4748 0.238 -0.940 -0.246 255 255 255 0
-73.8516 36.9369 -53.5515 0.188 -0.957 -0.220 133 133 133 0
-73.6385 36.9949 -53.6213 0.188 -0.957 -0.220 70 69 68 0
-73.4262 37.0542 -53.6917 0.200 -0.954 -0.223 230 225 221 0
-73.1265 36.9849 -53.7143 0.013 -0.989 -0.150 233 227 224 0
-23.2049 18.6753 -54.0686 -0.859 -0.494 0.132 216 212 213 0
-22.2149 17.3695 -53.6022 -0.632 -0.627 0.456 217 213 213 0
-21.9187 17.0369 -53.4919 -0.797 -0.574 0.189 215 213 212 0
-21.6596 16.8265 -53.4357 -0.577 -0.721 0.384 215 213 213 0
-23.6897 25.2458 -57.2755 -0.535 -0.638 -0.554 215 211 215 0
-23.8258 26.4701 -57.8643 -0.702 -0.635 -0.322 214 210 214 0
-18.1081 26.9029 -59.1754 0.527 -0.645 -0.554 204 201 208 0
-7.1758 33.5131 -64.5862 0.017 -0.249 0.968 181 180 185 0
-6.1551 38.5441 -67.3079 -0.747 -0.649 0.143 179 178 183 0
-6.0714 39.9434 -68.0266 -0.793 -0.608 0.038 179 178 182 0
-5.7979 39.5943 -67.9037 -0.793 -0.608 0.038 178 177 181 0
-5.6249 40.2013 -68.2416 -0.609 -0.779 -0.153 178 178 180 0
-0.8803 33.0419 -65.5538 0.646 -0.107 0.756 166 166 167 0
-0.6727 33.2557 -65.7009 0.646 -0.107 0.756 166 166 167 0
-0.4713 33.5767 -65.9006 0.627 -0.161 0.762 166 166 166 0
-0.2604 33.7634 -66.0347 0.627 -0.161 0.762 165 165 165 0
3.5618 25.4349 -62.5833 -0.212 -0.952 0.219 160 160 160 0
4.0738 29.5020 -64.7237 -0.795 -0.513 0.323 160 157 154 0
5.8182 25.7525 -63.1744 -0.452 -0.786 0.422 157 156 151 0
6.8390 34.6277 -67.8267 -0.394 -0.838 -0.377 156 152 151 0
8.8843 37.4315 -69.6260 -0.733 -0.525 -0.433 152 152 143 0
9.9059 42.1273 -72.1796 -0.158 -0.769 -0.620 149 150 143 0
17.1292 31.2439 -68.0958 0.422 -0.558 0.715 142 133 124 0
18.5508 37.0503 -71.2837 0.214 -0.531 0.820 139 132 120 0
19.8593 13.9259 -59.9211 -0.482 -0.675 0.559 139 130 120 0
29.1449 25.2270 -67.3726 -0.007 -0.809 -0.588 149 135 122 0
30.3548 19.4247 -64.6902 -0.187 -0.581 -0.792 142 129 119 0
39.5010 39.5709 -76.5569 0.355 -0.790 0.500 138 127 113 0
39.5165 38.0064 -75.7742 -0.004 -0.402 0.916 135 125 115 0
-73.9706 36.9759 -53.8228 0.188 -0.957 -0.220 133 133 133 0
-73.7574 37.0339 -53.8928 0.188 -0.957 -0.220 70 70 68 0
-73.5446 37.0929 -53.9632 0.200 -0.954 -0.223 230 224 223 0
-73.2522 37.0348 -53.9898 0.008 -0.988 -0.152 234 226 224 0
-27.1453 15.3649 -51.8710 -0.368 -0.767 0.525 224 220 221 0
-21.9758 17.0456 -53.7067 -0.797 -0.574 0.189 215 213 214 0
-21.8179 17.1819 -53.8056 -0.708 -0.583 0.398 214 212 213 0
-19.5407 43.5117 -67.5214 -0.216 -0.714 0.666 202 194 205 0
-17.0335 38.4189 -65.4317 -0.585 -0.735 -0.343 197 196 201 0
-15.8938 39.9189 -66.4061 0.027 -0.664 -0.748 194 194 197 0
-9.3101 40.6870 -68.0518 -0.255 -0.525 0.812 182 182 183 0
-6.4740 38.8176 -67.6509 -0.775 -0.622 -0.110 179 178 184 0
-6.1193 39.8808 -68.2549 -0.781 -0.622 0.065 177 177 181 0
-5.9382 40.4055 -68.5542 -0.632 -0.774 -0.032 176 176 178 0
-5.6904 40.3067 -68.5517 -0.605 -0.777 -0.174 176 176 178 0
-5.5326 41.0870 -68.9754 -0.790 -0.611 -0.044 176 175 179 0
3.5231 25.2791 -62.7326 -0.227 -0.956 0.187 159 159 158 0
3.7493 24.5919 -62.4292 -0.497 -0.868 0.019 160 160 158 0
4.0102 22.5785 -61.4636 -0.048 -0.999 0.021 160 159 156 0
4.2083 22.6587 -61.5419 -0.046 -0.999 0.018 159 156 153 0
7.2486 38.4559 -70.0909 0.880 -0.466 -0.089 152 151 147 0
12.4361 27.8793 -65.7475 0.115 -0.930 -0.348 146 140 137 0
12.6247 27.5146 -65.5996 -0.595 -0.756 0.272 145 140 136 0
12.8244 27.3796 -65.5697 -0.598 -0.735 0.318 145 140 136 0
14.3455 25.5003 -64.9124 -0.184 -0.895 0.407 142 138 127 0
14.6408 18.8296 -61.6042 0.324 -0.939 0.119 142 138 127 0
14.8404 18.9545 -61.7054 0.263 -0.960 0.101 142 137 128 0
17.0527 30.8261 -68.1161 0.479 -0.541 0.691 141 133 123 0
18.4340 36.2703 -71.1261 -0.173 -0.822 0.543 139 131 120 0
19.4108 37.1120 -71.7374 0.571 -0.647 -0.506 141 132 122 0
19.7155 37.8690 -72.1774 0.610 -0.635 -0.474 139 130 121 0
28.7983 24.6515 -67.2464 0.482 -0.622 -0.617 150 136 123 0
29.1712 25.4969 -67.7441 -0.007 -0.809 -0.588 150 136 122 0
29.4352 17.9550 -63.9904 -0.461 -0.689 0.559 144 131 122 0
39.3674 38.3729 -76.1872 0.119 -0.738 0.664 137 126 114 0
-74.0898 37.0149 -54.0946 0.188 -0.957 -0.220 133 133 133 0
-73.8764 37.0730 -54.1648 0.188 -0.957 -0.220 70 69 69 0
-73.6633 37.1317 -54.2353 0.200 -0.954 -0.223 231 225 225 0
-73.3635 37.0631 -54.2578 -0.003 -0.987 -0.162 235 226 227 0
-73.1381 37.1039 -54.3214 -0.021 -0.994 -0.103 234 227 227 0
-22.3772 17.5465 -54.1054 -0.817 -0.575 0.047 213 211 214 0
-22.0329 17.0543 -53.9217 -0.797 -0.574 0.189 213 211 213 0
-21.8871 17.2319 -54.0395 -0.729 -0.581 0.361 213 211 214 0
-23.3889 29.9848 -60.2134 -0.808 -0.511 0.293 212 208 213 0
-19.7861 23.7212 -57.7282 0.595 -0.329 0.734 207 205 211 0
-18.2277 21.6426 -56.9727 -0.066 -0.541 0.839 204 201 210 0
-18.8361 24.9938 -58.5543 0.094 -0.995 0.030 202 199 208 0
-18.5214 25.4522 -58.8466 0.217 -0.886 0.411 202 199 206 0
-18.3146 25.4783 -58.8993 0.217 -0.886 0.411 201 198 205 0
-18.1272 25.5867 -58.9900 -0.002 -0.930 0.367 201 199 205 0
-18.2785 43.0853 -67.8259 -0.636 -0.758 -0.148 196 195 200 0
-16.7688 37.9796 -65.5276 0.180 -0.824 0.537 196 195 200 0
-16.5991 38.3187 -65.7318 0.202 -0.763 0.614 196 195 200 0
-16.6793 41.1892 -67.1707 0.761 -0.541 0.358 194 193 198 0
-16.5442 41.7516 -67.4814 0.773 -0.564 0.292 193 193 197 0
-16.0687 40.5257 -66.9511 0.027 -0.664 -0.748 193 192 198 0
-13.3845 36.1560 -65.2499 -0.835 -0.497 -0.237 189 186 195 0
-13.0974 35.8333 -65.1412 -0.821 -0.505 -0.269 189 186 195 0
-12.4634 33.4540 -64.0570 -0.847 -0.527 0.074 189 186 195 0
-11.2547 45.4898 -70.3851 0.272 -0.942 0.197 185 183 188 0
-11.0047 45.4841 -70.4299 0.247 -0.952 0.178 184 182 187 0
-7.1282 42.0115 -69.4108 0.037 -0.977 -0.211 176 174 181 0
-6.8161 41.3802 -69.1506 0.148 -0.966 -0.211 177 176 182 0
-6.4804 40.5107 -68.7742 -0.669 -0.663 -0.336 177 176 181 0
-5.9655 40.1460 -68.6878 -0.541 -0.814 0.212 175 175 179 0
-1.2059 19.3810 -59.0769 0.007 -0.216 0.976 167 166 171 0
-1.4447 33.3414 -66.1037 0.178 -0.484 0.857 166 166 168 0
-1.1357 32.1307 -65.5493 0.201 -0.455 0.868 166 166 167 0
-0.9601 32.7754 -65.9095 0.295 -0.439 0.849 165 165 165 0
7.2018 38.4952 -70.3654 0.884 -0.455 -0.106 152 151 147 0
14.6249 19.0804 -61.9472 0.450 -0.820 0.355 140 136 127 0
14.8025 18.9196 -61.8997 0.406 -0.892 0.198 140 136 128 0
18.6635 36.7452 -71.6673 0.512 -0.726 0.459 139 131 120 0
19.6442 37.5767 -72.2758 0.549 -0.798 -0.248 138 129 121 0
28.9957 25.7525 -68.0711 0.210 -0.647 -0.733 151 135 123 0
29.3176 26.3441 -68.4322 -0.367 -0.929 0.038 152 136 123 0
36.4235 46.7769 -80.1402 0.115 -0.910 -0.399 144 131 119 0
36.6762 46.8451 -80.2230 0.064 -0.903 -0.424 143 129 117 0
-73.7357 37.1026 -54.4820 0.045 -0.983 -0.180 232 226 228 0
-73.4969 37.1239 -54.5384 0.045 -0.983 -0.180 236 228 229 0
-73.2507 37.1343 -54.5906 -0.021 -0.994 -0.103 233 227 227 0
-26.6220 14.6679 -52.0540 0.462 -0.601 0.652 224 220 221 0
-25.7037 13.1416 -51.4526 -0.122 -0.743 -0.658 222 219 220 0
-22.1085 17.1250 -54.1651 -0.757 -0.558 0.339 215 211 215 0
-19.9315 20.0964 -56.0923 -0.338 -0.405 0.850 208 206 211 0
-18.6276 26.5614 -59.6304 -0.190 -0.908 0.373 201 198 206 0
-18.1270 25.3491 -59.1091 0.128 -0.827 0.548 200 197 204 0
-18.3484 27.2089 -60.0131 0.657 -0.721 0.221 201 199 204 0
-19.6202 43.2882 -67.9518 0.136 -0.604 0.786 198 194 199 0
-17.2551 41.3358 -67.4095 0.645 -0.525 0.555 194 193 199 0
-16.8771 41.8955 -67.7664 0.819 -0.507 0.269 194 193 198 0
-7.3960 32.2214 -64.6527 0.084 -0.592 0.802 179 178 184 0
-6.9446 32.1689 -64.7121 -0.016 -0.141 0.990 180 178 184 0
-6.7794 32.6429 -64.9848 -0.015 -0.138 0.990 179 177 183 0
-6.4596 39.8247 -68.6999 -0.674 -0.738 0.048 175 173 180 0
-6.2462 40.0411 -68.8507 -0.697 -0.707 0.124 174 173 179 0
-6.0406 40.3370 -69.0405 -0.512 -0.852 0.108 175 173 178 0
-3.4852 30.7496 -64.6498 0.420 -0.810 -0.410 172 172 173 0
-3.1726 29.7166 -64.1839 0.187 -0.930 -0.316 171 171 173 0
-2.9476 29.6205 -64.1778 0.251 -0.915 -0.314 172 172 172 0
-2.8192 30.6262 -64.7140 0.549 -0.827 -0.123 172 172 172 0
-1.7187 33.3611 -66.3155 0.656 -0.419 0.628 167 167 169 0
0.1620 31.7096 -65.8340 0.098 -0.647 -0.756 164 164 161 0
1.9202 26.8551 -63.6993 -0.267 -0.562 0.783 161 159 160 0
2.1354 26.7211 -63.6722 -0.356 -0.595 0.721 160 158 159 0
4.2086 27.2616 -64.3427 0.598 -0.780 -0.188 156 155 151 0
4.4108 27.5677 -64.5370 0.618 -0.783 -0.072 156 155 151 0
4.6204 27.5831 -64.5848 0.819 -0.569 -0.080 156 157 151 0
5.4852 25.6767 -63.7798 -0.399 -0.755 0.521 155 156 151 0
11.5157 44.8308 -74.6758 -0.405 -0.595 -0.694 144 143 139 0
12.3916 28.5915 -66.5802 -0.381 -0.924 -0.035 143 140 137 0
17.7242 47.3113 -77.1222 -0.158 -0.978 -0.133 139 135 126 0
38.9011 34.5182 -74.6525 -0.583 -0.810 -0.064 137 122 112 0
39.0532 34.3010 -74.5710 -0.468 -0.775 -0.425 136 120 110 0
-73.9205 37.2377 -54.7914 0.219 -0.941 -0.257 232 225 226 0
-73.7030 37.2910 -54.8601 0.223 -0.939 -0.261 236 228 229 0
-73.4064 37.2278 -54.8843 -0.018 -0.996 -0.092 234 228 228 0
-26.8794 14.1354 -51.9504 0.187 -0.319 0.929 225 221 222 0
-29.5199 27.1562 -58.1010 -0.341 -0.763 0.548 223 217 219 0
-28.6689 32.8654 -61.1807 -0.021 -0.525 0.851 218 215 218 0
-28.4145 32.7889 -61.1901 -0.041 -0.534 0.844 215 213 216 0
-20.0501 24.3148 -58.4537 0.199 -0.972 0.128 204 201 210 0
-18.9394 24.0946 -58.5529 0.424 -0.885 0.194 203 200 209 0
-18.4530 25.5904 -59.4099 -0.247 -0.763 0.597 200 197 205 0
-18.5378 26.8540 -60.0395 0.472 -0.741 0.478 200 197 204 0
-18.3428 26.9430 -60.1222 0.465 -0.737 0.491 201 199 204 0
-18.0488 26.6066 -60.0062 0.495 -0.777 0.389 201 199 203 0
-17.2178 27.7078 -60.7274 0.011 -0.668 0.744 198 196 200 0
-19.7014 42.2218 -67.6709 0.192 -0.460 0.867 195 193 196 0
-17.6797 41.9341 -67.9092 -0.279 -0.790 0.546 194 193 199 0
-17.4547 42.0330 -68.0026 0.712 -0.587 0.386 193 192 198 0
-15.6626 45.6896 -70.2127 0.709 -0.704 -0.042 187 185 190 0
-11.8111 32.9433 -64.4331 -0.836 -0.536 0.116 186 185 192 0
-11.9404 45.9408 -71.0504 0.199 -0.955 -0.221 182 179 188 0
-6.0051 31.2792 -64.6892 -0.694 -0.690 -0.205 178 175 181 0
-5.7359 30.8480 -64.5202 -0.705 -0.673 -0.223 175 172 180 0
-6.0920 40.3038 -69.2844 -0.499 -0.861 0.096 174 172 178 0
-3.6451 29.6136 -64.2878 0.277 -0.907 -0.318 172 172 172 0
-3.4375 29.7078 -64.3755 0.277 -0.907 -0.318 171 171 171 0
-3.2187 29.6840 -64.4050 0.274 -0.909 -0.313 171 171 171 0
-2.8413 30.3161 -64.8000 0.505 -0.850 -0.148 171 171 171 0
-1.1639 20.2073 -59.9539 -0.246 -0.501 0.830 168 167 169 0
-1.4457 35.0710 -67.4957 0.415 -0.431 0.802 165 164 163 0
0.0672 32.4837 -66.4619 0.063 -0.682 -0.729 163 164 159 0
0.3064 32.1687 -66.3466 -0.066 -0.659 -0.749 163 164 160 0
0.5246 32.2032 -66.4057 -0.040 -0.605 -0.795 163 164 160 0
3.5332 27.3393 -64.4936 0.060 -0.950 0.306 157 156 153 0
3.7743 26.2728 -63.9945 -0.053 -0.803 0.594 157 156 154 0
3.9864 26.1125 -63.9530 -0.069 -0.797 0.600 156 155 153 0
4.7839 27.7041 -64.9183 0.754 -0.618 -0.223 154 154 149 0
5.0299 25.6911 -63.9365 -0.309 -0.948 0.076 156 155 150 0
5.4442 25.5428 -63.9397 -0.343 -0.937 0.063 154 153 149 0
5.6499 25.5491 -63.9821 -0.117 -0.979 0.165 152 151 147 0
5.8555 25.5576 -64.0257 -0.336 -0.933 0.130 151 152 146 0
6.2906 21.7286 -62.1519 -0.607 -0.774 0.182 151 152 146 0
6.4901 21.4063 -62.0252 -0.612 -0.778 0.140 152 151 147 0
6.8786 36.0839 -69.5997 -0.234 -0.942 -0.240 151 150 146 0
13.8155 25.3467 -65.4348 -0.162 -0.594 -0.788 142 138 133 0
33.1705 42.9544 -78.1212 0.418 -0.123 0.900 148 132 119 0
33.6237 43.9969 -78.7403 0.247 -0.238 0.939 147 131 118 0
35.4151 28.5893 -71.2081 0.373 -0.226 0.900 145 129 116 0
38.8354 34.3840 -74.8211 -0.315 -0.745 -0.588 138 121 113 0
-74.0527 37.2956 -55.0721 0.215 -0.936 -0.279 233 226 225 0
-73.8463 37.3654 -55.1472 0.215 -0.936 -0.279 236 229 226 0
-26.8972 13.4845 -51.8296 0.367 -0.623 0.691 224 220 221 0
-29.6410 27.9862 -58.7499 -0.408 -0.778 0.478 221 215 219 0
-25.9572 20.6979 -55.7107 0.018 -0.207 0.978 220 216 217 0
-25.7830 20.7982 -55.7953 0.047 -0.214 0.976 220 216 217 0
