ply
format ascii 1.0
element vertex 825
property float x
property float y
property float z
property float nx
property float ny
property float nz
property uchar diffuse_red
property uchar diffuse_green
property uchar diffuse_blue
property uchar class
end_header
42.5994 41.6527 -60.6720 -0.016 -0.304 0.953 174 161 151 0
45.5345 44.1018 -62.1815 -0.214 -0.977 -0.007 167 155 142 0
-65.7422 33.5420 -35.6468 0.051 -0.999 0.008 255 255 255 0
-65.5946 33.6797 -35.7284 0.061 -0.998 0.007 135 135 135 0
-65.3678 33.6932 -35.7800 0.061 -0.998 0.007 68 66 64 0
-65.1013 33.6437 -35.8163 0.038 -0.999 0.014 228 221 216 0
-64.8411 33.6039 -35.8550 -0.002 -1.000 0.030 233 224 217 0
-65.4032 35.2544 -36.3535 -0.078 -0.997 0.007 232 224 216 0
-30.1130 49.0714 -48.7438 -0.897 -0.441 -0.031 217 205 201 0
-21.2128 31.7564 -44.1302 -0.804 -0.523 -0.282 146 80 91 0
-19.2971 28.3430 -43.2538 -0.396 -0.904 -0.163 137 64 81 0
-19.0110 28.0314 -43.1966 0.553 -0.573 0.605 137 61 78 0
-18.9117 28.4998 -43.3913 0.025 -0.641 0.767 135 58 74 0
-16.4718 28.9416 -44.0569 -0.170 -0.876 0.452 120 46 63 0
-13.3427 28.0268 -44.3593 0.817 -0.315 0.483 121 41 54 0
-12.3844 25.0842 -43.4615 0.674 -0.643 0.364 120 40 54 0
-12.4154 26.3736 -43.9348 0.304 -0.933 0.192 120 40 53 0
-9.1816 25.3583 -44.2214 0.177 -0.972 0.155 104 33 44 0
-8.6463 24.4880 -44.0076 0.198 -0.955 0.222 101 32 44 0
-7.0674 23.2137 -43.8578 0.633 -0.576 0.518 96 29 46 0
-2.8049 28.5161 -46.7062 0.737 -0.661 -0.142 68 27 33 0
0.1613 30.6217 -48.0989 0.646 -0.740 -0.187 67 44 44 0
1.6172 35.3760 -50.1668 -0.008 -0.686 -0.728 92 77 74 0
1.7695 36.8534 -50.7478 -0.168 -0.555 -0.815 96 82 81 0
1.8155 52.6485 -56.6338 0.581 -0.340 0.739 95 96 93 0
2.0597 52.8188 -56.7473 0.581 -0.340 0.739 96 103 97 0
3.0020 54.8615 -57.7008 0.977 -0.127 -0.171 67 90 69 0
4.9439 45.0146 -54.4362 0.305 -0.943 0.132 98 102 71 0
5.1776 45.1287 -54.5267 0.318 -0.921 0.227 126 123 78 0
5.4114 45.2640 -54.6251 0.158 -0.828 0.538 149 142 78 0
5.6450 45.4658 -54.7481 0.228 -0.762 0.605 154 146 63 0
6.1169 45.4737 -54.8481 0.570 -0.812 0.126 171 160 64 0
6.3471 46.5521 -55.2965 -0.159 -0.907 0.391 179 167 66 0
6.5834 47.0146 -55.5172 -0.226 -0.846 0.482 183 172 66 0
7.0609 47.9213 -55.9526 -0.665 -0.587 0.462 192 183 62 0
10.2830 42.8304 -54.7205 -0.842 -0.539 0.028 221 220 75 0
12.8970 49.9234 -57.8964 -0.197 -0.955 0.222 219 218 67 0
13.1442 50.0289 -57.9864 -0.276 -0.931 0.238 219 218 68 0
13.1632 45.4456 -56.2851 0.238 -0.912 -0.334 220 218 72 0
15.5384 53.4157 -59.7383 -0.066 -0.862 -0.503 209 208 71 0
15.4584 41.4956 -55.2870 -0.064 -0.995 0.072 201 201 61 0
15.9203 41.6393 -55.4354 -0.333 -0.931 0.150 197 195 60 0
16.1619 41.8494 -55.5632 0.084 -0.987 0.135 195 192 59 0
16.4290 42.3836 -55.8168 0.140 -0.989 -0.040 193 192 58 0
19.9400 47.9903 -58.6240 -0.199 -0.979 -0.032 161 156 56 0
20.6027 47.5480 -58.5956 -0.022 -0.998 -0.052 156 149 61 0
22.3647 44.6441 -57.8772 0.002 -0.927 0.374 184 175 142 0
22.5560 44.3359 -57.8018 -0.235 -0.880 0.414 187 176 150 0
25.4721 55.7361 -62.6423 0.965 -0.175 0.195 191 181 166 0
24.7350 29.4927 -52.7271 -0.241 -0.958 -0.156 187 179 166 0
25.0465 30.1736 -53.0444 -0.490 -0.799 -0.348 188 180 166 0
28.1155 40.8773 -57.6572 0.828 -0.441 -0.346 188 179 168 0
29.6093 45.5174 -59.6904 0.652 -0.608 -0.453 187 177 166 0
29.9486 46.1256 -59.9863 0.676 -0.566 -0.472 187 177 165 0
30.1542 45.9910 -59.9785 0.469 -0.583 -0.663 187 179 166 0
28.1704 21.0249 -50.2824 0.274 -0.850 0.450 185 172 163 0
35.0273 36.6806 -57.5157 -0.527 -0.804 -0.277 179 169 160 0
35.2551 36.7500 -57.5883 -0.472 -0.839 -0.271 178 168 160 0
31.5759 15.7044 -49.0025 0.839 -0.501 0.213 175 165 155 0
31.7894 15.8624 -49.1052 0.423 -0.687 0.591 178 168 158 0
32.4002 16.2115 -49.3605 0.155 -0.826 0.542 176 165 154 0
45.6680 46.8298 -63.4776 -0.406 -0.536 0.740 167 155 141 0
45.5104 44.1130 -62.4344 -0.220 -0.975 -0.037 168 156 142 0
45.7424 44.1454 -62.4941 -0.229 -0.973 -0.028 165 154 141 0
46.3539 45.3928 -63.0839 -0.607 -0.711 -0.355 164 151 140 0
-65.8239 33.5360 -35.8779 0.051 -0.999 0.008 255 255 255 0
-65.6834 33.6850 -35.9624 0.068 -0.998 0.002 135 135 135 0
-65.4389 33.6707 -36.0073 -0.142 -0.987 0.073 68 66 65 0
-65.1988 33.6633 -36.0538 0.101 -0.995 -0.009 230 223 218 0
-64.9524 33.6456 -36.0978 0.038 -0.999 0.014 233 224 218 0
-30.0547 41.1466 -46.0675 -0.420 -0.819 -0.391 227 218 219 0
-21.7035 32.5964 -44.5828 -0.870 -0.492 -0.014 151 89 97 0
-19.3045 28.1400 -43.4079 -0.394 -0.913 -0.110 139 66 83 0
-16.9141 28.7738 -44.1357 -0.128 -0.753 0.646 121 48 62 0
-16.7023 28.7728 -44.1788 -0.172 -0.753 0.635 122 48 62 0
-12.4493 26.2743 -44.1171 0.415 -0.882 0.222 119 40 54 0
-11.4830 27.8342 -44.8991 0.896 -0.336 -0.290 113 36 52 0
-11.2142 28.7188 -45.2852 0.848 -0.527 0.051 113 36 51 0
-10.1078 28.3499 -45.3743 0.742 -0.526 -0.417 108 36 49 0
-9.9128 28.4385 -45.4474 0.453 -0.739 -0.499 106 35 47 0
-6.9899 26.8113 -45.4386 0.770 -0.434 0.468 93 29 42 0
-5.0202 25.6893 -45.4232 0.420 -0.899 0.125 86 27 39 0
-4.7542 26.9544 -45.9511 0.376 -0.442 0.814 81 25 34 0
-3.3368 29.2624 -47.1055 0.328 -0.583 -0.743 72 28 35 0
-3.0973 28.9264 -47.0290 0.255 -0.966 0.032 69 26 33 0
-2.8611 28.6128 -46.9601 0.739 -0.666 -0.098 70 29 35 0
-2.4613 28.7786 -47.1042 0.368 -0.805 -0.465 74 33 39 0
-2.0793 29.1715 -47.3297 0.371 -0.785 -0.496 72 31 39 0
-0.8998 33.1175 -49.0481 0.570 -0.572 -0.590 70 40 43 0
1.4965 52.9852 -56.9731 0.029 -0.656 0.754 98 96 94 0
1.7696 52.4361 -56.8238 0.573 -0.503 0.647 100 101 99 0
4.8933 45.0767 -54.7116 0.287 -0.958 0.009 102 105 79 0
5.5941 45.5943 -55.0491 0.257 -0.751 0.608 155 146 72 0
5.8302 45.6262 -55.1095 0.257 -0.751 0.608 162 153 66 0
6.0690 45.3113 -55.0407 0.518 -0.834 0.188 169 160 66 0
6.3036 45.5188 -55.1665 0.448 -0.886 -0.119 176 167 67 0
6.7739 46.4028 -55.5937 -0.199 -0.872 0.447 189 179 67 0
8.4441 47.1744 -56.2252 0.525 -0.851 0.018 213 205 75 0
11.9018 50.5217 -58.1874 -0.865 -0.499 -0.048 220 219 66 0
12.8039 48.8945 -57.7637 -0.161 -0.947 0.277 220 219 67 0
12.8941 45.6653 -56.5741 0.234 -0.955 -0.184 219 218 67 0
13.1108 45.2977 -56.4810 0.230 -0.935 -0.270 218 217 69 0
13.1869 42.1616 -55.3233 -0.222 -0.947 0.233 217 216 73 0
13.6073 45.8594 -56.7931 -0.212 -0.750 -0.626 216 217 77 0
15.3946 55.8841 -60.9105 0.523 -0.432 -0.735 207 207 73 0
16.0913 41.4692 -55.6605 -0.105 -0.991 0.088 191 192 59 0
16.3845 42.3560 -56.0525 0.036 -0.999 0.010 190 190 58 0
16.6434 42.7623 -56.2576 -0.033 -0.965 0.259 187 187 57 0
17.2654 42.0266 -56.1100 -0.203 -0.602 0.772 179 179 55 0
18.7151 45.4609 -57.6925 -0.233 -0.843 -0.485 171 168 55 0
19.8922 47.9389 -58.8612 -0.220 -0.970 0.102 160 155 56 0
20.1590 43.7471 -57.3477 0.067 -0.531 0.845 153 147 63 0
21.6218 44.5318 -57.9415 0.059 -0.837 0.545 161 150 103 0
21.8595 44.5983 -58.0152 0.002 -0.840 0.543 176 165 124 0
22.0869 44.5783 -58.0544 -0.032 -0.840 0.542 183 173 139 0
22.3128 44.5472 -58.0891 -0.032 -0.840 0.542 183 174 145 0
22.5201 44.3673 -58.0644 -0.118 -0.874 0.471 186 176 151 0
24.6348 53.4888 -61.9111 0.954 -0.198 0.225 191 179 163 0
24.7094 29.5379 -52.9656 -0.241 -0.958 -0.156 189 181 168 0
34.9607 36.5282 -57.6852 -0.517 -0.809 -0.278 180 170 161 0
35.2202 36.7304 -57.8141 -0.484 -0.831 -0.275 179 169 160 0
35.3657 36.4588 -57.7423 -0.495 -0.840 -0.223 178 168 159 0
35.3589 35.5673 -57.4074 0.270 -0.838 -0.475 178 169 159 0
31.0832 15.2164 -48.9158 0.769 -0.318 0.555 177 167 157 0
31.3096 15.4309 -49.0425 0.760 -0.321 0.565 176 166 156 0
31.4608 15.3469 -49.0421 0.849 -0.463 0.255 176 166 156 0
43.4000 43.0814 -61.8693 0.699 -0.043 0.714 167 158 146 0
43.8683 43.9178 -62.2783 0.694 -0.037 0.719 166 157 145 0
45.4890 44.1334 -62.6916 -0.213 -0.976 -0.030 166 154 141 0
45.7043 44.1113 -62.7276 -0.222 -0.974 -0.042 165 151 140 0
46.3621 45.5078 -63.3851 -0.607 -0.715 -0.348 164 149 139 0
-65.9056 33.5300 -36.1091 0.051 -0.999 0.008 255 255 255 0
-65.7651 33.6790 -36.1940 0.068 -0.998 0.002 135 135 135 0
-65.5209 33.6653 -36.2389 -0.142 -0.987 0.073 68 65 64 0
-65.2801 33.6570 -36.2852 0.101 -0.995 -0.009 229 221 218 0
-65.0601 33.6814 -36.3395 0.080 -0.997 -0.017 232 223 218 0
-29.7694 48.2612 -49.0630 -0.908 -0.417 0.029 218 205 201 0
-21.9160 33.1976 -45.0065 -0.880 -0.475 0.005 155 94 103 0
-21.1561 31.9312 -44.6860 -0.832 -0.554 0.034 151 88 99 0
-19.1176 28.0059 -43.6273 0.405 -0.744 0.531 139 65 82 0
-18.9517 28.1945 -43.7323 0.034 -0.633 0.773 136 62 78 0
-13.1122 26.2392 -44.1943 0.439 -0.839 0.321 121 43 57 0
-12.8685 26.0362 -44.1679 0.454 -0.862 0.226 120 42 56 0
-12.6782 26.1180 -44.2377 0.454 -0.862 0.226 120 42 56 0
-12.5147 26.3476 -44.3577 0.413 -0.887 0.209 120 42 56 0
-12.1876 25.6767 -44.1723 0.661 -0.681 0.316 118 40 54 0
-10.3787 24.6204 -44.1459 -0.003 -0.974 -0.227 112 36 49 0
-8.0402 26.6317 -45.3823 0.263 -0.828 -0.495 94 31 46 0
-5.7189 26.0536 -45.6409 -0.062 -0.990 -0.124 93 31 44 0
-4.7853 24.9734 -45.4260 0.716 -0.698 -0.026 83 26 37 0
-3.1433 28.9072 -47.2428 0.255 -0.966 0.032 68 25 32 0
-1.2408 31.2544 -48.5160 0.688 -0.717 0.108 68 37 42 0
-1.0188 31.1108 -48.5076 0.720 -0.663 0.208 70 40 44 0
3.7770 50.0197 -56.6051 0.684 -0.092 0.724 110 123 105 0
5.5449 45.5778 -55.2966 -0.105 -0.743 0.661 153 146 78 0
5.7830 45.4101 -55.2823 0.149 -0.742 0.653 161 153 72 0
6.0185 45.4957 -55.3628 0.090 -0.774 0.627 169 160 70 0
6.4845 47.0055 -56.0264 -0.207 -0.928 0.309 183 173 67 0
8.3952 47.1390 -56.4686 0.525 -0.851 0.018 213 205 77 0
8.6371 47.4004 -56.6165 0.512 -0.859 -0.019 213 206 76 0
8.8713 47.0711 -56.5407 0.733 -0.390 0.557 213 208 76 0
9.3367 46.4583 -56.4056 -0.264 -0.792 -0.550 213 212 72 0
10.4991 37.6583 -53.3332 0.687 -0.686 -0.240 218 218 71 0
12.7803 49.4199 -58.2261 -0.149 -0.970 0.190 218 217 68 0
13.0154 49.2788 -58.2212 -0.195 -0.958 0.209 218 216 69 0
13.1411 42.1276 -55.5566 -0.254 -0.929 0.268 217 215 73 0
14.2563 49.9161 -58.7155 0.486 -0.499 -0.717 214 214 79 0
14.5985 51.6629 -59.4429 0.422 -0.463 -0.780 212 212 79 0
15.8393 41.6903 -55.9455 0.225 -0.913 -0.341 191 193 60 0
16.0720 41.7780 -56.0262 0.225 -0.913 -0.341 188 190 58 0
16.3366 42.2835 -56.2706 0.030 -0.999 -0.013 187 189 58 0
16.6129 42.9156 -56.5651 -0.008 -0.991 -0.134 186 187 57 0
18.4824 45.9261 -58.0812 -0.478 -0.815 -0.327 172 168 55 0
18.6838 45.5802 -57.9923 -0.238 -0.845 -0.478 170 166 57 0
21.5794 44.5140 -58.1851 -0.086 -0.936 0.341 164 152 111 0
21.8053 44.4809 -58.2190 -0.086 -0.936 0.341 177 167 131 0
22.0387 44.5116 -58.2784 0.009 -0.931 0.366 183 172 143 0
22.2690 44.5161 -58.3274 0.006 -0.940 0.341 184 175 148 0
22.4906 44.4516 -58.3485 -0.001 -0.932 0.361 187 176 153 0
22.7359 44.5770 -58.4460 -0.066 -0.949 0.309 190 177 158 0
30.1440 13.5962 -48.3098 0.827 -0.436 0.355 179 171 160 0
30.3566 13.7703 -48.4189 0.877 -0.454 0.157 178 169 158 0
30.6316 14.1924 -48.6341 0.771 -0.317 0.552 177 167 156 0
31.3791 15.1200 -49.1364 0.828 -0.480 0.290 177 167 157 0
31.7103 15.7411 -49.4380 0.859 -0.389 0.333 177 167 157 0
32.9533 15.2222 -49.4977 0.347 -0.833 0.430 176 163 155 0
33.4064 15.6218 -49.7410 0.524 -0.847 -0.090 175 162 153 0
39.4376 31.0551 -56.7844 0.852 -0.429 -0.301 170 157 148 0
44.7780 44.8188 -63.0579 0.680 -0.067 0.731 164 154 143 0
45.3397 45.9347 -63.5930 0.670 -0.085 0.737 165 155 144 0
45.7787 45.8947 -63.6680 -0.099 -0.141 0.985 164 152 140 0
45.4838 44.2063 -62.9723 -0.225 -0.974 0.025 164 151 139 0
45.6912 44.1578 -62.9965 -0.225 -0.974 0.025 165 150 140 0
47.2543 45.5766 -63.8509 -0.274 -0.859 -0.433 254 255 254 0
-66.0363 33.6003 -36.3595 0.006 -0.999 0.042 255 255 255 0
-65.8469 33.6729 -36.4257 0.068 -0.998 0.002 135 135 135 0
-65.6030 33.6599 -36.4708 -0.142 -0.987 0.073 68 66 64 0
-65.3634 33.6538 -36.5176 0.026 -0.999 0.021 228 221 216 0
-65.1311 33.6589 -36.5671 0.026 -0.999 0.021 232 223 217 0
-64.9489 33.7436 -36.6365 -0.033 -0.995 0.095 233 224 219 0
-28.1159 44.8078 -48.3709 -0.728 -0.589 -0.351 212 199 193 0
-21.4652 32.9276 -45.2394 -0.847 -0.531 -0.026 152 90 101 0
-21.0342 32.0839 -45.0086 -0.808 -0.587 -0.041 154 90 100 0
-18.5173 28.8070 -44.2847 0.099 -0.778 -0.620 138 63 75 0
-12.2052 27.7913 -45.1940 0.919 -0.360 -0.161 116 40 52 0
-10.4344 24.6534 -44.3698 0.129 -0.991 0.022 111 37 49 0
-8.6482 29.1032 -46.4194 0.847 -0.253 -0.468 96 33 44 0
-7.5094 26.8896 -45.8153 -0.518 -0.507 0.689 93 31 46 0
-7.2983 26.8474 -45.8426 -0.701 -0.467 0.539 92 30 45 0
-7.0332 26.3920 -45.7246 0.758 -0.433 0.488 94 32 45 0
-5.4772 25.3206 -45.6382 0.003 -0.953 -0.304 96 35 49 0
-5.2773 25.3380 -45.6857 0.051 -0.922 -0.384 86 26 41 0
-3.1894 28.8880 -47.4567 0.255 -0.966 0.032 70 28 35 0
-2.9769 28.8384 -47.4814 0.351 -0.881 -0.317 71 30 36 0
-2.7697 28.8453 -47.5265 0.617 -0.669 -0.415 74 34 40 0
3.7401 49.4162 -56.6429 -0.566 -0.824 0.016 111 122 105 0
4.6294 41.4278 -53.8031 -0.362 -0.462 0.810 103 112 92 0
5.4996 45.2266 -55.4185 -0.087 -0.730 0.678 152 145 86 0
5.9709 45.2892 -55.5388 0.155 -0.803 0.575 168 160 74 0
6.4470 44.3685 -55.2880 0.513 -0.835 0.197 182 173 69 0
6.6744 46.8267 -56.2646 0.113 -0.992 0.060 188 178 70 0
6.9127 47.2564 -56.4760 0.113 -0.991 -0.079 192 182 70 0
7.1501 45.3780 -55.8140 -0.255 -0.913 0.319 196 189 71 0
9.6141 50.9174 -58.4146 -0.063 -0.702 -0.709 215 213 71 0
15.0274 55.5826 -61.2890 0.572 -0.398 -0.718 205 207 72 0
16.0217 41.6696 -56.2293 0.181 -0.909 -0.376 188 189 59 0
16.2289 41.4173 -56.1763 -0.129 -0.947 -0.295 187 189 59 0
16.5338 42.4417 -56.6263 -0.196 -0.944 -0.265 186 187 58 0
16.7642 42.4777 -56.6872 -0.077 -0.962 -0.262 182 183 55 0
17.2253 42.5505 -56.8092 -0.009 -0.995 -0.097 179 177 54 0
17.6773 42.5156 -56.8886 0.001 -0.843 0.539 175 172 55 0
20.5826 50.8665 -60.6433 0.358 -0.726 0.587 152 148 62 0
20.0887 43.8571 -57.8903 -0.157 -0.724 0.671 151 145 66 0
20.4800 43.2413 -57.7376 -0.435 -0.568 0.698 148 143 75 0
21.7561 44.4053 -58.4394 -0.086 -0.936 0.341 180 170 137 0
21.9883 44.4261 -58.4949 0.009 -0.931 0.366 182 172 145 0
22.2155 44.4061 -58.5339 -0.047 -0.964 0.262 184 174 150 0
22.4429 44.3885 -58.5739 -0.055 -0.957 0.283 188 177 156 0
29.7693 12.8523 -48.1447 0.772 -0.388 0.503 179 169 159 0
30.0649 13.3714 -48.4017 0.827 -0.436 0.355 178 170 158 0
30.2519 13.4432 -48.4672 0.806 -0.308 0.505 178 168 156 0
30.5231 13.8528 -48.6777 0.771 -0.317 0.552 177 167 155 0
31.0228 14.4857 -49.0196 0.769 -0.291 0.569 178 168 156 0
39.6190 31.7693 -57.3199 0.857 -0.428 -0.288 168 155 147 0
45.4423 44.1613 -63.2014 -0.208 -0.978 0.033 165 152 142 0
45.6507 44.1161 -63.2270 -0.208 -0.978 0.033 166 149 141 0
47.4939 45.7085 -64.2072 -0.242 -0.880 -0.410 254 255 255 0
-66.1357 33.6215 -36.5981 0.055 -0.998 0.013 255 255 255 0
-65.9288 33.6669 -36.6577 0.068 -0.998 0.002 135 135 135 0
-65.6851 33.6545 -36.7029 -0.142 -0.987 0.073 68 66 64 0
-65.4538 33.6616 -36.7530 0.032 -0.999 0.018 229 221 216 0
-65.2120 33.6520 -36.7988 0.026 -0.999 0.021 233 224 218 0
-65.1240 33.8861 -36.9059 0.111 -0.992 -0.065 233 224 219 0
-25.5322 21.7730 -40.4056 -0.449 -0.134 0.884 230 222 220 0
-29.5259 40.3064 -46.6380 -0.049 -0.527 0.848 226 217 218 0
-20.7910 31.7487 -45.1713 -0.601 -0.676 -0.426 148 84 95 0
-18.9495 27.7143 -44.0137 0.135 -0.990 0.041 141 69 84 0
-18.8456 28.1625 -44.2055 0.132 -0.990 0.039 138 66 78 0
-18.7398 29.5168 -44.7423 -0.242 -0.934 -0.262 138 65 76 0
-18.5098 29.4469 -44.7628 -0.226 -0.936 -0.268 138 63 74 0
-18.2856 29.4008 -44.7912 -0.226 -0.936 -0.268 136 60 72 0
-17.2105 28.4044 -44.6323 -0.264 -0.802 0.536 126 57 67 0
-14.9689 27.7560 -44.8447 -0.318 -0.918 -0.237 124 49 66 0
-14.7570 27.7436 -44.8834 -0.326 -0.917 -0.229 125 48 67 0
-10.4897 24.6836 -44.5931 0.097 -0.995 -0.019 113 38 50 0
-7.9871 27.0101 -45.9907 0.528 -0.522 0.670 96 33 44 0
-7.7403 26.7132 -45.9282 -0.067 -0.865 0.497 94 31 44 0
-7.5421 26.7655 -45.9887 -0.511 -0.504 0.696 94 32 46 0
-7.3161 26.6110 -45.9762 -0.679 -0.403 0.614 93 31 46 0
-6.9582 25.4513 -45.6083 -0.560 -0.779 -0.282 95 33 47 0
-5.7354 25.3897 -45.8353 -0.018 -0.963 -0.271 94 36 48 0
-5.5341 25.3974 -45.8795 0.003 -0.953 -0.304 90 31 45 0
-5.3393 25.4612 -45.9436 0.068 -0.929 -0.365 87 29 43 0
-5.0299 32.0140 -48.4997 -0.115 -0.991 0.073 78 28 37 0
-3.7793 28.0580 -47.2509 0.547 -0.562 0.620 74 28 39 0
-3.2405 28.9221 -47.6900 0.261 -0.965 0.036 72 31 38 0
-2.8648 29.3727 -47.9383 0.591 -0.489 -0.642 71 31 39 0
-2.6990 29.8622 -48.1585 0.591 -0.489 -0.642 70 31 38 0
1.8379 46.7585 -55.5150 0.336 -0.070 0.939 115 116 112 0
2.0393 47.7528 -55.9345 0.414 -0.049 0.909 116 119 116 0
5.2784 40.7409 -53.9304 -0.663 -0.632 0.401 125 119 84 0
5.4518 45.0962 -55.6227 0.237 -0.866 0.441 148 139 90 0
5.9215 45.3149 -55.8021 0.453 -0.825 0.339 169 159 82 0
6.6241 47.1062 -56.6274 0.134 -0.982 -0.135 189 178 76 0
6.8631 47.3473 -56.7681 0.230 -0.972 -0.045 193 182 77 0
10.4148 37.7711 -53.8525 0.716 -0.697 0.027 219 216 72 0
14.5614 52.6687 -60.3688 0.508 -0.486 -0.711 205 205 68 0
20.0833 44.1971 -58.2769 -0.291 -0.619 0.729 149 145 71 0
21.7104 44.3593 -58.6718 -0.144 -0.957 0.250 182 171 140 0
21.9066 44.0788 -58.6052 -0.390 -0.664 0.638 183 173 147 0
22.1781 44.4276 -58.7935 -0.028 -0.968 0.250 186 175 153 0
22.1832 42.6033 -58.1006 0.184 -0.956 0.229 190 178 159 0
24.7787 24.5823 -51.7768 0.793 -0.606 0.063 191 178 170 0
25.0828 25.2400 -52.0892 0.810 -0.574 0.120 190 177 169 0
25.6144 24.9729 -52.0965 0.604 -0.582 0.544 190 177 168 0
35.5759 53.8020 -65.1032 -0.749 -0.578 -0.325 182 172 161 0
35.7788 53.6128 -65.0728 -0.765 -0.568 -0.304 182 172 162 0
32.6106 28.6864 -54.9418 0.844 -0.536 0.025 182 169 160 0
29.6772 12.5723 -48.2112 0.780 -0.303 0.548 179 169 158 0
29.9387 12.9542 -48.4101 0.777 -0.309 0.548 177 169 156 0
30.1855 13.2712 -48.5812 0.777 -0.309 0.548 175 166 154 0
39.6215 45.9642 -62.9501 0.865 -0.438 -0.247 173 163 154 0
47.2999 45.8912 -64.4947 -0.225 -0.877 -0.425 254 255 254 0
-66.2194 33.6179 -36.8309 0.071 -0.997 0.027 255 255 255 0
-66.0155 33.6682 -36.8918 0.078 -0.997 0.003 135 135 136 0
-65.7907 33.6857 -36.9445 0.078 -0.997 0.003 68 66 64 0
-65.5350 33.6547 -36.9850 0.032 -0.999 0.018 229 221 217 0
-65.3159 33.6811 -37.0399 0.031 -0.999 0.027 233 224 218 0
-65.2128 33.8915 -37.1415 0.111 -0.992 -0.065 234 225 219 0
-24.2874 26.2497 -42.5924 -0.525 -0.829 0.193 224 212 212 0
-25.0390 29.5510 -43.7014 0.674 -0.673 0.303 223 211 210 0
-26.6493 35.8673 -45.7879 0.508 -0.709 0.490 221 209 207 0
-26.6875 37.6010 -46.4432 0.540 -0.812 0.222 220 206 202 0
-25.8799 35.5670 -45.8304 0.580 -0.712 0.396 218 204 200 0
-25.6869 35.6894 -45.9167 0.547 -0.767 0.334 214 201 196 0
-23.6395 37.4294 -47.0012 -0.797 -0.447 -0.407 166 122 125 0
-19.1717 31.1160 -45.5005 -0.483 -0.805 0.344 140 68 79 0
-18.8203 30.5381 -45.3514 -0.302 -0.892 0.336 138 66 76 0
-18.3510 29.4392 -45.0271 -0.236 -0.943 -0.234 137 64 73 0
-18.0529 29.0702 -44.9469 -0.768 -0.635 -0.084 132 62 72 0
-10.7386 25.8737 -45.2208 -0.346 -0.919 -0.191 113 39 53 0
-8.2058 26.7475 -46.0733 0.633 -0.596 0.495 97 33 45 0
-8.0626 27.1932 -46.2731 0.210 -0.746 0.632 96 33 45 0
-7.5827 26.6998 -46.1826 -0.677 -0.437 0.592 91 33 47 0
-7.0583 25.8396 -45.9609 -0.505 -0.815 -0.282 93 33 46 0
-6.7888 25.3342 -45.8227 -0.464 -0.869 -0.172 93 33 44 0
-5.5959 25.5150 -46.1359 0.037 -0.951 -0.307 84 27 41 0
-5.2662 31.7536 -48.5896 0.574 -0.646 0.504 80 28 41 0
-5.0840 32.0509 -48.7407 -0.120 -0.989 0.083 76 28 39 0
-0.7675 34.6767 -50.6282 0.460 -0.663 -0.592 79 53 59 0
0.7856 34.1871 -50.7588 -0.161 -0.761 -0.628 92 80 82 0
0.9988 34.2591 -50.8299 -0.217 -0.746 -0.630 96 86 87 0
4.7751 40.7142 -54.0717 0.164 -0.969 -0.183 115 117 98 0
5.2328 40.5849 -54.1159 -0.189 -0.764 0.617 123 117 86 0
5.4057 44.8352 -55.7770 0.366 -0.794 0.485 138 129 87 0
5.6405 44.9032 -55.8510 0.343 -0.821 0.456 163 153 96 0
5.8759 44.9175 -55.9047 0.375 -0.849 0.371 169 159 88 0
6.5868 43.6116 -55.5506 0.412 -0.897 0.160 188 178 80 0
8.2472 46.9176 -57.1550 0.528 -0.849 0.009 209 202 77 0
11.9335 49.9740 -59.0783 -0.885 -0.407 -0.227 216 216 69 0
15.1283 27.8287 -51.2614 0.679 -0.729 0.084 184 185 61 0
15.3407 27.9797 -51.3626 0.664 -0.738 0.118 183 183 59 0
16.9229 42.6699 -57.3053 0.089 -0.993 -0.074 179 178 58 0
19.7537 43.6277 -58.2509 0.275 -0.538 0.796 151 145 69 0
21.6655 44.3211 -58.9074 -0.123 -0.959 0.255 183 171 144 0
22.1648 42.7740 -58.4177 0.238 -0.957 0.167 190 179 161 0
23.6735 51.1200 -61.9188 0.619 -0.628 0.472 191 181 164 0
24.6627 25.2242 -52.2160 0.226 -0.396 0.890 188 177 171 0
24.8228 25.0286 -52.1740 -0.135 -0.381 0.914 192 179 173 0
25.0382 25.1613 -52.2688 0.775 -0.615 0.146 192 179 172 0
27.8391 19.2223 -50.5702 0.750 -0.372 0.546 183 173 161 0
35.5952 54.0654 -65.4848 -0.759 -0.578 -0.300 181 172 162 0
35.8790 54.2511 -65.6139 -0.707 -0.588 -0.393 181 171 162 0
32.2872 28.2663 -54.9397 0.819 -0.554 -0.145 180 169 160 0
33.0255 29.7301 -55.6507 0.810 -0.560 -0.171 179 169 160 0
30.3383 13.3013 -48.8168 0.763 -0.296 0.574 179 168 155 0
37.9057 40.2649 -60.6788 0.941 -0.329 -0.083 174 164 154 0
32.1784 3.1602 -45.3143 0.620 -0.572 -0.537 169 152 145 0
47.1066 46.0793 -64.7855 -0.270 -0.861 -0.430 247 246 243 0
-66.3023 33.6132 -37.0636 0.084 -0.996 0.010 255 255 255 0
-66.0969 33.6612 -37.1240 0.078 -0.997 0.003 135 135 135 0
-65.8720 33.6787 -37.1768 0.078 -0.997 0.003 68 66 64 0
-65.6282 33.6666 -37.2219 0.031 -0.999 0.027 229 221 216 0
-65.3959 33.6724 -37.2717 0.031 -0.999 0.027 232 223 217 0
-65.2529 33.8195 -37.3575 0.036 -0.998 -0.043 233 224 219 0
-24.5663 26.2852 -42.7782 -0.414 -0.868 0.276 226 215 214 0
-24.3422 26.2359 -42.8051 -0.475 -0.826 0.303 224 212 212 0
-25.1025 29.5617 -43.9287 0.684 -0.694 0.227 223 211 211 0
-23.1713 37.1553 -47.2440 -0.741 -0.474 -0.475 165 117 123 0
-18.8516 29.5082 -45.1861 -0.087 -0.989 0.118 139 69 79 0
-18.5943 29.3226 -45.1674 -0.332 -0.935 0.128 140 69 80 0
-18.3721 29.2856 -45.1986 -0.124 -0.975 -0.185 138 67 76 0
-17.5880 28.6471 -45.1133 -0.171 -0.758 -0.629 131 61 71 0
-16.3068 27.6198 -44.9801 -0.641 -0.582 0.501 124 56 70 0
-11.1056 26.5307 -45.6246 -0.309 -0.901 -0.305 112 38 53 0
-10.8472 26.2184 -45.5574 -0.445 -0.886 -0.132 111 37 52 0
-10.6566 26.3085 -45.6310 -0.137 -0.978 -0.155 110 36 51 0
-10.3863 25.9124 -45.5339 -0.061 -0.996 -0.059 111 36 51 0
-6.0602 25.6029 -46.2993 0.028 -0.949 -0.314 84 27 43 0
-5.8543 25.5786 -46.3321 0.038 -0.951 -0.307 82 27 44 0
-5.6525 25.5871 -46.3766 0.047 -0.947 -0.318 83 27 43 0
-5.1329 32.0382 -48.9640 -0.120 -0.989 0.083 75 28 40 0
-2.1006 31.6452 -49.4328 -0.020 -0.999 0.033 73 42 48 0
-1.7025 29.3146 -48.6178 0.624 -0.757 0.193 74 43 49 0
-1.8146 33.4535 -50.1867 0.647 -0.587 -0.486 76 47 52 0
-0.8430 35.0679 -51.0063 0.583 -0.499 -0.641 81 56 62 0
0.7130 34.6413 -51.1603 -0.228 -0.730 -0.644 94 83 84 0
1.7759 45.7414 -55.6467 0.358 -0.062 0.932 125 124 122 0
4.7252 40.8079 -54.3523 0.216 -0.928 -0.305 120 123 105 0
4.9566 40.6237 -54.3287 -0.189 -0.768 0.611 120 120 98 0
5.1861 40.5121 -54.3328 -0.180 -0.764 0.619 128 122 94 0
5.4137 40.5076 -54.3776 -0.010 -0.680 0.733 132 123 85 0
7.9320 43.1424 -55.9058 0.540 -0.763 0.355 205 199 78 0
8.1655 43.3415 -56.0301 0.593 -0.692 0.412 207 201 78 0
15.0738 27.6006 -51.3885 0.747 -0.642 0.176 184 185 63 0
17.2021 46.6891 -59.1651 -0.154 -0.928 -0.340 178 176 58 0
19.9139 45.5983 -59.3000 0.022 -0.697 0.716 151 144 70 0
21.5573 43.7410 -58.9217 -0.291 -0.921 0.259 184 172 146 0
21.7061 43.0670 -58.6929 -0.059 -0.633 0.772 186 174 154 0
24.2093 53.7427 -63.3105 0.345 -0.915 0.207 191 182 165 0
24.5710 24.8621 -52.2770 0.210 -0.400 0.892 191 180 174 0
25.1872 25.0868 -52.4894 0.420 -0.693 0.586 192 179 171 0
25.7900 25.2246 -52.6657 0.627 -0.392 0.674 190 177 168 0
27.8929 19.6122 -50.9371 0.457 -0.669 0.586 183 173 160 0
35.5518 54.0338 -65.7415 -0.849 -0.515 -0.115 180 172 160 0
32.2651 28.2939 -55.1699 0.819 -0.554 -0.145 179 168 161 0
32.6170 28.9578 -55.4972 0.823 -0.535 -0.188 178 167 161 0
34.2320 34.0958 -57.8035 0.895 -0.163 0.416 178 168 158 0
32.3817 13.4467 -49.4836 0.558 -0.592 0.582 174 161 153 0
47.1269 46.2310 -65.1071 -0.261 -0.860 -0.439 246 246 243 0
-66.4090 33.6451 -37.3059 0.038 -0.999 0.040 255 255 255 0
-66.1776 33.6528 -37.3561 0.076 -0.997 0.017 135 135 135 0
-65.9534 33.6716 -37.4092 0.078 -0.997 0.003 68 66 64 0
-65.7145 33.6674 -37.4564 0.059 -0.998 0.032 228 221 216 0
-65.5032 33.7067 -37.5147 0.078 -0.997 0.003 231 222 217 0
-65.3894 33.9001 -37.6128 0.060 -0.998 0.007 233 223 220 0
-33.3676 44.1983 -48.1367 0.766 -0.562 -0.312 231 221 220 0
-23.0025 17.5486 -39.9487 -0.432 -0.901 -0.035 227 221 221 0
-25.1476 29.5089 -44.1355 0.651 -0.698 0.298 224 212 212 0
-25.4455 31.2796 -44.7594 0.462 -0.877 0.132 222 210 211 0
-23.5508 38.3895 -47.8959 -0.748 -0.475 -0.463 167 122 128 0
-18.5873 29.9703 -45.6542 -0.707 -0.663 -0.245 138 68 77 0
-15.1036 26.6056 -45.0647 0.449 -0.798 -0.403 124 52 66 0
-10.9274 25.1770 -45.3654 0.075 -0.993 0.095 113 39 56 0
-10.7362 25.2515 -45.4333 0.090 -0.993 0.078 111 37 54 0
-10.5349 25.2660 -45.4800 0.090 -0.993 0.078 111 37 53 0
-10.3335 25.2806 -45.5268 0.090 -0.993 0.078 111 37 53 0
-10.2048 25.7433 -45.7320 -0.115 -0.993 -0.004 111 38 53 0
-10.0082 25.7929 -45.7914 -0.163 -0.986 -0.037 107 35 52 0
-9.2854 26.4163 -46.1801 -0.060 -0.917 -0.394 105 38 50 0
-8.8663 26.3615 -46.2445 0.170 -0.881 -0.442 103 37 51 0
-8.6835 26.5148 -46.3412 -0.033 -0.979 -0.202 101 34 50 0
-8.4877 26.5826 -46.4074 -0.135 -0.985 0.103 99 32 47 0
-8.1137 25.4027 -46.0275 0.047 -0.825 -0.563 100 32 47 0
-5.7796 26.2467 -46.8307 0.607 -0.730 0.314 82 29 44 0
-5.6778 30.7211 -48.5817 0.788 -0.464 0.404 78 28 40 0
-5.4809 30.8608 -48.6760 0.707 -0.506 0.494 76 28 40 0
-2.3188 31.1245 -49.4239 0.346 -0.862 0.370 71 41 47 0
-2.1408 31.5450 -49.6229 -0.036 -0.995 0.095 74 44 49 0
-1.5127 28.9503 -48.7479 0.505 -0.854 -0.129 75 48 53 0
-0.9121 35.3608 -51.3495 0.766 -0.314 -0.561 81 57 63 0
-0.1468 45.0468 -55.2514 0.889 -0.405 -0.216 92 80 84 0
1.1830 42.0692 -54.3716 -0.338 -0.825 0.452 118 113 113 0
6.9567 42.9347 -55.8858 -0.181 -0.749 0.637 190 185 81 0
7.1873 42.1308 -55.6220 0.119 -0.719 0.685 196 190 79 0
7.6452 41.6631 -55.5347 0.053 -0.700 0.712 202 196 79 0
9.4705 41.3753 -55.7963 0.100 -0.976 0.191 214 209 72 0
15.3210 51.2578 -60.8130 -0.440 -0.848 0.297 191 194 62 0
15.5117 50.4225 -60.5290 -0.529 -0.793 0.303 189 191 64 0
17.1770 41.2566 -57.3247 0.117 -0.719 0.686 172 170 56 0
17.4542 41.8620 -57.6155 0.295 -0.743 0.601 171 168 58 0
19.7168 46.3760 -59.8232 0.175 -0.789 0.589 152 146 68 0
21.4780 43.4056 -59.0344 -0.185 -0.965 0.184 185 173 148 0
21.6380 42.8282 -58.8438 -0.054 -0.627 0.777 187 176 154 0
24.3457 24.8550 -52.4467 0.713 -0.448 0.539 191 180 174 0
24.7750 21.7772 -51.3442 0.183 -0.418 0.890 191 178 169 0
35.4880 53.9062 -65.9570 -0.854 -0.510 -0.102 180 172 160 0
32.4313 29.1352 -55.7537 0.935 -0.324 0.146 179 168 161 0
33.4887 15.0876 -50.5375 0.909 -0.411 -0.069 170 159 154 0
33.9806 16.2372 -51.0825 0.914 -0.406 -0.018 168 157 153 0
-66.4874 33.6330 -37.5372 0.038 -0.999 0.040 255 255 255 0
-66.2600 33.6470 -37.5891 0.078 -0.997 0.003 135 135 135 0
-66.0348 33.6646 -37.6419 0.078 -0.997 0.003 68 66 65 0
-65.8167 33.6931 -37.6975 0.056 -0.998 -0.015 228 220 216 0
-65.6022 33.7276 -37.7547 0.119 -0.992 -0.041 231 222 219 0
-65.1544 33.3935 -37.7162 0.017 -0.999 -0.030 233 223 221 0
-24.0095 23.3221 -42.1991 -0.493 -0.826 -0.273 228 216 217 0
-22.5710 37.9332 -48.1735 -0.752 -0.487 -0.445 156 100 113 0
-21.1466 34.9349 -47.2985 -0.710 -0.502 -0.494 150 86 101 0
-15.1749 26.6903 -45.3120 0.449 -0.798 -0.403 126 54 68 0
-10.7741 25.1747 -45.6210 -0.045 -0.933 0.358 113 39 56 0
-10.5666 25.1519 -45.6545 -0.045 -0.933 0.358 112 39 56 0
-10.3610 25.1401 -45.6919 -0.037 -0.935 0.352 112 39 55 0
-10.1648 25.1852 -45.7495 -0.115 -0.904 0.413 112 40 54 0
-10.0610 25.8063 -46.0121 -0.151 -0.988 -0.045 110 39 55 0
-8.3212 25.0908 -46.0891 -0.122 -0.960 -0.253 101 35 47 0
-8.1901 25.5915 -46.3105 0.047 -0.825 -0.563 100 33 46 0
-7.7441 25.3146 -46.2939 -0.161 -0.986 0.042 94 33 46 0
-7.5362 25.2796 -46.3227 -0.161 -0.986 0.042 93 33 45 0
-7.1063 25.1002 -46.3407 0.066 -0.981 0.182 91 34 44 0
-7.2029 27.3697 -47.2034 0.607 -0.750 0.262 89 33 42 0
-7.0504 27.7879 -47.3971 0.581 -0.786 -0.210 88 33 42 0
-6.8872 28.1348 -47.5653 0.618 -0.786 -0.032 88 33 42 0
-6.8020 29.1101 -47.9619 0.421 -0.898 -0.130 88 33 44 0
-6.5849 29.0524 -47.9837 0.376 -0.907 -0.190 86 32 46 0
-5.4687 32.2210 -49.4435 -0.013 -0.358 0.934 76 29 40 0
-4.1634 25.9408 -47.2683 0.335 -0.549 0.766 72 32 43 0
-2.1682 31.2885 -49.7547 0.342 -0.822 0.456 74 46 51 0
-1.8893 30.4632 -49.4908 0.104 -0.995 0.001 75 49 53 0
-1.6682 30.3345 -49.4858 0.073 -0.997 -0.023 74 50 54 0
-1.4468 30.1938 -49.4763 0.369 -0.928 0.050 74 52 57 0
-0.1901 44.8859 -55.4451 0.870 -0.492 -0.028 97 87 91 0
1.6832 45.4860 -56.0609 0.057 -0.066 0.996 133 132 130 0
3.5382 38.9831 -53.9112 -0.371 -0.632 0.680 142 147 141 0
7.3691 41.7478 -55.7681 0.444 -0.838 0.317 196 190 79 0
7.5984 41.7051 -55.7983 0.073 -0.908 0.413 200 195 79 0
8.0584 41.8779 -55.9593 -0.497 -0.847 0.189 206 200 76 0
8.5315 43.0327 -56.5049 -0.680 -0.660 0.321 208 203 75 0
8.9704 41.5226 -56.0073 -0.150 -0.875 0.461 211 207 73 0
9.1984 41.4899 -56.0412 -0.190 -0.880 0.435 212 208 72 0
9.7864 37.3443 -54.5494 -0.489 -0.715 0.499 214 211 72 0
10.2131 36.8223 -54.4335 -0.457 -0.794 0.402 212 210 68 0
10.9187 38.2738 -55.1419 -0.352 -0.930 0.105 210 212 66 0
11.9127 46.8290 -58.6711 -0.858 -0.504 0.096 208 212 65 0
15.4199 36.2504 -55.2740 0.407 -0.907 -0.112 181 183 60 0
15.6666 36.6560 -55.4821 -0.321 -0.942 0.101 178 180 58 0
15.8758 36.5466 -55.4822 -0.323 -0.943 0.085 177 178 56 0
17.0056 42.4399 -58.0042 0.517 -0.577 0.632 172 171 54 0
17.2343 42.4479 -58.0539 0.288 -0.854 0.433 170 169 55 0
17.4391 42.1761 -57.9901 0.055 -0.863 0.502 168 166 56 0
18.0048 43.4308 -58.5934 -0.161 -0.860 0.483 163 161 57 0
19.2472 46.8132 -60.1621 0.734 -0.455 -0.504 154 150 66 0
23.4461 50.3115 -62.3793 0.230 -0.420 0.878 192 181 162 0
23.4748 25.6656 -52.8028 0.717 -0.694 0.055 192 182 170 0
23.7364 26.0930 -53.0224 0.724 -0.685 0.080 192 182 172 0
24.0649 25.7063 -52.9391 0.389 -0.738 -0.552 192 181 172 0
29.6900 43.7810 -61.1147 0.358 -0.670 0.650 189 177 167 0
25.9012 14.4482 -48.9368 -0.327 -0.943 -0.069 184 174 163 0
32.4463 29.3243 -56.0566 0.921 -0.286 0.263 179 169 159 0
34.8112 35.0286 -58.7572 0.941 -0.277 0.194 177 167 157 0
-66.5757 33.6360 -37.7727 0.025 -0.999 -0.025 255 255 255 0
-66.3416 33.6399 -37.8220 0.078 -0.997 0.003 135 135 135 0
-66.1130 33.6523 -37.8734 0.076 -0.997 -0.005 68 66 65 0
-65.8911 33.6750 -37.9276 0.078 -0.997 0.003 228 219 217 0
-65.6621 33.6868 -37.9789 0.055 -0.998 -0.008 231 221 220 0
-65.0664 33.1200 -37.8788 -0.015 -0.998 -0.069 232 222 222 0
-33.5555 44.3403 -48.6918 0.734 -0.591 -0.336 230 222 220 0
-23.5345 22.2178 -42.0879 -0.476 -0.765 -0.434 228 217 217 0
-26.2323 40.9216 -48.8490 -0.123 -0.790 -0.601 213 194 192 0
-25.2538 39.0586 -48.3204 -0.317 -0.894 0.315 209 188 187 0
-24.1700 40.3001 -49.0267 -0.776 -0.440 -0.452 189 149 152 0
-15.2451 26.7690 -45.5577 0.502 -0.781 -0.371 125 55 70 0
-10.4000 25.0702 -45.8818 -0.037 -0.935 0.352 113 42 57 0
-10.1930 25.0484 -45.9155 -0.112 -0.907 0.406 111 41 55 0
-8.7860 26.5301 -46.7817 -0.375 -0.824 0.425 106 43 54 0
-8.3725 25.1035 -46.3084 -0.104 -0.966 -0.236 100 36 47 0
-8.1960 25.2880 -46.4165 -0.198 -0.964 -0.175 99 35 46 0
-7.9749 25.1624 -46.4125 -0.179 -0.964 -0.198 96 32 45 0
-7.7509 25.0119 -46.3993 -0.228 -0.964 -0.140 95 34 45 0
-7.0809 27.6402 -47.5634 0.053 -0.946 -0.319 86 35 44 0
-6.6972 27.8855 -47.7375 0.428 -0.889 0.162 87 35 44 0
-6.5071 28.0265 -47.8314 0.355 -0.935 0.006 86 35 45 0
-6.2760 27.8377 -47.8047 0.316 -0.868 0.384 83 32 43 0
-5.5011 32.0572 -49.6122 0.047 -0.361 0.931 77 31 42 0
-1.9095 30.1195 -49.5873 0.185 -0.981 -0.057 75 51 56 0
-1.6996 30.1264 -49.6328 0.092 -0.969 -0.227 74 53 56 0
-1.4947 30.1986 -49.7028 0.100 -0.995 0.006 75 56 60 0
-1.1697 37.6573 -52.6847 0.669 -0.402 -0.625 81 61 67 0
3.7053 39.3540 -54.3423 -0.630 -0.628 0.457 148 151 145 0
4.4083 38.2297 -54.0462 -0.217 -0.599 0.771 143 145 134 0
4.6029 39.6867 -54.6554 0.250 -0.526 0.813 139 142 127 0
6.1593 43.7182 -56.5488 0.349 -0.660 0.665 178 169 101 0
7.5503 41.4758 -55.9559 0.089 -0.907 0.413 199 193 83 0
8.2427 42.0296 -56.3136 -0.393 -0.892 0.222 206 200 78 0
8.4709 41.8891 -56.3052 -0.294 -0.745 0.599 206 202 76 0
8.7020 42.0019 -56.3965 -0.372 -0.742 0.558 207 204 74 0
8.9263 41.6588 -56.3081 -0.015 -0.911 0.413 210 206 73 0
9.1570 41.7547 -56.3926 -0.045 -0.863 0.503 210 206 73 0
9.3798 41.4309 -56.3115 -0.192 -0.876 0.443 211 207 73 0
9.6063 41.3422 -56.3230 -0.237 -0.865 0.442 212 208 74 0
9.8300 41.1486 -56.2930 0.000 -0.827 0.562 214 210 74 0
10.0594 41.2136 -56.3652 -0.076 -0.850 0.522 212 210 72 0
10.1641 36.6271 -54.5937 -0.494 -0.722 0.484 211 210 70 0
10.5933 36.3294 -54.5648 -0.492 -0.707 0.508 210 211 68 0
13.5438 51.9470 -61.2716 0.119 -0.475 -0.872 198 201 68 0
15.6156 36.5161 -55.6622 0.369 -0.922 -0.118 178 180 58 0
17.3865 42.0496 -58.1864 0.102 -0.872 0.479 166 164 57 0
17.9949 43.7950 -58.9928 -0.303 -0.843 0.444 162 160 59 0
23.4206 25.5238 -52.9571 0.727 -0.684 0.063 192 182 170 0
24.1047 26.1541 -53.3430 0.356 -0.742 -0.567 192 182 172 0
24.2956 21.5106 -51.5668 0.692 -0.233 0.683 191 181 171 0
30.0485 43.4616 -61.3209 0.824 -0.461 -0.331 186 176 166 0
29.6188 26.4543 -54.5850 -0.254 -0.719 0.647 181 170 163 0
35.6165 46.1496 -63.5073 0.075 -0.976 0.205 181 168 159 0
33.6647 30.3781 -56.9441 0.454 -0.882 -0.125 180 168 158 0
35.1209 35.5680 -59.2698 0.763 -0.554 -0.332 180 168 156 0
35.8869 36.9780 -59.9772 0.649 -0.726 -0.226 177 165 153 0
41.8943 51.7236 -66.9665 0.242 -0.489 -0.838 172 162 152 0
46.2825 47.4450 -66.1890 -0.590 -0.714 -0.376 158 146 135 0
46.9561 46.6737 -66.0249 -0.372 -0.852 -0.369 50 50 50 0
-66.6717 33.6508 -38.0115 0.049 -0.999 0.023 255 255 255 0
-66.4214 33.6297 -38.0543 0.076 -0.997 -0.005 135 135 135 0
-66.1959 33.6472 -38.1071 0.076 -0.997 -0.005 68 66 65 0
-65.9726 33.6680 -38.1607 0.078 -0.997 0.003 228 219 218 0
-65.7472 33.6855 -38.2136 0.078 -0.997 0.003 231 221 220 0
-65.5247 33.7076 -38.2676 -0.006 -0.972 0.236 232 222 222 0
-24.1073 25.3493 -43.4233 -0.188 -0.712 -0.677 227 215 215 0
-24.7485 38.6792 -48.5314 0.192 -0.783 0.592 208 186 181 0
-24.5193 38.6952 -48.5844 0.192 -0.783 0.592 205 181 177 0
-15.4676 26.5799 -45.6677 0.565 -0.753 -0.338 125 58 72 0
-15.3099 26.8211 -45.7947 0.530 -0.768 -0.359 124 59 72 0
-9.3938 26.1370 -46.7314 -0.282 -0.806 -0.521 105 40 51 0
-8.8151 26.3871 -46.9477 -0.382 -0.858 0.344 103 41 53 0
-8.4238 25.1161 -46.5279 -0.194 -0.950 -0.245 99 37 49 0
-8.2156 25.0808 -46.5565 -0.194 -0.950 -0.245 98 36 47 0
-7.9854 24.8902 -46.5284 -0.212 -0.946 -0.247 96 34 45 0
-7.7041 25.7839 -46.9370 0.248 -0.954 0.167 93 36 46 0
-7.5017 25.7966 -46.9833 0.244 -0.953 0.177 92 36 47 0
-6.3163 27.7639 -47.9980 0.370 -0.848 0.380 84 35 45 0
-6.6044 31.8532 -49.5464 0.363 -0.696 0.619 81 34 45 0
-5.0567 27.6226 -48.1992 -0.157 -0.944 0.291 76 33 43 0
-4.6034 27.2541 -48.1467 -0.036 -0.999 -0.037 74 34 43 0
-4.2199 27.5279 -48.3325 0.838 -0.545 -0.014 73 39 46 0
-4.2344 29.6923 -49.1802 -0.135 -0.965 -0.225 71 39 47 0
-1.7245 29.8384 -49.7491 0.429 -0.817 0.386 77 56 61 0
-1.4338 40.7255 -54.0870 0.688 -0.368 0.625 87 69 75 0
0.4088 40.6960 -54.4509 0.414 -0.883 0.222 113 108 112 0
3.3836 40.9270 -55.1480 0.919 -0.374 0.128 154 158 152 0
3.6635 39.1241 -54.4965 0.482 -0.795 -0.368 155 158 151 0
6.5781 43.7210 -56.8970 0.323 -0.729 0.603 182 178 96 0
7.2753 42.0285 -56.3740 -0.326 -0.945 0.036 195 187 89 0
8.8767 41.4446 -56.4709 -0.011 -0.931 0.366 209 204 77 0
9.3371 41.6078 -56.6288 -0.045 -0.863 0.503 210 205 74 0
10.0863 44.1641 -57.7862 -0.425 -0.855 0.297 211 209 73 0
10.3162 44.0289 -57.7799 -0.681 -0.721 0.123 210 209 72 0
10.3205 35.9469 -54.6045 0.271 -0.891 0.364 208 209 71 0
10.9130 40.8356 -56.6465 -0.170 -0.921 0.351 209 208 68 0
15.7729 36.2562 -55.8372 0.374 -0.613 0.696 174 175 58 0
17.1096 41.9567 -58.3499 0.075 -0.880 0.470 169 167 62 0
17.3372 41.9615 -58.3982 0.080 -0.879 0.470 167 164 62 0
17.5641 41.9580 -58.4431 0.080 -0.879 0.470 164 160 62 0
20.3913 42.9387 -59.4047 -0.505 -0.863 -0.021 172 163 121 0
24.4203 54.7898 -64.8833 -0.158 -0.973 -0.170 194 182 166 0
23.7413 20.6007 -51.3084 0.683 -0.236 0.692 191 183 172 0
24.3452 20.8848 -51.5431 0.534 -0.571 0.624 188 178 168 0
24.5067 20.7451 -51.5211 0.184 -0.735 0.653 189 179 169 0
29.1079 43.4667 -61.3886 0.437 -0.596 0.673 189 178 166 0
29.2844 43.1885 -61.3152 0.417 -0.713 0.564 189 176 167 0
29.5287 43.2889 -61.4044 0.449 -0.706 0.547 188 175 166 0
25.9828 14.2575 -49.2722 -0.088 -0.983 -0.164 183 173 162 0
29.3538 26.2572 -54.6752 -0.092 -0.788 0.608 181 169 160 0
29.5708 26.3653 -54.7619 -0.110 -0.713 0.692 181 169 161 0
32.6407 29.5530 -56.6403 0.916 -0.394 -0.070 177 167 155 0
33.1334 30.8037 -57.2323 0.916 -0.394 -0.070 176 166 154 0
41.0627 40.4196 -62.6273 -0.540 -0.820 -0.189 166 153 144 0
41.0244 38.7589 -61.9669 -0.485 -0.814 -0.321 166 153 144 0
47.2505 46.9743 -66.4644 -0.388 -0.839 -0.381 247 247 244 0
-66.7300 33.6072 -38.2353 0.076 -0.997 -0.005 255 255 255 0
-66.5044 33.6246 -38.2881 0.076 -0.997 -0.005 135 135 136 0
-66.2789 33.6421 -38.3410 0.076 -0.997 -0.005 68 65 64 0
-65.8278 33.6771 -38.4466 0.076 -0.997 -0.005 233 222 219 0
-65.5675 33.6399 -38.4849 -0.014 -0.971 0.237 234 224 221 0
-23.8795 25.0831 -43.5929 -0.367 -0.842 -0.396 227 215 215 0
-26.5216 41.4966 -49.5401 0.803 -0.391 0.450 214 198 198 0
-20.0017 32.2215 -47.2030 -0.211 -0.734 -0.645 147 81 95 0
-15.5248 26.5948 -45.8915 0.551 -0.757 -0.352 128 60 75 0
-15.4064 27.0249 -46.0855 0.492 -0.774 -0.398 127 60 73 0
-15.2557 29.3734 -47.0442 0.572 -0.553 -0.606 125 60 69 0
-15.0323 30.3953 -47.4934 0.643 -0.558 -0.525 124 54 64 0
-10.1785 26.8715 -47.0895 -0.376 -0.876 -0.301 107 41 53 0
-9.5100 26.5630 -47.1037 -0.255 -0.893 0.370 103 40 51 0
-8.8564 26.3270 -47.1436 -0.382 -0.858 0.344 99 37 48 0
-8.4777 25.1462 -46.7541 -0.212 -0.964 -0.161 98 37 49 0
-8.2812 25.1931 -46.8126 -0.198 -0.962 -0.187 97 37 49 0
-8.0692 25.1326 -46.8319 -0.173 -0.964 -0.200 97 39 51 0
-7.5787 27.5144 -47.8729 -0.444 -0.891 -0.094 88 38 50 0
-6.3550 27.6774 -48.1865 0.042 -0.928 0.371 83 36 46 0
-6.1995 31.6383 -49.7831 0.325 -0.378 0.867 79 37 48 0
-5.6500 30.5857 -49.4791 0.701 -0.390 0.597 78 36 46 0
-5.0870 27.4590 -48.3584 0.028 -0.942 0.336 78 37 46 0
-4.8585 27.2606 -48.3265 0.170 -0.970 0.174 77 38 47 0
-4.6480 27.2206 -48.3536 0.389 -0.921 0.019 76 38 48 0
-4.4517 27.3124 -48.4298 0.814 -0.581 -0.003 74 38 48 0
-4.5891 30.6030 -49.7020 0.866 -0.382 0.325 72 39 48 0
-4.2889 29.7461 -49.4246 -0.122 -0.947 -0.296 71 39 50 0
-0.6955 39.1931 -53.8889 -0.238 -0.965 0.110 94 82 90 0
3.6261 38.7426 -54.5910 -0.333 -0.507 0.795 160 165 158 0
3.8511 38.7517 -54.6403 -0.466 -0.562 0.683 162 165 158 0
6.5305 43.5184 -57.0694 0.545 -0.548 0.634 180 175 103 0
6.7638 43.5555 -57.1315 0.649 -0.619 0.443 187 179 98 0
6.9971 43.7364 -57.2505 0.643 -0.623 0.445 191 184 96 0
7.2311 43.9435 -57.3800 0.862 -0.483 0.155 193 187 95 0
8.1520 42.3611 -56.9423 -0.577 -0.736 0.354 201 196 81 0
8.6079 41.9360 -56.8672 -0.191 -0.728 0.658 204 199 79 0
8.8314 41.5100 -56.7443 0.060 -0.928 0.368 206 201 79 0
9.3343 43.9383 -57.8062 -0.351 -0.925 0.147 208 203 75 0
9.8039 44.0702 -57.9539 -0.436 -0.896 -0.080 209 206 75 0
10.0451 44.3885 -58.1288 -0.465 -0.885 -0.010 209 207 75 0
10.2841 44.5809 -58.2535 -0.148 -0.985 -0.083 208 208 74 0
10.5493 45.6892 -58.7454 0.007 -0.978 -0.210 207 207 73 0
14.0616 37.3928 -56.1826 -0.021 -1.000 0.019 186 189 61 0
14.2552 36.9688 -56.0545 0.014 -0.997 0.071 186 189 60 0
19.5208 43.7730 -59.8152 -0.040 -0.972 -0.230 151 143 83 0
20.3480 42.9141 -59.6442 -0.468 -0.883 0.040 177 165 127 0
23.9372 29.2985 -54.9954 -0.177 -0.939 0.296 192 182 170 0
23.8947 20.5906 -51.5461 0.609 -0.592 0.527 191 181 171 0
24.0813 20.5985 -51.5872 0.572 -0.501 0.649 190 180 170 0
24.2851 20.7080 -51.6720 0.545 -0.580 0.605 189 179 169 0
24.4169 20.3971 -51.5760 0.337 -0.709 0.620 188 179 168 0
29.2167 43.0117 -61.4887 0.417 -0.713 0.564 189 176 168 0
29.4423 43.0108 -61.5343 0.402 -0.739 0.541 188 175 167 0
29.4696 26.0242 -54.8282 -0.112 -0.743 0.660 180 170 160 0
32.6055 29.5261 -56.8504 0.912 -0.402 -0.086 176 166 153 0
34.1869 32.7971 -58.4649 0.889 -0.458 0.001 180 168 156 0
41.0416 40.4463 -62.8830 -0.512 -0.827 -0.230 167 154 145 0
42.5294 38.1548 -62.2806 -0.570 -0.706 0.421 160 147 138 0
47.4505 46.9739 -66.7672 -0.388 -0.838 -0.384 254 254 254 0
-66.8197 33.6120 -38.4720 0.097 -0.995 -0.001 255 255 255 0
-66.5876 33.6195 -38.5222 0.076 -0.997 -0.005 135 135 135 0
-66.3614 33.6362 -38.5748 0.078 -0.997 0.003 68 65 64 0
-65.9108 33.6723 -38.6809 0.062 -0.998 -0.006 233 222 218 0
-65.7034 33.7185 -38.7414 -0.010 -0.993 0.121 234 224 221 0
-24.1349 24.3459 -43.4761 -0.078 -0.987 0.144 227 217 216 0
-24.0276 24.6827 -43.6317 -0.186 -0.957 0.223 228 216 216 0
-23.7922 24.5863 -43.6413 -0.189 -0.956 0.222 227 215 215 0
-22.9765 22.4942 -42.9763 -0.613 -0.719 0.327 225 213 212 0
-19.9407 32.6427 -47.6252 -0.553 -0.651 -0.520 148 82 94 0
-16.3866 29.4115 -47.0648 -0.553 -0.671 -0.494 127 60 75 0
-15.3943 29.7850 -47.4151 0.550 -0.575 -0.606 125 60 69 0
-15.2520 30.1423 -47.5859 0.552 -0.574 -0.605 128 59 70 0
-11.8958 26.9095 -46.9847 -0.461 -0.789 -0.406 117 48 63 0
-11.0812 27.0040 -47.1879 0.754 -0.623 0.207 117 49 62 0
-10.9034 27.1833 -47.2953 0.754 -0.623 0.207 113 45 58 0
-8.8886 26.2058 -47.3170 -0.390 -0.832 0.394 100 39 51 0
-8.7055 26.3580 -47.4147 0.862 -0.382 0.332 100 40 51 0
-8.6129 27.1381 -47.7434 -0.299 -0.825 -0.480 98 39 51 0
-7.6345 27.5571 -48.1089 -0.457 -0.885 -0.084 89 38 50 0
-6.3793 27.4756 -48.3319 -0.046 -0.797 0.602 82 35 44 0
-5.1112 27.2430 -48.4976 0.032 -0.973 0.230 77 39 47 0
-4.8961 27.1637 -48.5098 0.373 -0.927 0.040 76 39 47 0
-4.3349 29.7170 -49.6382 -0.307 -0.866 -0.395 73 41 51 0
-4.1163 29.6389 -49.6517 -0.300 -0.870 -0.392 73 41 51 0
-3.9156 29.7385 -49.7321 -0.216 -0.902 -0.374 73 42 50 0
-0.7028 38.5234 -53.8754 -0.211 -0.954 0.215 97 86 94 0
-0.4648 38.3373 -53.8499 -0.001 -0.989 0.148 102 93 102 0
-0.2208 38.0388 -53.7809 0.180 -0.800 0.572 108 104 111 0
-0.0097 38.2772 -53.9186 0.174 -0.780 0.601 113 111 117 0
1.7046 35.2957 -53.0831 -0.244 -0.949 0.198 147 147 145 0
6.7164 43.1864 -57.2372 0.658 -0.607 0.445 185 177 104 0
6.9490 43.5441 -57.4266 0.687 -0.585 0.432 187 180 99 0
7.8774 42.8372 -57.3347 -0.391 -0.743 0.543 199 191 87 0
8.1077 42.6643 -57.3128 -0.434 -0.714 0.549 200 194 85 0
8.3341 42.1998 -57.1744 -0.446 -0.754 0.482 202 196 85 0
8.5593 41.7802 -57.0536 -0.191 -0.728 0.658 203 198 83 0
8.8202 43.9401 -57.9646 0.546 -0.837 0.030 205 199 82 0
9.0550 44.0173 -58.0431 0.540 -0.832 -0.129 206 201 79 0
9.2899 44.0782 -58.1150 -0.379 -0.914 0.145 205 201 76 0
9.7604 44.2207 -58.2674 -0.426 -0.899 -0.104 207 204 76 0
9.9911 44.0868 -58.2611 -0.438 -0.898 -0.032 207 206 75 0
10.2226 44.0078 -58.2769 -0.335 -0.942 -0.011 206 206 73 0
15.3305 37.2935 -56.6490 0.294 -0.941 -0.168 173 176 61 0
15.5682 37.5491 -56.7989 0.476 -0.878 -0.049 172 175 61 0
16.7884 41.8373 -58.7506 0.647 -0.578 0.498 165 165 64 0
19.2531 43.8139 -60.0372 0.017 -0.983 -0.182 150 141 81 0
19.4849 43.8277 -60.0899 0.017 -0.983 -0.182 152 143 89 0
22.6979 22.6843 -52.3449 0.322 -0.915 0.243 194 184 172 0
24.1684 20.1980 -51.6565 0.531 -0.497 0.686 189 179 168 0
28.9818 43.1640 -61.7585 0.461 -0.870 0.178 190 178 169 0
29.1567 42.8778 -61.6804 0.249 -0.953 0.175 190 177 168 0
29.3930 42.9361 -61.7516 0.244 -0.953 0.179 190 177 168 0
29.7670 43.7467 -62.1497 0.727 -0.546 -0.416 188 176 167 0
29.4484 32.9442 -57.7939 0.864 -0.500 -0.053 182 172 162 0
29.1817 30.5686 -56.7960 0.708 -0.477 0.522 182 172 162 0
26.0407 13.9505 -49.5557 -0.507 -0.720 -0.474 181 171 160 0
26.1230 13.5074 -49.3965 -0.531 -0.680 -0.506 182 172 160 0
29.2945 24.4222 -54.3774 0.904 -0.381 -0.192 178 169 159 0
31.5965 28.7208 -56.5533 0.760 -0.616 0.207 181 169 158 0
31.6072 27.8927 -56.2266 0.642 -0.537 -0.548 180 168 157 0
32.5365 29.3534 -56.9959 0.916 -0.395 -0.074 178 168 155 0
42.0690 42.6288 -64.2087 0.255 -0.819 -0.514 164 151 142 0
40.8628 34.0448 -60.5535 -0.442 -0.892 0.094 162 149 140 0
42.1685 37.7480 -62.2902 -0.415 -0.903 0.112 161 148 139 0
45.4225 44.1846 -65.5090 0.038 -0.993 -0.114 156 144 130 0
-67.1224 33.5794 -38.6507 0.076 -0.997 -0.005 255 255 255 0
-66.9014 33.6043 -38.7056 0.097 -0.995 -0.001 255 255 255 0
-66.6709 33.6144 -38.7565 0.076 -0.997 -0.005 135 135 135 0
-66.4433 33.6291 -38.8086 0.078 -0.997 0.003 69 66 64 0
-65.9929 33.6660 -38.9149 0.084 -0.996 -0.005 235 224 220 0
-65.8542 33.8201 -39.0047 -0.015 -0.987 0.158 235 225 222 0
-24.1853 24.3199 -43.6822 -0.078 -0.987 0.144 228 218 217 0
-23.9858 24.3441 -43.7324 -0.033 -0.995 0.099 229 217 217 0
-22.7947 23.7886 -43.7527 -0.546 -0.722 0.424 223 212 210 0
-25.6374 42.1775 -50.5182 0.133 -0.867 0.481 207 190 186 0
-24.5898 40.0167 -49.8682 -0.549 -0.796 -0.254 204 184 181 0
-16.0939 27.7781 -46.7081 0.019 -0.756 -0.654 129 63 77 0
-8.8248 26.8265 -47.8059 0.519 -0.825 0.224 99 41 53 0
-7.6859 27.5672 -48.3332 -0.452 -0.887 -0.096 96 44 56 0
-6.3705 27.0085 -48.3776 -0.084 -0.750 0.657 84 37 45 0
-6.2664 27.8424 -48.7318 0.473 -0.717 0.512 81 37 48 0
-5.8498 27.8357 -48.8137 0.227 -0.770 0.596 76 37 48 0
-5.1977 29.4439 -49.5886 0.466 -0.434 0.771 77 40 51 0
-2.8997 39.8118 -54.1960 0.822 -0.483 -0.303 82 61 66 0
-2.6693 39.8006 -54.2384 0.755 -0.506 -0.416 84 65 69 0
-2.2139 39.8419 -54.3474 0.409 -0.712 -0.570 91 73 79 0
-0.7400 38.3200 -54.0394 -0.017 -0.998 0.066 104 93 103 0
-0.4946 38.0145 -53.9672 0.128 -0.964 0.233 109 102 110 0
-0.2632 37.9146 -53.9744 0.563 -0.750 0.349 115 112 118 0
-0.0493 38.1032 -54.0932 0.579 -0.738 0.347 121 121 127 0
1.6589 35.2491 -53.3007 -0.097 -0.992 -0.079 152 152 150 0
3.2479 40.5509 -55.7410 0.922 -0.349 0.167 168 170 166 0
3.5440 38.2541 -54.8840 -0.373 -0.491 0.788 169 171 166 0
3.7675 38.2962 -54.9462 -0.416 -0.577 0.703 170 172 166 0
8.5165 42.0967 -57.4294 0.081 -0.957 0.279 202 196 86 0
8.7713 43.8292 -58.1730 0.522 -0.853 -0.008 204 198 85 0
9.0061 43.9108 -58.2534 0.607 -0.782 -0.140 205 200 82 0
9.2380 43.8109 -58.2606 -0.317 -0.944 0.092 204 200 80 0
9.4672 43.6005 -58.2232 -0.301 -0.943 0.144 204 200 78 0
9.6684 42.1335 -57.6783 -0.121 -0.966 0.229 203 202 77 0
12.6365 52.5878 -62.4564 -0.882 -0.468 -0.054 192 197 68 0
14.4293 37.5811 -56.8282 0.345 -0.934 -0.091 179 181 61 0
16.3746 39.9794 -58.1814 0.585 -0.510 0.631 162 164 63 0
17.4817 48.0857 -61.6436 0.334 -0.564 0.756 160 160 62 0
20.2763 43.0045 -60.1827 -0.471 -0.882 -0.002 180 167 138 0
23.9878 20.3993 -51.9101 0.755 -0.439 0.486 189 179 167 0
24.1926 20.5158 -51.9982 0.742 -0.452 0.495 186 178 165 0
41.0725 34.8449 -61.1521 0.745 -0.604 0.281 158 145 136 0
42.2496 38.1126 -62.6963 -0.441 -0.884 0.156 157 144 135 0
42.4088 37.9323 -62.6567 -0.421 -0.898 0.129 157 144 135 0
42.3996 37.1933 -62.3597 -0.275 -0.956 -0.100 155 143 132 0
45.1755 44.1996 -65.7219 0.038 -0.993 -0.114 155 143 129 0
45.4037 44.2142 -65.7741 0.038 -0.993 -0.114 155 143 128 0
46.7083 43.4034 -65.7155 -0.064 -0.970 -0.236 255 255 254 0
-67.2220 33.5990 -38.8919 0.071 -0.997 0.008 255 255 255 0
-66.9949 33.6147 -38.9443 0.071 -0.997 0.008 255 255 255 0
-66.7542 33.6093 -38.9911 0.076 -0.997 -0.005 135 135 135 0
-66.5283 33.6268 -39.0440 0.076 -0.997 -0.005 69 66 64 0
-66.0762 33.6614 -39.1497 0.094 -0.995 -0.028 235 224 221 0
-65.9179 33.7848 -39.2314 -0.015 -0.987 0.158 233 223 221 0
-24.2341 24.2883 -43.8864 -0.119 -0.982 0.143 228 218 217 0
-25.2314 45.9912 -52.3965 -0.788 -0.442 -0.429 198 168 173 0
-18.0935 32.7454 -48.5289 -0.302 -0.597 -0.743 134 69 82 0
-16.0433 28.2751 -47.1508 -0.060 -0.791 -0.609 130 65 79 0
-15.4117 31.4605 -48.5579 -0.692 -0.545 -0.473 138 70 81 0
-13.6096 28.8204 -47.8641 -0.533 -0.787 0.310 124 58 72 0
-13.1351 28.5469 -47.8506 -0.635 -0.751 0.181 123 58 72 0
