ply
format ascii 1.0
element vertex 811
property float x
property float y
property float z
property float nx
property float ny
property float nz
property uchar diffuse_red
property uchar diffuse_green
property uchar diffuse_blue
property uchar class
end_header
-1.6859 27.8282 -64.2415 0.502 -0.769 0.397 166 167 167 0
0.3727 24.1947 -62.7038 -0.108 -0.983 -0.151 160 159 160 0
7.1918 19.0748 -61.3111 0.681 -0.725 -0.106 151 147 144 0
7.5701 18.7762 -61.2260 0.040 -0.894 0.446 148 144 141 0
16.7518 34.6280 -71.5217 0.895 -0.109 0.434 139 133 124 0
16.1016 9.0340 -57.6982 -0.736 -0.430 -0.522 136 128 120 0
16.4763 10.5789 -58.5989 -0.688 -0.427 -0.587 136 127 119 0
25.8289 42.3813 -77.4633 0.899 -0.437 -0.025 136 126 116 0
26.1898 43.1010 -77.9197 0.773 -0.538 -0.335 136 126 116 0
27.1400 44.4385 -78.8230 0.219 -0.958 -0.186 140 127 118 0
25.4704 32.8204 -72.2766 -0.173 -0.840 0.515 140 128 116 0
25.7511 33.1655 -72.5167 -0.176 -0.894 0.411 139 127 115 0
29.7741 38.8793 -76.3686 -0.191 -0.550 -0.813 145 133 119 0
39.0801 38.2476 -77.8688 0.350 -0.497 0.794 138 121 113 0
43.7719 39.6328 -79.5367 -0.434 -0.881 -0.189 255 255 255 0
-73.1239 33.9179 -53.6592 0.552 -0.730 -0.402 255 255 255 0
-71.4473 32.1488 -53.0394 0.671 -0.694 -0.262 255 255 255 0
-71.2947 32.2770 -53.1385 0.670 -0.682 -0.293 133 133 133 0
-71.1742 32.4538 -53.2573 0.669 -0.683 -0.293 72 69 69 0
-71.0565 32.6360 -53.3784 0.669 -0.696 -0.262 234 225 225 0
-72.1931 35.4432 -54.6625 0.204 -0.881 -0.426 236 228 228 0
-29.3672 44.5650 -68.0169 -0.169 -0.834 -0.526 208 203 207 0
-25.5474 32.9879 -62.5500 -0.753 -0.630 -0.188 204 203 205 0
-24.5048 38.0804 -65.4922 -0.230 -0.789 0.570 204 201 208 0
-23.9542 36.7934 -64.9093 -0.425 -0.740 0.521 203 200 207 0
-14.9185 22.5413 -59.0345 0.406 -0.512 -0.757 193 191 196 0
-16.1913 32.9120 -64.3559 0.665 -0.720 0.200 192 189 196 0
-16.7800 37.4329 -66.6690 -0.285 -0.761 -0.583 191 187 193 0
-16.4605 38.2921 -67.1937 -0.164 -0.601 -0.782 192 186 192 0
-12.7905 28.5818 -62.7003 -0.340 -0.343 0.876 185 185 193 0
-11.8651 29.6626 -63.4637 -0.070 -0.986 -0.153 183 184 189 0
-9.9941 30.4240 -64.2422 0.348 -0.595 0.724 180 181 186 0
-9.7775 30.4519 -64.2999 0.147 -0.790 0.595 179 179 184 0
-9.3581 30.6204 -64.4732 0.326 -0.637 0.698 178 178 183 0
-9.1355 30.6025 -64.5075 0.379 -0.746 0.548 179 179 183 0
-8.8453 30.0229 -64.2534 0.616 -0.758 0.214 177 177 182 0
-5.8431 28.3630 -63.9540 -0.332 -0.626 0.705 174 173 178 0
-5.6060 28.1274 -63.8742 -0.335 -0.633 0.698 174 173 177 0
-5.3453 27.6216 -63.6539 -0.530 -0.617 0.582 173 172 175 0
-2.5940 24.7792 -62.6695 -0.490 -0.726 0.483 166 166 169 0
-2.4366 25.5426 -63.1109 0.663 -0.732 -0.153 166 166 169 0
-2.2410 25.7512 -63.2616 0.663 -0.732 -0.153 166 166 167 0
-1.8723 26.5853 -63.7825 0.292 -0.815 0.500 166 166 165 0
-1.6605 26.5673 -63.8146 0.289 -0.803 0.522 166 166 165 0
-0.0194 10.4928 -55.5010 -0.200 -0.956 -0.216 164 164 164 0
-0.1937 26.7206 -64.1866 -0.312 -0.949 -0.042 162 162 162 0
0.0368 26.2430 -63.9754 -0.191 -0.967 -0.169 161 161 161 0
0.5277 24.3517 -63.0560 -0.152 -0.974 -0.166 161 160 157 0
0.7428 24.0947 -62.9604 -0.401 -0.896 0.190 160 159 154 0
7.5495 19.3581 -61.7587 -0.035 -0.971 -0.236 148 144 141 0
26.9258 42.1644 -77.8380 -0.088 -0.959 -0.268 140 127 118 0
25.4661 32.9813 -72.6154 -0.031 -0.990 -0.138 140 128 116 0
25.6826 32.9804 -72.6577 -0.031 -0.990 -0.138 140 128 116 0
25.8991 32.9795 -72.6999 -0.031 -0.990 -0.138 140 128 116 0
26.1906 33.3736 -72.9692 0.135 -0.947 -0.292 141 129 117 0
31.2559 38.5530 -76.7521 -0.624 -0.581 0.523 147 133 120 0
37.4543 37.3394 -77.3234 0.792 -0.114 0.600 141 124 117 0
39.0331 38.1848 -78.0893 0.238 -0.498 0.834 139 122 114 0
40.3662 37.4239 -77.9436 -0.567 -0.816 -0.109 135 121 112 0
42.2866 40.7442 -80.1068 -0.291 -0.954 -0.074 133 119 108 0
42.4947 40.6812 -80.1140 -0.291 -0.954 -0.074 133 119 107 0
-73.4360 34.2429 -54.0426 0.700 -0.563 -0.440 255 255 255 0
-71.5402 32.1531 -53.2889 0.671 -0.694 -0.262 255 255 255 0
-71.3929 32.2893 -53.3915 0.670 -0.682 -0.293 133 133 133 0
-71.1362 32.6208 -53.6210 0.641 -0.710 -0.290 234 225 226 0
-72.3480 35.5387 -54.9565 0.209 -0.888 -0.410 236 229 229 0
-29.1048 16.4753 -53.1990 0.734 -0.474 0.486 223 219 220 0
-33.0343 46.4635 -68.6058 0.818 -0.344 0.460 212 210 212 0
-30.1986 45.4954 -68.6427 -0.162 -0.723 -0.672 209 207 212 0
-24.9098 31.1957 -61.9697 -0.763 -0.611 -0.209 207 204 207 0
-24.1613 37.3842 -65.4566 -0.106 -0.915 -0.389 203 200 208 0
-17.9517 20.1576 -57.3859 -0.212 -0.825 -0.524 200 198 203 0
-17.8024 20.3972 -57.5445 -0.022 -0.925 -0.380 201 199 204 0
-15.8454 23.8536 -59.7957 0.282 -0.530 -0.800 194 192 195 0
-7.8686 24.9853 -61.9797 -0.314 -0.492 0.812 179 177 182 0
-7.1611 24.2650 -61.7305 -0.275 -0.519 0.810 177 174 181 0
-6.8728 23.5270 -61.3891 -0.289 -0.506 0.812 176 174 180 0
-5.8917 18.1244 -58.6674 -0.087 -0.934 -0.347 176 175 181 0
-5.6961 18.1216 -58.7045 -0.231 -0.947 -0.222 175 174 180 0
-5.5182 18.2924 -58.8317 -0.168 -0.957 -0.235 174 173 179 0
-5.8590 28.0085 -64.0074 -0.329 -0.572 0.751 174 173 178 0
-5.6454 28.0194 -64.0554 -0.294 -0.628 0.721 173 173 175 0
-1.9959 21.1854 -61.0875 -0.549 -0.780 0.301 167 166 169 0
-2.1408 26.7602 -64.0671 0.209 -0.874 -0.440 166 166 166 0
0.1167 10.5684 -55.7752 -0.182 -0.964 -0.193 164 164 162 0
0.2916 10.6590 -55.8586 -0.034 -0.971 -0.235 163 163 161 0
-0.0036 26.1221 -64.1444 0.480 -0.749 -0.457 163 162 163 0
0.1953 26.3842 -64.3251 0.420 -0.727 -0.543 162 161 159 0
3.5584 25.2840 -64.3947 0.524 -0.506 -0.685 153 153 151 0
4.5953 28.3186 -66.2367 0.541 -0.539 -0.646 154 150 151 0
4.8065 27.7924 -65.9944 0.572 -0.590 -0.570 154 150 151 0
10.9438 18.4243 -62.1498 0.151 -0.987 0.056 142 139 134 0
12.0327 17.6226 -61.9320 0.560 -0.387 0.733 140 137 129 0
26.1707 33.4472 -73.2596 0.206 -0.953 -0.223 139 128 116 0
30.4685 35.1877 -75.0465 -0.269 -0.928 -0.256 146 133 119 0
30.8669 35.0063 -75.0272 -0.239 -0.964 -0.115 145 132 118 0
31.2079 35.5350 -75.3798 -0.028 -0.987 -0.156 144 131 120 0
32.6995 26.1843 -70.6283 -0.132 -0.946 -0.297 142 125 115 0
41.0517 43.6247 -81.6866 0.846 -0.455 0.279 136 122 111 0
41.4301 44.1130 -82.0247 0.843 -0.466 0.270 135 122 111 0
42.0509 45.4093 -82.8467 0.681 -0.404 0.611 136 124 113 0
-73.3388 33.9644 -54.1817 0.534 -0.748 -0.394 255 255 255 0
-71.6333 32.1576 -53.5388 0.612 -0.723 -0.321 255 255 255 0
-71.4949 32.3071 -53.6471 0.641 -0.712 -0.288 133 133 133 0
-71.2454 32.6495 -53.8818 0.655 -0.700 -0.285 233 225 226 0
-72.5251 35.6674 -55.2649 0.361 -0.804 -0.473 236 229 229 0
-30.3566 22.9586 -56.6898 0.035 -0.752 0.659 222 216 217 0
-32.9272 44.9959 -68.1245 0.720 -0.691 0.063 212 210 212 0
-30.1578 44.1765 -68.2263 0.503 -0.820 -0.273 210 208 213 0
-29.9918 44.4894 -68.4285 -0.320 -0.832 -0.454 210 207 213 0
-29.9937 45.4195 -68.9322 -0.131 -0.668 -0.732 210 205 210 0
-24.8176 30.6111 -61.9281 -0.727 -0.669 -0.154 207 201 205 0
-23.4944 36.3150 -65.2797 -0.350 -0.726 -0.592 200 197 206 0
-18.3640 20.8522 -57.9121 -0.255 -0.939 -0.230 199 197 202 0
-18.1159 20.6536 -57.8534 -0.074 -0.898 -0.433 199 197 202 0
-17.8845 20.5266 -57.8302 -0.042 -0.947 -0.318 199 197 202 0
-17.7064 20.6402 -57.9269 -0.002 -0.906 -0.423 198 196 201 0
-17.6267 22.1569 -58.7644 0.269 -0.963 -0.020 197 196 201 0
-17.4738 22.4063 -58.9297 0.338 -0.931 0.135 197 195 200 0
-15.7586 24.2079 -60.2440 0.789 -0.398 -0.469 193 191 194 0
-14.4176 24.9088 -60.8881 -0.155 -0.714 0.683 191 187 192 0
-14.1936 24.8335 -60.8914 -0.104 -0.751 0.652 191 187 192 0
-13.9750 24.7875 -60.9096 -0.104 -0.751 0.652 189 186 192 0
-13.7813 24.8836 -60.9999 -0.231 -0.485 0.843 188 186 191 0
-8.1986 25.5800 -62.4776 -0.365 -0.677 0.639 180 178 183 0
-7.7446 25.2943 -62.4122 -0.411 -0.602 0.684 179 177 181 0
-6.9812 25.9969 -62.9434 0.493 -0.520 0.697 178 176 182 0
-6.1587 26.2108 -63.2214 0.178 -0.573 0.800 174 173 178 0
-5.0744 39.0196 -70.3759 0.080 -0.876 -0.476 169 169 174 0
-3.6221 26.1464 -63.6865 0.022 -0.512 0.859 168 169 173 0
-3.3850 25.7880 -63.5390 -0.051 -0.562 0.826 167 168 172 0
-3.2006 26.1388 -63.7654 0.071 -0.593 0.802 166 167 171 0
-3.0023 26.3109 -63.8978 -0.245 -0.769 0.591 165 166 170 0
-0.4669 10.6882 -55.9321 0.047 -0.970 -0.239 163 164 159 0
-0.2893 10.7254 -55.9872 0.058 -0.968 -0.243 163 164 160 0
-0.1039 10.6107 -55.9616 0.070 -0.972 -0.225 164 164 162 0
0.0749 10.6218 -56.0029 -0.182 -0.964 -0.193 164 164 161 0
0.2498 10.7162 -56.0885 -0.034 -0.971 -0.235 163 163 160 0
0.4422 10.4261 -55.9692 0.152 -0.949 -0.275 163 161 162 0
0.1482 26.4237 -64.5799 0.521 -0.720 -0.459 160 159 159 0
0.4283 24.6179 -63.6566 0.116 -0.993 0.018 159 160 156 0
2.2247 3.9635 -52.8187 -0.429 -0.739 0.519 161 157 158 0
1.9602 29.7811 -66.7563 -0.217 -0.872 0.440 160 156 157 0
3.2951 26.4258 -65.2013 0.250 -0.572 -0.782 154 154 153 0
3.7095 27.0139 -65.6016 0.288 -0.563 -0.775 152 153 153 0
4.7623 27.5109 -66.0784 0.607 -0.630 -0.484 154 149 153 0
4.9742 27.6792 -66.2114 0.254 -0.967 -0.031 153 147 151 0
8.7439 21.8918 -63.8184 0.568 -0.793 0.220 146 141 138 0
11.7837 17.3061 -61.9327 -0.469 -0.631 0.618 140 136 128 0
11.9614 17.1512 -61.8838 -0.572 -0.721 0.391 141 136 129 0
12.1826 17.5605 -62.1492 -0.396 -0.727 0.561 142 135 129 0
14.8553 25.5143 -66.9859 0.205 -0.905 -0.373 138 131 123 0
30.6397 35.1143 -75.2989 -0.207 -0.970 -0.124 142 130 118 0
30.8329 34.9971 -75.2735 -0.202 -0.972 -0.121 142 130 118 0
31.2427 35.8258 -75.8033 -0.392 -0.914 -0.109 146 132 123 0
32.4205 25.9946 -70.7083 0.871 -0.464 0.160 145 128 117 0
32.7025 26.2999 -70.9293 -0.209 -0.971 -0.117 143 127 117 0
42.0192 45.4036 -83.1173 0.716 -0.406 0.568 136 124 112 0
39.3735 34.3330 -76.5970 0.638 -0.674 -0.372 134 120 109 0
-71.7228 32.1568 -53.7868 0.618 -0.716 -0.326 255 255 255 0
-71.6062 32.3386 -53.9087 0.614 -0.721 -0.323 133 133 133 0
-71.3354 32.6493 -54.1311 0.641 -0.710 -0.290 232 226 227 0
-29.9664 44.1431 -68.5333 -0.043 -0.759 -0.649 210 207 212 0
-24.8744 30.5928 -62.1631 -0.747 -0.656 0.107 207 202 206 0
-24.5799 30.3258 -62.0758 -0.746 -0.659 0.100 207 202 207 0
-23.1587 27.3987 -60.7629 -0.666 -0.563 0.490 205 203 208 0
-22.7759 26.7492 -60.4849 -0.657 -0.753 0.018 204 202 207 0
-22.3440 25.8947 -60.1050 -0.574 -0.816 0.070 204 202 207 0
-17.7956 20.8023 -58.2300 -0.057 -0.944 -0.326 198 196 201 0
-17.6218 20.9392 -58.3387 0.005 -0.919 -0.393 197 195 200 0
-14.0041 24.6513 -61.0711 -0.104 -0.751 0.652 189 187 191 0
-7.8464 25.7432 -62.8781 -0.402 -0.851 0.338 180 176 179 0
-7.5841 25.2931 -62.6848 -0.410 -0.805 0.429 177 173 177 0
-7.3189 24.7999 -62.4687 -0.392 -0.705 0.591 176 174 179 0
-7.1438 25.1066 -62.6700 0.006 -0.718 0.696 176 174 179 0
-6.1769 25.9027 -63.2937 0.142 -0.582 0.800 173 172 177 0
-5.4999 27.6969 -64.4033 -0.799 -0.584 0.145 174 172 172 0
-3.5832 15.1439 -57.9503 -0.457 -0.806 -0.376 166 169 169 0
-3.4505 15.8273 -58.3483 -0.497 -0.813 -0.304 168 169 172 0
-3.0356 26.1130 -64.0268 -0.261 -0.777 0.573 164 165 169 0
-1.4068 10.7079 -55.9652 0.071 -0.969 -0.238 163 164 167 0
-0.8623 10.6267 -56.0282 0.144 -0.953 -0.267 164 164 163 0
-0.5055 10.6698 -56.1220 -0.016 -0.976 -0.219 163 164 159 0
-0.3224 10.6039 -56.1222 0.098 -0.959 -0.267 163 164 159 0
-0.1413 10.5717 -56.1403 0.186 -0.961 -0.207 164 165 161 0
0.0281 10.7755 -56.2846 0.203 -0.953 -0.224 164 165 160 0
0.2098 10.7321 -56.2968 0.005 -0.998 -0.065 162 162 159 0
0.3958 14.7475 -58.5183 -0.463 -0.844 0.270 162 160 161 0
0.8230 13.4090 -57.8741 0.003 -0.882 0.471 160 159 159 0
1.9099 29.9644 -67.0966 -0.019 -0.745 0.667 160 156 157 0
2.1229 30.1409 -67.2345 -0.186 -0.757 0.627 158 154 156 0
4.7193 27.7175 -66.4273 0.462 -0.706 -0.537 154 148 152 0
4.9308 27.6754 -66.4460 0.254 -0.967 -0.031 154 148 152 0
7.3814 42.0891 -74.7717 0.722 -0.591 -0.359 150 145 142 0
7.6383 42.7886 -75.2029 0.723 -0.602 -0.338 148 144 141 0
8.2841 21.2965 -63.6355 0.273 -0.803 -0.530 147 141 141 0
27.6593 45.4869 -80.6145 0.223 -0.953 -0.203 137 127 116 0
27.9151 45.5667 -80.7083 0.223 -0.953 -0.203 137 127 115 0
27.3114 22.2302 -67.8912 0.775 -0.554 -0.303 144 132 120 0
31.8055 24.5088 -70.0162 0.873 -0.456 0.171 144 127 118 0
32.5210 25.7148 -70.8134 0.937 -0.328 0.121 142 128 115 0
32.9249 26.4789 -71.3087 -0.373 -0.926 0.066 142 127 116 0
30.4563 13.8098 -63.9288 0.872 -0.487 -0.047 138 121 114 0
41.6159 44.9438 -83.0679 0.611 -0.571 0.548 134 121 110 0
39.4414 34.6463 -77.0364 0.656 -0.673 -0.343 135 121 110 0
43.1800 40.2342 -80.8133 -0.341 -0.940 -0.027 245 245 244 0
-71.4563 32.6952 -54.3997 0.645 -0.709 -0.285 233 227 228 0
-29.9355 23.8661 -57.7477 0.108 -0.526 0.843 221 213 216 0
-28.5344 24.8200 -58.5447 0.182 -0.910 0.373 217 214 215 0
-24.3904 29.3706 -61.8468 -0.294 -0.777 0.556 205 201 208 0
-23.7954 27.9401 -61.1823 -0.470 -0.625 0.624 204 201 208 0
-23.1930 27.3007 -60.9514 0.001 -0.391 0.920 204 201 208 0
-22.8998 27.0046 -60.8473 0.336 -0.613 0.715 202 199 207 0
-22.3928 25.8567 -60.3200 -0.608 -0.791 0.075 202 199 206 0
-15.7495 26.9305 -62.2142 -0.612 -0.791 -0.002 192 190 193 0
-15.4437 26.4443 -62.0087 -0.575 -0.816 0.056 192 190 195 0
-13.2125 29.8684 -64.3188 -0.287 -0.898 0.334 186 185 188 0
-7.1555 24.7673 -62.7237 0.295 -0.596 0.747 175 175 177 0
-2.9427 16.0911 -58.8122 -0.858 -0.514 -0.008 167 166 170 0
-1.6809 11.5102 -56.5575 0.732 -0.584 0.352 164 165 165 0
-1.4865 11.3141 -56.4887 0.619 -0.617 0.486 163 165 165 0
-1.2978 11.1963 -56.4614 0.192 -0.869 -0.457 163 165 164 0
-1.1182 11.2174 -56.5083 0.111 -0.904 -0.412 163 165 164 0
-0.1863 10.6812 -56.3987 0.137 -0.953 -0.271 163 162 162 0
-0.0163 10.8765 -56.5389 0.116 -0.957 -0.265 164 163 164 0
0.1699 10.7455 -56.5040 0.005 -0.998 -0.065 162 161 162 0
0.3554 10.6182 -56.4709 0.335 -0.922 0.194 161 158 160 0
0.7894 13.2466 -57.9925 -0.193 -0.805 0.561 161 157 161 0
1.2911 27.3398 -65.7918 0.017 -0.569 -0.822 159 157 156 0
4.4638 27.8276 -66.6828 0.456 -0.705 -0.544 154 150 151 0
4.6758 27.7727 -66.6945 0.443 -0.724 -0.528 154 149 152 0
7.5895 42.7586 -75.4563 0.722 -0.591 -0.359 147 144 141 0
8.4650 21.8542 -64.2064 0.620 -0.732 -0.281 145 143 138 0
28.0011 24.5713 -69.5362 0.929 -0.229 0.289 144 130 119 0
28.3753 25.3444 -70.0322 0.921 -0.218 0.322 144 130 121 0
32.4037 25.3729 -70.8407 0.946 -0.262 0.193 142 128 117 0
30.2118 13.0054 -63.6517 0.828 -0.537 -0.162 140 123 116 0
31.0540 14.7602 -64.7763 -0.093 -0.707 -0.701 139 121 117 0
43.1577 40.2501 -81.0863 -0.341 -0.940 -0.027 245 245 244 0
43.3611 40.1763 -81.0860 -0.341 -0.940 -0.027 254 255 255 0
-71.2753 30.5327 -53.5167 0.401 -0.849 -0.343 255 255 255 0
-71.6765 32.5309 -54.5341 0.614 -0.716 -0.332 71 70 71 0
-71.5553 32.7080 -54.6551 0.645 -0.709 -0.285 233 227 227 0
-72.4323 38.1389 -57.4624 0.395 -0.912 -0.106 235 229 229 0
-31.9766 29.8594 -60.8766 0.424 -0.767 -0.481 217 212 216 0
-29.2477 24.8463 -58.6627 0.875 -0.465 0.136 217 214 215 0
-29.0073 24.7651 -58.6655 0.624 -0.713 0.320 217 213 214 0
-28.2528 23.7271 -58.2443 0.417 -0.906 -0.072 217 213 214 0
-18.3632 21.0352 -58.7125 -0.165 -0.983 -0.081 196 194 198 0
-18.0528 20.5597 -58.5126 0.165 -0.853 0.496 196 194 197 0
-18.2674 35.0632 -66.4281 -0.900 -0.426 0.094 194 192 195 0
-8.9498 25.3279 -62.9192 0.564 -0.244 0.789 177 174 182 0
-8.2651 24.8875 -62.8122 -0.116 -0.743 0.660 178 177 184 0
-7.8394 24.8304 -62.8647 -0.200 -0.736 0.647 180 179 182 0
-2.0851 14.1207 -58.1203 -0.795 -0.564 -0.224 166 166 166 0
-1.6253 12.8113 -57.4923 -0.806 -0.547 -0.225 164 164 164 0
-1.3635 11.5950 -56.8764 -0.212 -0.794 -0.570 164 165 164 0
-1.1851 11.6502 -56.9418 -0.472 -0.743 -0.474 163 164 164 0
-0.9555 10.8514 -56.5487 0.153 -0.954 -0.259 163 163 163 0
-0.7636 10.6496 -56.4757 0.078 -0.892 -0.446 160 159 158 0
-0.5961 10.8708 -56.6301 0.028 -0.947 -0.320 161 160 158 0
-0.4082 10.7290 -56.5892 -0.013 -0.924 -0.383 161 160 159 0
-0.2260 10.6839 -56.6003 0.253 -0.795 -0.551 161 159 160 0
-0.0587 10.9356 -56.7713 0.116 -0.957 -0.265 161 159 161 0
0.4753 11.0846 -56.9580 0.028 -0.989 0.147 162 156 162 0
1.0398 27.1521 -65.8848 -0.042 -0.556 -0.830 160 156 157 0
1.2777 26.2844 -65.4556 0.050 -0.546 -0.837 159 157 156 0
1.8300 29.4592 -67.3061 -0.331 -0.851 0.408 157 156 154 0
4.2196 23.5599 -64.5394 0.016 -0.601 0.799 153 151 151 0
5.0997 36.3925 -71.7533 0.081 -0.720 0.689 154 149 149 0
6.2725 13.5588 -59.4558 -0.474 -0.880 -0.042 149 145 142 0
6.8234 13.5405 -59.5541 0.135 -0.985 0.105 145 143 139 0
8.6989 23.6829 -65.4878 0.752 -0.502 -0.428 144 144 135 0
12.8732 22.7004 -65.7698 0.065 -0.643 -0.763 139 132 129 0
13.1242 23.3137 -66.1556 -0.434 -0.656 -0.617 139 131 129 0
13.3379 23.4602 -66.2780 -0.414 -0.652 -0.635 140 132 130 0
26.3785 40.1640 -78.0078 -0.026 -0.537 0.843 135 126 116 0
32.9283 26.6989 -71.9081 0.935 -0.248 0.255 139 127 115 0
30.4557 13.3326 -64.0881 0.550 -0.816 -0.180 140 122 116 0
40.3222 36.2809 -78.6197 0.640 -0.682 -0.354 133 121 109 0
-71.3983 30.5819 -53.7828 0.401 -0.849 -0.343 255 255 255 0
-71.6544 32.7209 -54.9109 0.645 -0.709 -0.285 233 227 227 0
-32.0555 29.8994 -61.1392 -0.211 -0.631 -0.747 216 213 216 0
-24.5503 14.2134 -53.9722 -0.627 -0.697 0.348 215 213 214 0
-31.0842 46.4806 -70.4654 0.704 -0.705 0.088 209 206 212 0
-24.3277 28.6707 -61.9811 -0.174 -0.776 0.606 205 202 211 0
-22.8356 26.2907 -60.9631 0.684 -0.618 0.387 201 198 208 0
-20.0885 22.0282 -59.1546 -0.071 -0.702 0.708 200 198 204 0
-7.8179 24.2256 -62.7770 -0.213 -0.957 -0.195 178 178 182 0
-7.6044 24.1793 -62.7935 -0.209 -0.957 -0.200 177 176 180 0
-7.4170 24.3612 -62.9305 -0.188 -0.706 0.683 175 175 177 0
-7.0910 23.3077 -62.4141 -0.318 -0.419 0.850 175 175 177 0
-1.7173 10.8483 -56.6059 0.341 -0.617 0.709 164 164 165 0
-0.9988 10.9052 -56.7784 -0.050 -0.989 0.139 164 163 164 0
-0.1146 11.2595 -57.1474 -0.104 -0.796 -0.596 160 158 160 0
3.4885 11.9855 -58.2555 0.647 -0.669 0.367 155 150 149 0
3.7697 23.5000 -64.6546 0.006 -0.620 0.785 155 149 149 0
3.9741 23.4248 -64.6534 0.016 -0.607 0.795 155 150 149 0
12.8840 23.2931 -66.3320 0.046 -0.644 -0.763 139 131 129 0
13.1361 23.9069 -66.7197 -0.419 -0.659 -0.625 138 130 128 0
20.1202 23.4027 -67.8146 0.881 -0.457 -0.123 133 123 113 0
21.3591 28.8557 -71.0624 0.807 -0.441 -0.392 133 126 115 0
23.3424 34.5593 -74.5946 0.456 -0.341 0.822 134 126 115 0
26.0241 42.3127 -79.3933 0.666 -0.526 0.529 132 123 114 0
26.2502 39.6560 -77.9740 0.260 -0.291 0.921 135 126 117 0
26.6230 40.4370 -78.4776 0.107 -0.223 0.969 136 128 117 0
28.0295 45.4947 -81.5406 0.425 -0.597 -0.680 135 126 117 0
40.4709 36.8559 -79.2263 0.549 -0.758 -0.352 133 120 108 0
42.4936 41.2145 -82.0252 -0.461 -0.877 -0.136 133 119 108 0
-71.5216 30.6313 -54.0494 0.401 -0.849 -0.343 255 255 255 0
-74.2719 35.0159 -55.9349 0.599 -0.649 -0.469 255 255 255 0
-72.1373 32.2346 -54.8155 0.628 -0.719 -0.300 255 255 255 0
-71.7434 32.7186 -55.1606 0.652 -0.705 -0.280 234 228 228 0
-74.0224 41.0946 -59.3467 -0.273 -0.942 0.193 236 230 232 0
-73.9909 41.4463 -59.5475 -0.088 -0.890 0.447 236 230 232 0
-28.3899 23.7747 -58.7274 0.182 -0.983 -0.022 216 212 214 0
-30.7650 46.0019 -70.5574 0.650 -0.665 -0.367 210 204 213 0
-24.7568 32.6634 -64.3583 -0.641 -0.767 -0.027 203 201 206 0
-18.1867 20.6773 -59.0177 -0.158 -0.927 -0.341 198 196 202 0
-17.9146 31.5392 -65.0802 -0.723 -0.592 -0.355 193 193 196 0
-13.8491 22.5857 -60.9254 0.658 -0.736 0.157 189 187 192 0
-7.8706 24.2538 -63.0224 -0.239 -0.924 -0.299 178 177 182 0
-7.6397 24.0597 -62.9604 -0.277 -0.916 -0.289 176 176 180 0
-1.7758 13.8340 -58.4550 -0.716 -0.607 0.345 164 164 166 0
-1.0695 11.4114 -57.2535 -0.191 -0.853 -0.486 165 162 163 0
-0.5042 11.0336 -57.1555 -0.086 -0.922 -0.377 162 160 162 0
-0.3145 10.8623 -57.0980 0.032 -0.905 -0.423 162 159 161 0
3.0835 12.2224 -58.5179 0.643 -0.615 0.455 155 151 150 0
8.5280 21.3643 -64.6446 0.354 -0.927 0.123 142 141 137 0
19.6163 22.9191 -67.6825 0.701 -0.700 -0.136 135 126 116 0
19.8109 22.8881 -67.7036 0.918 -0.394 -0.047 135 125 115 0
21.4532 29.6945 -71.7916 0.828 -0.427 -0.363 135 125 117 0
-71.6602 30.7027 -54.3258 0.418 -0.839 -0.347 255 255 255 0
-74.4068 35.0772 -56.2168 0.606 -0.646 -0.465 255 255 255 0
-73.8736 40.7167 -59.4541 -0.288 -0.927 0.239 235 229 231 0
-74.0158 41.3367 -59.7706 -0.088 -0.890 0.447 236 230 232 0
-73.5338 40.9881 -59.6716 0.003 -0.854 0.520 235 229 231 0
-71.4392 39.3061 -59.1483 0.013 -0.994 0.109 235 229 229 0
-28.5884 23.5378 -58.7991 0.642 -0.684 0.346 215 210 214 0
-25.3162 15.0791 -54.7425 -0.834 -0.550 -0.040 211 209 212 0
-24.0992 17.5807 -56.3710 0.895 -0.446 0.028 210 205 215 0
-19.3352 21.8723 -59.6900 -0.101 -0.842 0.530 196 194 202 0
-15.1246 13.5523 -55.8946 -0.164 -0.986 -0.020 195 193 198 0
-15.7014 24.4141 -61.8151 0.979 -0.159 -0.128 190 188 193 0
-14.1360 32.8100 -66.7862 0.216 -0.821 0.528 186 185 190 0
-9.2587 24.9175 -63.3592 0.349 -0.747 0.565 180 178 183 0
-7.7341 24.4471 -63.3971 -0.266 -0.934 -0.239 176 175 179 0
-0.9637 12.0126 -57.8186 0.060 -0.886 -0.460 165 163 165 0
0.9362 14.9219 -59.8076 -0.005 -0.847 -0.532 158 154 156 0
1.5885 12.1227 -58.3806 -0.170 -0.915 -0.367 158 155 156 0
4.0732 28.4851 -67.9575 -0.466 -0.526 0.711 155 149 151 0
4.2874 28.2894 -67.8909 -0.386 -0.521 0.761 154 148 150 0
4.5005 34.0128 -71.1120 0.733 -0.609 0.302 153 147 150 0
6.1355 23.7215 -65.7161 0.214 -0.545 0.810 147 146 141 0
8.7347 22.5054 -65.5507 0.363 -0.858 0.362 143 141 137 0
19.6883 23.6432 -68.3325 0.314 -0.889 -0.334 134 125 117 0
24.9363 40.5042 -78.7287 0.683 -0.684 -0.258 134 124 114 0
28.0187 45.8434 -82.2995 -0.739 -0.654 0.163 138 126 117 0
32.1819 24.1848 -71.0854 0.930 -0.193 0.314 139 127 117 0
44.3188 42.0620 -83.3981 -0.143 -0.986 -0.090 255 255 255 0
-74.5628 35.1691 -56.5122 0.604 -0.654 -0.455 255 255 255 0
-74.0922 41.3072 -60.0282 -0.224 -0.974 0.039 236 230 232 0
-70.9488 37.2053 -58.3567 0.055 -0.920 0.387 235 228 230 0
-70.8103 37.3793 -58.4809 0.140 -0.974 0.177 235 229 231 0
-70.7662 37.7028 -58.6700 0.112 -0.942 0.317 237 231 232 0
-52.3255 10.5326 -47.1319 0.163 -0.956 -0.243 235 229 229 0
-41.0073 24.4290 -57.1026 -0.662 -0.594 -0.457 230 224 224 0
-29.6776 25.4091 -59.8713 0.506 -0.821 -0.265 217 211 215 0
-28.5952 23.3669 -58.9445 0.589 -0.698 0.407 216 209 215 0
-20.1015 22.2514 -59.9881 -0.485 -0.831 -0.272 199 198 205 0
-19.3712 21.7901 -59.8740 -0.501 -0.805 0.317 196 194 203 0
-19.1690 21.8093 -59.9244 -0.488 -0.816 0.309 195 194 202 0
-18.5324 21.7336 -60.0070 -0.533 -0.831 -0.159 196 194 204 0
-18.4534 22.3038 -60.3405 -0.510 -0.860 0.006 195 193 200 0
-18.5804 33.1357 -66.3574 -0.708 -0.496 0.502 193 192 197 0
-8.6603 16.9891 -59.2968 -0.016 -0.507 0.862 180 178 183 0
-9.4246 24.2033 -63.1708 0.399 -0.917 0.006 181 179 184 0
-9.2867 24.7456 -63.5003 0.205 -0.833 0.515 180 178 182 0
-9.0767 24.7448 -63.5410 0.222 -0.791 0.570 179 177 180 0
-7.7662 24.2985 -63.5491 -0.233 -0.961 -0.150 175 175 178 0
-8.4871 45.4532 -75.2072 0.326 -0.857 0.399 173 171 176 0
-8.2217 45.3041 -75.1761 0.318 -0.848 0.423 173 171 174 0
-7.7944 43.5141 -74.2615 -0.446 -0.728 0.521 172 170 173 0
-4.1147 16.0596 -59.6698 -0.311 -0.858 0.408 170 169 170 0
-1.2394 19.2787 -62.0292 0.738 -0.445 0.508 163 161 164 0
0.4987 15.4097 -60.2121 -0.316 -0.815 -0.485 159 157 158 0
0.7012 15.0762 -60.0658 -0.135 -0.832 -0.539 160 156 159 0
0.8887 15.1031 -60.1176 0.006 -0.855 -0.518 158 155 158 0
1.7312 12.1449 -58.6328 -0.155 -0.916 -0.370 159 155 156 0
4.2365 31.0723 -69.6814 0.305 -0.565 0.767 156 148 150 0
4.4584 25.0190 -66.3485 -0.525 -0.511 0.681 154 146 149 0
5.9033 24.7264 -66.4686 -0.534 -0.316 0.784 149 148 143 0
10.2726 21.9591 -65.7820 0.157 -0.304 0.940 140 135 131 0
31.9824 23.5305 -70.9163 0.929 -0.199 0.313 139 126 116 0
32.4967 24.7229 -71.6822 0.926 -0.194 0.324 139 125 116 0
44.2516 41.9397 -83.5907 -0.467 -0.884 0.029 255 255 255 0
-70.8709 36.9403 -58.5030 -0.207 -0.884 0.418 238 229 232 0
-71.4531 38.2412 -59.1175 -0.213 -0.644 0.735 235 228 230 0
-22.7153 9.3350 -52.4801 0.862 -0.494 0.112 211 209 214 0
-22.3622 9.3787 -52.5738 0.843 -0.289 0.453 210 208 214 0
-22.2893 9.7505 -52.7963 0.840 -0.304 0.448 209 206 214 0
-24.3689 18.1184 -57.0752 0.908 -0.413 0.068 208 205 213 0
-28.4009 37.6569 -67.2276 0.130 -0.427 0.895 210 202 211 0
-20.1342 22.1552 -60.1659 -0.321 -0.942 -0.096 199 198 204 0
-18.6284 22.8414 -60.8454 -0.200 -0.977 0.070 196 193 200 0
-13.7303 28.3532 -64.8922 0.257 -0.840 0.477 187 186 191 0
-13.7644 29.8789 -65.7400 -0.575 -0.575 0.582 186 185 190 0
-9.4084 19.2246 -60.6267 0.564 -0.785 0.256 182 180 185 0
-9.2595 19.5912 -60.8612 0.477 -0.740 0.475 181 179 184 0
-9.4904 24.3186 -63.4635 0.433 -0.900 0.046 181 178 184 0
-9.3105 24.5424 -63.6241 0.406 -0.795 0.451 180 177 183 0
-7.6484 14.7872 -58.4864 -0.739 -0.612 -0.284 180 174 182 0
-4.8177 19.0016 -61.4015 -0.372 -0.250 0.894 173 171 174 0
-0.5685 20.7658 -63.2223 0.923 -0.120 0.367 162 158 159 0
0.6541 15.2317 -60.3625 -0.074 -0.808 -0.585 158 156 159 0
0.8336 15.4783 -60.5358 -0.077 -0.803 -0.592 158 156 159 0
3.7630 29.5422 -68.9865 -0.320 -0.416 0.851 154 151 152 0
3.9795 29.5017 -69.0062 -0.348 -0.401 0.848 154 147 149 0
44.1010 41.5596 -83.6223 -0.530 -0.843 0.088 255 255 255 0
-47.8346 8.5455 -47.3261 0.075 -0.366 0.928 233 229 228 0
-22.7279 9.2048 -52.6137 0.699 -0.554 0.452 211 209 212 0
-24.3798 17.9626 -57.2150 0.844 -0.523 0.116 210 208 213 0
-19.8150 9.9148 -53.5834 0.557 -0.571 0.603 206 201 208 0
-18.6032 22.4829 -60.8882 -0.241 -0.957 -0.160 197 195 199 0
-10.0540 22.0294 -62.3075 0.781 -0.496 0.379 184 182 186 0
-8.2479 16.1022 -59.3281 -0.232 -0.966 -0.116 181 178 186 0
-8.0150 15.7944 -59.2006 -0.655 -0.661 -0.367 181 177 185 0
-7.4852 14.6399 -58.6552 -0.318 -0.947 -0.057 182 177 183 0
-8.4227 41.3781 -73.5075 -0.377 -0.924 0.069 175 173 178 0
-4.0471 16.4698 -60.3575 -0.374 -0.488 0.789 173 169 172 0
-3.9681 17.7892 -61.1149 -0.283 -0.632 0.722 172 168 171 0
4.3633 32.4531 -70.9926 -0.017 -0.240 0.971 153 147 147 0
28.1523 11.8554 -64.0686 -0.405 -0.560 0.723 141 127 116 0
28.1165 10.3620 -63.2218 -0.647 -0.749 -0.141 139 127 115 0
44.4418 42.6970 -84.6021 -0.482 -0.846 0.228 255 255 255 0
-63.6512 30.1687 -56.6509 0.585 -0.584 -0.563 235 230 227 0
-47.4577 8.1088 -47.3644 0.399 -0.447 0.801 235 230 230 0
-23.0246 9.4060 -52.8784 0.568 -0.743 0.353 211 209 211 0
-22.7878 9.2304 -52.8256 0.700 -0.537 0.470 211 209 211 0
-22.6421 9.3543 -52.9241 0.656 -0.532 0.536 211 209 210 0
-15.2926 14.3199 -57.1660 0.245 -0.848 0.471 193 191 193 0
-15.9469 18.4135 -59.3494 0.516 -0.664 0.541 193 191 194 0
-17.8303 34.2484 -67.9216 -0.695 -0.552 -0.461 190 189 194 0
-11.0710 14.1659 -57.9053 0.373 -0.828 -0.419 184 185 187 0
-7.1289 14.4610 -58.8434 -0.025 -0.951 0.309 177 176 180 0
-8.3982 42.9229 -74.6652 0.040 -0.915 0.401 173 173 177 0
-8.1460 42.8592 -74.6786 0.058 -0.990 0.126 173 173 175 0
-7.2958 41.6805 -74.1795 -0.266 -0.896 0.356 171 169 172 0
-4.6606 18.4551 -61.5816 -0.482 -0.518 0.706 172 168 172 0
-4.2123 17.8360 -61.3198 -0.320 -0.668 0.672 175 169 173 0
-4.0092 17.7485 -61.3101 -0.320 -0.668 0.672 172 167 171 0
11.8572 13.0588 -61.7672 0.127 -0.631 0.765 136 131 125 0
12.0508 13.2010 -61.8854 0.102 -0.596 0.796 137 131 125 0
26.8197 11.5422 -63.8391 -0.253 -0.472 0.845 140 126 117 0
27.2078 10.2840 -63.2046 0.464 -0.657 -0.594 142 129 117 0
27.5380 10.9087 -63.6220 0.467 -0.655 -0.594 141 127 116 0
27.9906 12.0074 -64.3309 0.772 -0.569 -0.284 141 127 116 0
44.4433 42.7874 -84.9298 -0.335 -0.932 0.135 255 255 255 0
-46.9793 7.4965 -47.3213 0.520 -0.242 0.819 235 230 230 0
-29.5505 35.1555 -66.4099 0.344 -0.348 0.872 208 206 211 0
-17.9598 20.9585 -60.6281 -0.605 -0.796 -0.035 195 194 196 0
-15.3441 14.3277 -57.3805 0.201 -0.878 0.434 193 191 194 0
-15.0667 13.9122 -57.1992 -0.323 -0.936 0.139 193 191 194 0
-10.9460 14.2750 -58.2107 0.459 -0.716 -0.526 185 184 188 0
-7.9820 43.1011 -75.1322 -0.340 -0.930 -0.142 173 173 175 0
-7.6725 42.4604 -74.8295 -0.453 -0.874 0.175 172 171 173 0
-7.2542 40.6703 -73.8965 -0.322 -0.921 -0.219 172 170 173 0
-2.9921 37.9684 -73.1982 0.810 -0.567 0.150 161 161 163 0
-2.7682 38.1474 -73.3435 0.822 -0.526 0.217 161 159 161 0
11.4398 12.8044 -61.7547 -0.729 -0.585 0.355 138 133 129 0
11.6045 12.5784 -61.6589 -0.456 -0.826 0.333 137 130 127 0
11.7772 12.4672 -61.6295 -0.092 -0.796 0.598 135 127 123 0
11.9846 12.7961 -61.8566 0.257 -0.604 0.754 136 127 124 0
12.3710 13.0705 -62.0877 0.614 -0.169 0.771 139 130 124 0
25.8988 34.1820 -76.7015 0.732 -0.581 -0.356 138 125 117 0
27.3309 10.8747 -63.7684 0.517 -0.681 -0.519 141 129 117 0
27.6222 11.3402 -64.0893 0.520 -0.680 -0.517 141 127 116 0
28.1019 12.5432 -64.8651 0.725 -0.602 -0.335 142 128 118 0
28.4851 11.9686 -64.6143 -0.513 -0.446 0.734 140 126 117 0
44.6116 43.3936 -85.5831 -0.373 -0.926 0.058 255 255 255 0
-63.8683 29.4886 -56.7480 0.095 -0.857 -0.507 237 231 231 0
-66.5022 34.1219 -58.8705 0.268 -0.603 -0.752 237 231 230 0
-66.4933 35.6995 -59.7702 0.653 -0.543 -0.528 234 228 228 0
-47.0137 8.0823 -47.8571 0.047 -0.521 0.852 235 230 227 0
-6.7522 12.1757 -58.0549 0.944 -0.187 -0.273 178 178 181 0
-8.0446 43.1537 -75.4351 -0.111 -0.993 -0.044 173 173 175 0
-7.7087 42.2532 -74.9882 -0.553 -0.821 0.141 172 170 173 0
-4.9675 20.7675 -63.2942 -0.141 -0.684 0.716 171 169 171 0
-2.5867 18.4482 -62.4393 -0.444 -0.355 0.823 165 163 164 0
1.0235 11.1528 -58.9922 -0.772 -0.555 -0.311 160 154 158 0
7.1391 24.6874 -67.8912 -0.431 -0.585 -0.687 148 142 142 0
11.3919 12.6146 -61.8504 -0.717 -0.602 0.352 140 132 130 0
11.5322 12.0699 -61.5678 0.028 -0.161 0.987 139 129 128 0
12.5080 12.9330 -62.2497 0.508 -0.242 0.827 139 130 124 0
25.9086 34.4208 -77.0994 0.733 -0.582 -0.352 138 125 118 0
26.3272 35.4725 -77.7798 0.835 -0.487 -0.255 138 125 117 0
26.7153 36.3423 -78.3507 0.889 -0.431 -0.153 138 125 116 0
27.7063 11.7723 -64.5591 0.532 -0.678 -0.507 139 126 117 0
28.2291 13.1433 -65.4417 0.628 -0.663 -0.408 139 126 118 0
-19.7790 9.7101 -54.3164 0.718 -0.373 0.588 205 200 205 0
-18.0237 10.7710 -55.2655 0.835 -0.539 0.112 200 198 202 0
-9.8034 16.2001 -59.9734 0.375 -0.856 0.356 185 180 186 0
-4.0784 21.6291 -64.1940 0.752 -0.655 0.071 167 165 168 0
7.3287 25.6037 -68.6930 -0.601 -0.563 -0.567 147 140 140 0
11.3544 12.5666 -62.0285 -0.485 -0.618 0.618 141 131 130 0
28.1598 12.2664 -65.1386 -0.513 -0.400 0.759 139 125 117 0
28.7203 11.7050 -64.9272 -0.711 -0.567 0.416 140 124 114 0
42.4258 42.5694 -85.2425 -0.634 -0.772 0.040 132 119 105 0
-9.4967 37.7625 -72.6299 -0.857 -0.481 -0.186 176 174 179 0
-5.3302 23.6245 -65.3306 -0.659 -0.548 -0.514 168 166 169 0
-5.4832 27.5265 -67.5397 -0.801 -0.520 -0.297 167 166 168 0
-4.6973 25.9019 -66.7609 -0.787 -0.502 -0.360 167 165 168 0
-2.9503 22.2418 -65.0017 -0.819 -0.517 -0.250 164 160 163 0
-2.7113 21.7492 -64.7656 -0.819 -0.517 -0.250 163 158 162 0
-1.4446 14.4913 -60.8483 -0.544 -0.553 -0.631 164 160 162 0
0.0710 10.4581 -58.8298 -0.405 -0.547 -0.732 161 155 159 0
1.3260 10.6335 -59.1754 -0.639 -0.511 -0.575 159 153 157 0
5.3562 0.4661 -54.1279 -0.421 -0.540 -0.729 148 143 141 0
7.2614 -4.0747 -51.8941 -0.416 -0.571 -0.708 141 137 136 0
41.8679 40.8492 -84.4240 -0.087 -0.628 0.774 133 116 105 0
-71.6091 30.8328 -56.8003 0.091 -0.970 -0.224 73 71 70 0
-9.5225 37.5080 -72.7522 -0.850 -0.486 -0.202 175 173 178 0
-9.1907 36.6871 -72.3440 -0.851 -0.481 -0.211 176 173 178 0
-0.0422 11.9570 -59.8812 -0.406 -0.543 -0.735 163 156 160 0
15.0715 -21.0899 -43.7903 -0.616 -0.552 -0.562 134 124 111 0
15.9165 -22.0445 -43.4052 -0.938 -0.335 0.092 136 124 115 0
15.9737 -22.3263 -43.2540 -0.935 -0.355 -0.010 136 126 115 0
16.1201 -23.2625 -42.7432 -0.812 -0.465 -0.354 139 127 116 0
16.1606 -23.6033 -42.5548 -0.747 -0.495 -0.444 141 129 116 0
42.0952 40.9321 -84.7900 -0.367 -0.534 0.762 130 117 106 0
42.8231 40.3234 -84.5812 -0.537 -0.832 -0.142 244 245 245 0
43.0113 40.1957 -84.5443 -0.537 -0.832 -0.142 255 255 255 0
-71.7559 30.9154 -57.0866 0.142 -0.946 -0.290 74 71 71 0
-11.6693 42.6354 -75.5733 -0.873 -0.461 -0.157 178 175 184 0
-9.3038 37.1780 -72.8777 -0.850 -0.486 -0.202 175 173 177 0
-8.3120 34.6090 -71.5851 -0.840 -0.481 -0.250 174 168 172 0
-4.3148 25.2352 -66.9423 -0.824 -0.494 -0.277 166 164 168 0
-4.0562 24.6464 -66.6521 -0.829 -0.491 -0.265 166 164 166 0
-3.7991 24.0453 -66.3545 -0.831 -0.491 -0.263 167 165 166 0
-1.0016 15.1713 -61.7670 -0.397 -0.538 -0.744 161 156 160 0
6.0451 -1.7627 -53.3456 -0.341 -0.532 -0.775 144 143 140 0
9.2021 -7.9197 -50.3997 -0.427 -0.543 -0.723 139 131 132 0
15.1043 -20.8014 -44.0990 -0.616 -0.551 -0.562 133 124 111 0
15.7154 -21.8259 -43.6256 -0.939 -0.337 0.073 138 126 117 0
15.8182 -21.8796 -43.6145 -0.940 -0.338 0.049 137 125 116 0
15.8963 -22.0592 -43.5259 -0.939 -0.342 0.044 137 125 116 0
15.9129 -22.5481 -43.2463 -0.934 -0.356 0.006 136 126 116 0
15.9772 -22.7870 -43.1207 -0.932 -0.361 0.016 139 128 117 0
16.7781 -24.7032 -42.1685 -0.935 -0.338 0.107 141 130 115 0
16.8482 -24.8707 -42.0852 -0.935 -0.338 0.107 141 129 115 0
16.9179 -25.0371 -42.0025 -0.935 -0.338 0.107 140 128 114 0
16.9946 -25.1694 -41.9410 -0.932 -0.332 0.146 143 127 115 0
17.3155 -25.6155 -41.7455 -0.849 -0.251 0.464 142 126 115 0
17.3865 -25.7615 -41.6749 -0.847 -0.251 0.468 143 126 116 0
17.4630 -25.8817 -41.6203 -0.845 -0.251 0.472 143 126 117 0
17.5461 -25.9723 -41.5840 -0.839 -0.251 0.483 145 127 119 0
17.6251 -26.0786 -41.5379 -0.843 -0.252 0.475 145 126 119 0
17.7012 -26.1949 -41.4855 -0.844 -0.254 0.473 144 126 118 0
17.7409 -26.4583 -41.3409 -0.854 -0.270 0.446 141 124 116 0
17.8166 -26.5712 -41.2904 -0.854 -0.275 0.441 140 126 115 0
17.9036 -26.6367 -41.2694 -0.860 -0.306 0.408 141 127 117 0
17.9570 -26.8358 -41.1647 -0.895 -0.384 0.228 141 127 118 0
18.0180 -27.0011 -41.0809 -0.913 -0.396 0.100 141 127 118 0
18.0781 -27.1679 -40.9962 -0.913 -0.394 0.104 139 126 117 0
18.1386 -27.3301 -40.9141 -0.909 -0.415 0.043 139 126 117 0
18.1138 -27.8213 -40.6252 -0.691 -0.506 -0.517 140 126 117 0
18.1811 -27.9499 -40.5639 -0.706 -0.509 -0.493 140 126 116 0
18.2573 -28.0429 -40.5250 -0.657 -0.623 -0.425 140 126 115 0
18.3289 -28.1518 -40.4760 -0.657 -0.623 -0.425 141 127 115 0
18.3914 -28.2933 -40.4063 -0.653 -0.624 -0.429 141 127 115 0
18.4803 -28.3337 -40.4003 -0.756 -0.561 -0.336 138 125 114 0
18.5123 -28.5850 -40.2612 -0.664 -0.542 -0.516 137 125 113 0
19.0392 -29.8586 -39.6272 -0.640 -0.544 -0.543 137 123 111 0
43.2823 41.8616 -85.8332 -0.668 -0.731 0.141 244 245 245 0
43.9337 42.4473 -86.2988 -0.531 -0.605 0.593 255 253 254 0
-13.5902 47.0546 -78.0516 -0.814 -0.497 -0.302 122 122 124 0
-13.2093 46.1607 -77.6067 -0.814 -0.497 -0.302 122 122 125 0
-12.8362 45.2971 -77.1779 -0.812 -0.497 -0.304 123 122 127 0
-12.4664 44.4323 -76.7477 -0.813 -0.496 -0.306 123 123 127 0
-5.4510 27.9008 -68.5139 -0.799 -0.503 -0.329 115 115 117 0
-5.1815 27.3075 -68.2219 -0.809 -0.503 -0.303 115 115 118 0
-4.9139 26.7096 -67.9268 -0.809 -0.503 -0.304 116 114 119 0
-4.1331 25.0036 -67.0882 -0.827 -0.493 -0.270 113 113 113 0
-3.8755 24.4095 -66.7933 -0.831 -0.491 -0.263 113 113 113 0
-3.5677 23.1414 -66.1169 -0.491 -0.548 -0.677 113 113 113 0
-1.1638 17.2450 -63.1610 -0.418 -0.542 -0.729 110 108 110 0
-0.9388 16.6950 -62.8854 -0.405 -0.543 -0.736 111 107 110 0
1.3480 11.8595 -60.5227 -0.657 -0.536 -0.531 106 104 106 0
10.2035 -9.2728 -49.9756 -0.427 -0.543 -0.723 97 91 88 0
13.8753 -18.0836 -45.5742 -0.359 -0.535 -0.764 90 85 80 0
14.8457 -20.1823 -44.5445 -0.437 -0.545 -0.715 94 87 82 0
14.9291 -20.3739 -44.4495 -0.437 -0.545 -0.715 95 87 81 0
15.0121 -20.5642 -44.3551 -0.437 -0.546 -0.715 95 88 81 0
15.1233 -20.5904 -44.3615 -0.555 -0.552 -0.622 93 87 79 0
15.2112 -20.7461 -44.2882 -0.571 -0.550 -0.609 94 87 80 0
15.2927 -20.9338 -44.1951 -0.571 -0.550 -0.609 94 88 80 0
15.3737 -21.1204 -44.1025 -0.571 -0.550 -0.609 93 87 79 0
15.4281 -21.4468 -43.9236 -0.463 -0.544 -0.700 94 87 80 0
15.5155 -21.5894 -43.8578 -0.515 -0.543 -0.664 95 88 82 0
15.5933 -21.7800 -43.7622 -0.515 -0.543 -0.664 96 89 83 0
15.6879 -21.8782 -43.7237 -0.593 -0.543 -0.594 97 90 84 0
15.8024 -21.8707 -43.7503 -0.940 -0.337 0.052 97 89 83 0
15.8805 -22.0509 -43.6608 -0.939 -0.342 0.044 96 89 83 0
15.9146 -22.4516 -43.4348 -0.928 -0.372 -0.025 95 89 82 0
15.9852 -22.6603 -43.3274 -0.928 -0.373 -0.029 96 90 83 0
16.0771 -22.7582 -43.2884 -0.804 -0.461 -0.376 98 91 83 0
16.0995 -23.1986 -43.0370 -0.912 -0.404 -0.065 101 94 86 0
16.1730 -23.3794 -42.9464 -0.912 -0.404 -0.065 99 92 85 0
16.2462 -23.5583 -42.8567 -0.914 -0.402 -0.063 100 92 83 0
16.3483 -23.5946 -42.8555 -0.536 -0.547 -0.643 100 92 83 0
16.4298 -23.7283 -42.7938 -0.557 -0.554 -0.618 98 91 81 0
16.5056 -23.8867 -42.7165 -0.560 -0.555 -0.616 98 90 81 0
16.5794 -24.0513 -42.6353 -0.560 -0.555 -0.616 99 92 82 0
16.6771 -24.1017 -42.6251 -0.728 -0.533 -0.431 99 92 83 0
16.7481 -24.2741 -42.5388 -0.724 -0.546 -0.422 98 91 82 0
16.8218 -24.4313 -42.4619 -0.724 -0.546 -0.422 98 91 82 0
16.8933 -24.5953 -42.3806 -0.739 -0.533 -0.413 98 91 82 0
16.9644 -24.7584 -42.2997 -0.737 -0.532 -0.417 99 91 82 0
17.0376 -24.9093 -42.2263 -0.741 -0.532 -0.410 100 90 83 0
17.1313 -24.9668 -42.2112 -0.900 -0.431 -0.067 100 90 83 0
17.2003 -25.1316 -42.1289 -0.900 -0.431 -0.065 100 90 83 0
17.2702 -25.2895 -42.0508 -0.900 -0.431 -0.065 99 89 82 0
17.3407 -25.4419 -41.9761 -0.898 -0.433 -0.079 98 88 81 0
17.4111 -25.5924 -41.9023 -0.899 -0.432 -0.078 100 89 83 0
17.4764 -25.7618 -41.8167 -0.898 -0.429 -0.097 100 88 83 0
17.5442 -25.9179 -41.7393 -0.826 -0.270 0.495 101 88 84 0
17.6119 -26.0716 -41.6632 -0.827 -0.268 0.495 102 88 85 0
17.6809 -26.2180 -41.5916 -0.857 -0.305 0.415 101 89 84 0
17.7359 -26.4191 -41.4855 -0.857 -0.309 0.412 98 88 83 0
17.8062 -26.5546 -41.4205 -0.858 -0.310 0.409 99 89 83 0
17.8754 -26.6923 -41.3541 -0.858 -0.312 0.408 99 88 83 0
17.9330 -26.8743 -41.2596 -0.894 -0.381 0.234 100 89 85 0
18.0011 -27.0118 -41.1930 -0.908 -0.384 0.168 100 90 85 0
18.0642 -27.1671 -41.1151 -0.913 -0.394 0.104 98 89 83 0
18.1263 -27.3233 -41.0365 -0.909 -0.414 0.046 98 89 83 0
18.1504 -27.6254 -40.8658 -0.703 -0.505 -0.501 98 90 83 0
18.2246 -27.7294 -40.8198 -0.715 -0.523 -0.463 100 91 83 0
18.2851 -27.8842 -40.7417 -0.689 -0.614 -0.385 101 92 83 0
18.3461 -28.0345 -40.6663 -0.665 -0.623 -0.412 100 91 82 0
18.4073 -28.1822 -40.5925 -0.653 -0.624 -0.429 98 90 81 0
18.4768 -28.2964 -40.5397 -0.721 -0.589 -0.366 96 89 79 0
18.5472 -28.4057 -40.4899 -0.679 -0.540 -0.497 97 89 80 0
18.6054 -28.5583 -40.4126 -0.668 -0.536 -0.517 97 90 81 0
18.6255 -28.8486 -40.2480 -0.487 -0.541 -0.686 98 90 83 0
18.6841 -28.9944 -40.1748 -0.487 -0.541 -0.686 97 90 82 0
18.7400 -29.1483 -40.0963 -0.475 -0.548 -0.688 98 90 83 0
18.7858 -29.3357 -39.9963 -0.434 -0.548 -0.715 98 90 82 0
19.2808 -30.3082 -39.5280 -0.525 -0.553 -0.647 95 88 78 0
19.3246 -30.4837 -39.4346 -0.484 -0.552 -0.679 96 88 78 0
19.3818 -30.6114 -39.3716 -0.484 -0.552 -0.679 96 88 79 0
43.6184 43.0132 -86.8439 -0.310 -0.696 0.647 243 243 243 0
-13.3535 46.7491 -78.2165 -0.843 -0.481 -0.240 41 41 42 0
-12.9839 45.9231 -77.8068 -0.812 -0.497 -0.304 41 41 41 0
-12.6125 45.0599 -77.3758 -0.813 -0.496 -0.306 41 41 42 0
-3.4695 23.9474 -66.8463 -0.495 -0.548 -0.674 40 41 41 0
-3.2160 23.3372 -66.5398 -0.492 -0.549 -0.676 40 41 41 0
-2.2132 20.6879 -65.1904 -0.814 -0.493 -0.308 40 40 41 0
-1.9990 20.4894 -65.1163 -0.482 -0.545 -0.686 40 40 41 0
-1.7413 19.5792 -64.6358 -0.813 -0.493 -0.311 40 40 41 0
2.8249 9.0548 -59.3886 -0.476 -0.548 -0.688 41 40 40 0
3.0091 8.6384 -59.1817 -0.476 -0.548 -0.688 41 40 40 0
3.1921 8.1956 -58.9591 -0.476 -0.548 -0.688 41 41 41 0
3.3732 7.7508 -58.7350 -0.479 -0.547 -0.687 41 40 41 0
4.5914 5.1382 -57.4490 -0.373 -0.535 -0.758 41 40 40 0
5.0899 3.8867 -56.8163 -0.378 -0.538 -0.753 41 40 40 0
5.2529 3.4862 -56.6146 -0.379 -0.539 -0.753 41 40 40 0
5.4142 3.0839 -56.4114 -0.377 -0.538 -0.754 41 40 40 0
5.5742 2.7081 -56.2234 -0.377 -0.538 -0.754 41 40 40 0
5.7328 2.3356 -56.0371 -0.377 -0.538 -0.754 40 40 41 0
5.8897 1.9586 -55.8479 -0.380 -0.538 -0.752 40 40 41 0
6.0466 1.6592 -55.7038 -0.356 -0.536 -0.766 40 41 41 0
6.2019 1.3431 -55.5498 -0.347 -0.533 -0.772 40 41 41 0
6.3552 0.9903 -55.3739 -0.346 -0.533 -0.772 40 41 41 0
6.5059 0.5949 -55.1727 -0.363 -0.533 -0.764 40 41 41 0
6.6559 0.2329 -54.9909 -0.359 -0.533 -0.766 40 40 40 0
6.8016 -0.2332 -54.7474 -0.400 -0.539 -0.741 39 40 39 0
6.9489 -0.5808 -54.5735 -0.391 -0.538 -0.747 39 40 39 0
7.0942 -0.9496 -54.3868 -0.392 -0.539 -0.745 40 40 40 0
7.6735 -2.0982 -53.8298 -0.328 -0.529 -0.783 40 39 40 0
7.8052 -2.6271 -53.5471 -0.393 -0.539 -0.745 40 39 40 0
8.2149 -3.6480 -53.0316 -0.411 -0.543 -0.732 40 40 39 0
8.3497 -3.9682 -52.8712 -0.412 -0.543 -0.732 40 40 40 0
8.4842 -4.2708 -52.7209 -0.411 -0.543 -0.732 40 39 41 0
8.6200 -4.5256 -52.5988 -0.400 -0.540 -0.740 40 39 41 0
8.7517 -4.8355 -52.4438 -0.400 -0.540 -0.740 40 39 41 0
8.8808 -5.1694 -52.2742 -0.421 -0.541 -0.728 40 40 41 0
9.0106 -5.4679 -52.1255 -0.422 -0.541 -0.728 39 40 39 0
9.1386 -5.7766 -51.9704 -0.422 -0.541 -0.728 40 39 40 0
9.2673 -6.0556 -51.8328 -0.419 -0.542 -0.728 40 39 41 0
9.3967 -6.3057 -51.7122 -0.389 -0.541 -0.746 39 39 41 0
9.5112 -6.7606 -51.4692 -0.531 -0.555 -0.641 40 39 41 0
9.6361 -7.0410 -51.3301 -0.531 -0.555 -0.641 40 40 41 0
9.7582 -7.3444 -51.1769 -0.542 -0.554 -0.632 40 40 41 0
9.8881 -7.5261 -51.0963 -0.433 -0.543 -0.720 40 40 40 0
10.1279 -8.1164 -50.7988 -0.426 -0.543 -0.723 40 40 40 0
10.2458 -8.4151 -50.6476 -0.424 -0.543 -0.725 40 40 39 0
10.3641 -8.6932 -50.5085 -0.423 -0.543 -0.726 40 40 40 0
10.4816 -8.9691 -50.3704 -0.423 -0.543 -0.726 40 40 41 0
10.6000 -9.2196 -50.2475 -0.423 -0.543 -0.726 40 40 41 0
10.7212 -9.4273 -50.1500 -0.387 -0.540 -0.748 40 40 40 0
10.8354 -9.7043 -50.0107 -0.378 -0.540 -0.752 40 40 40 0
11.1660 -10.5904 -49.5584 -0.434 -0.543 -0.719 41 40 40 0
11.2766 -10.8564 -49.4249 -0.436 -0.542 -0.718 41 39 41 0
11.3859 -11.1263 -49.2888 -0.432 -0.541 -0.722 40 40 40 0
11.6036 -11.6415 -49.0308 -0.438 -0.542 -0.717 40 40 40 0
11.7150 -11.8593 -48.9255 -0.410 -0.541 -0.734 40 40 40 0
11.8237 -12.0953 -48.8091 -0.407 -0.541 -0.736 40 40 40 0
11.9319 -12.3270 -48.6950 -0.397 -0.539 -0.743 40 40 40 0
12.0347 -12.5987 -48.5566 -0.405 -0.539 -0.738 40 40 40 0
12.1388 -12.8488 -48.4311 -0.404 -0.540 -0.738 40 40 40 0
12.3404 -13.3812 -48.1599 -0.411 -0.541 -0.733 40 40 40 0
12.4368 -13.6708 -48.0098 -0.445 -0.543 -0.712 40 40 40 0
13.0407 -15.0255 -47.3375 -0.486 -0.550 -0.680 40 40 40 0
13.1610 -15.0780 -47.3303 -0.346 -0.533 -0.773 40 40 40 0
13.2575 -15.3072 -47.2155 -0.346 -0.533 -0.773 40 40 40 0
13.3506 -15.5539 -47.0898 -0.343 -0.532 -0.774 40 40 40 0
13.8115 -16.7193 -46.5000 -0.360 -0.535 -0.764 41 39 40 0
14.0852 -17.3635 -46.1777 -0.360 -0.535 -0.764 40 40 40 0
14.4231 -18.3161 -45.6881 -0.430 -0.539 -0.724 40 39 40 0
14.5103 -18.5225 -45.5847 -0.428 -0.538 -0.726 40 40 40 0
14.6775 -18.9647 -45.3595 -0.423 -0.540 -0.728 39 38 39 0
14.7595 -19.1872 -45.2457 -0.426 -0.541 -0.725 39 38 39 0
14.8421 -19.4008 -45.1372 -0.419 -0.543 -0.728 39 38 39 0
14.9264 -19.5992 -45.0380 -0.420 -0.544 -0.727 39 39 39 0
15.0148 -19.7698 -44.9557 -0.400 -0.540 -0.741 39 39 38 0
15.0833 -20.0500 -44.8057 -0.555 -0.552 -0.622 39 39 38 0
15.1666 -20.2405 -44.7108 -0.555 -0.552 -0.622 39 39 38 0
15.2521 -20.4142 -44.6262 -0.571 -0.550 -0.609 39 38 40 0
15.3349 -20.5988 -44.5347 -0.572 -0.551 -0.608 39 39 39 0
15.5040 -20.9376 -44.3701 -0.463 -0.544 -0.700 39 39 38 0
15.5810 -21.1415 -44.2662 -0.493 -0.544 -0.678 40 39 38 0
15.6577 -21.3434 -44.1634 -0.487 -0.544 -0.684 40 39 38 0
15.7364 -21.5300 -44.0700 -0.483 -0.546 -0.685 39 39 38 0
15.8654 -22.0386 -43.7985 -0.940 -0.339 0.052 40 39 39 0
15.9139 -22.3671 -43.6164 -0.928 -0.370 -0.026 39 39 39 0
16.0123 -22.4367 -43.5950 -0.798 -0.465 -0.382 39 39 39 0
16.0889 -22.6137 -43.5067 -0.803 -0.461 -0.376 39 39 39 0
16.1638 -22.7960 -43.4150 -0.809 -0.459 -0.368 39 39 39 0
16.2631 -22.8545 -43.4002 -0.532 -0.549 -0.645 39 39 39 0
16.3357 -23.0416 -43.3053 -0.532 -0.550 -0.644 39 39 38 0
16.4103 -23.2159 -43.2181 -0.531 -0.550 -0.645 39 39 38 0
16.4864 -23.3795 -43.1376 -0.533 -0.549 -0.644 39 39 38 0
16.5616 -23.5439 -43.0564 -0.531 -0.549 -0.646 39 39 38 0
16.6362 -23.7088 -42.9748 -0.534 -0.549 -0.643 39 39 38 0
16.7089 -23.8790 -42.8897 -0.534 -0.549 -0.643 39 39 38 0
16.7640 -24.1272 -42.7557 -0.724 -0.546 -0.422 39 39 38 0
16.8378 -24.2854 -42.6779 -0.724 -0.546 -0.422 39 39 38 0
16.9101 -24.4477 -42.5973 -0.738 -0.534 -0.414 40 39 38 0
16.9977 -24.5384 -42.5614 -0.528 -0.548 -0.648 40 39 38 0
17.0687 -24.7011 -42.4804 -0.525 -0.552 -0.648 40 39 38 0
17.1402 -24.8588 -42.4024 -0.528 -0.557 -0.641 39 39 38 0
17.2115 -25.0149 -42.3252 -0.528 -0.556 -0.642 40 39 38 0
17.2852 -25.1578 -42.2563 -0.536 -0.555 -0.637 39 39 38 0
17.3409 -25.3755 -42.1402 -0.898 -0.432 -0.082 39 39 38 0
17.4113 -25.5270 -42.0656 -0.900 -0.429 -0.078 39 39 38 0
17.4798 -25.6837 -41.9876 -0.900 -0.425 -0.099 39 39 38 0
17.5442 -25.8553 -41.9000 -0.898 -0.428 -0.100 40 39 39 0
17.6089 -26.0225 -41.8152 -0.912 -0.409 -0.037 40 38 39 0
17.6757 -26.1783 -41.7373 -0.912 -0.409 -0.037 40 39 39 0
17.7421 -26.3333 -41.6599 -0.912 -0.409 -0.037 38 39 38 0
17.8050 -26.5003 -41.5747 -0.912 -0.409 -0.039 39 39 38 0
17.8495 -26.7388 -41.4443 -0.858 -0.312 0.408 40 39 39 0
17.9137 -26.8943 -41.3662 -0.894 -0.381 0.234 40 39 39 0
17.9806 -27.0369 -41.2960 -0.907 -0.385 0.170 39 39 39 0
18.0496 -27.1689 -41.2325 -0.912 -0.398 0.100 39 39 39 0
18.1315 -27.2479 -41.2024 -0.757 -0.510 -0.408 38 38 38 0
18.1889 -27.4216 -41.1123 -0.718 -0.520 -0.462 38 38 38 0
18.2550 -27.5586 -41.0453 -0.729 -0.524 -0.439 38 38 38 0
18.2971 -27.7856 -40.9212 -0.837 -0.532 -0.127 38 38 37 0
18.3637 -27.9159 -40.8581 -0.838 -0.529 -0.134 39 38 37 0
18.4250 -28.0643 -40.7836 -0.721 -0.590 -0.363 39 38 37 0
18.4919 -28.1896 -40.7236 -0.747 -0.561 -0.357 38 38 37 0
18.5779 -28.2416 -40.7100 -0.679 -0.540 -0.497 39 38 37 0
18.6382 -28.3883 -40.6362 -0.678 -0.537 -0.502 39 38 37 0
18.6959 -28.5418 -40.5579 -0.680 -0.537 -0.499 39 38 38 0
18.7509 -28.7035 -40.4743 -0.683 -0.537 -0.495 39 38 38 0
18.8129 -28.8373 -40.4084 -0.588 -0.551 -0.592 39 38 39 0
18.8841 -28.9360 -40.3647 -0.475 -0.548 -0.688 39 37 38 0
19.1664 -29.6653 -39.9944 -0.633 -0.545 -0.550 38 37 37 0
19.2224 -29.8068 -39.9229 -0.622 -0.547 -0.561 38 38 37 0
19.2769 -29.9515 -39.8491 -0.629 -0.544 -0.555 38 38 37 0
19.3338 -30.0859 -39.7818 -0.629 -0.544 -0.555 38 38 37 0
19.3904 -30.2196 -39.7149 -0.629 -0.544 -0.555 39 38 37 0
19.4463 -30.3541 -39.6473 -0.629 -0.546 -0.554 38 37 37 0
19.5123 -30.4529 -39.6025 -0.535 -0.551 -0.641 39 38 37 0
19.5706 -30.5757 -39.5424 -0.533 -0.551 -0.642 39 38 37 0
19.6198 -30.7272 -39.4636 -0.626 -0.548 -0.555 39 38 37 0
44.1461 44.0251 -87.8160 -0.397 -0.203 0.895 255 255 253 0
-13.4867 47.2543 -78.7827 -0.847 -0.477 -0.235 247 247 247 0
-13.0997 46.3144 -78.3078 -0.849 -0.476 -0.232 247 247 247 0
-12.3803 44.7549 -77.5349 -0.705 -0.525 -0.476 247 247 247 0
-2.9934 22.4798 -66.3223 -0.737 -0.532 -0.417 247 247 247 0
-2.7511 21.9560 -66.0628 -0.739 -0.532 -0.414 247 247 247 0
-2.5028 21.3139 -65.7352 -0.738 -0.532 -0.415 247 247 247 0
-2.2656 20.7980 -65.4794 -0.740 -0.531 -0.412 247 247 247 0
2.7842 9.2270 -59.6886 -0.453 -0.567 -0.688 247 247 247 0
4.7242 4.5107 -57.3054 -0.524 -0.577 -0.627 247 247 247 0
6.6057 -0.4770 -54.7519 -0.624 -0.540 -0.564 245 245 245 0
6.7533 -0.8321 -54.5727 -0.623 -0.541 -0.565 245 245 245 0
9.2065 -6.5784 -51.6863 -0.534 -0.556 -0.638 245 245 245 0
9.3327 -6.8635 -51.5440 -0.536 -0.557 -0.634 245 245 245 0
9.4581 -7.1456 -51.4033 -0.540 -0.556 -0.631 245 245 245 0
9.5830 -7.4178 -51.2682 -0.542 -0.560 -0.627 245 245 245 0
9.7071 -7.6847 -51.1362 -0.530 -0.560 -0.637 245 245 245 0
9.8475 -7.7158 -51.1453 -0.539 -0.571 -0.620 245 245 245 0
10.2157 -8.4652 -50.7782 -0.572 -0.549 -0.609 245 245 245 0
10.3357 -8.7239 -50.6502 -0.547 -0.540 -0.640 245 245 245 0
10.6883 -9.5129 -50.2569 -0.497 -0.557 -0.665 245 245 245 0
10.8045 -9.7674 -50.1305 -0.497 -0.557 -0.665 245 245 245 0
10.9162 -10.0605 -49.9807 -0.503 -0.558 -0.659 245 245 245 0
11.0344 -10.2701 -49.8810 -0.550 -0.533 -0.643 245 245 245 0
