ply
format ascii 1.0
element vertex 811
property float x
property float y
property float z
property float nx
property float ny
property float nz
property uchar diffuse_red
property uchar diffuse_green
property uchar diffuse_blue
property uchar class
end_header
9.1294 41.4149 -65.4401 -0.234 -0.964 -0.123 182 183 171 0
10.6180 37.6547 -64.0215 0.156 -0.967 0.203 179 181 168 0
15.0747 45.5133 -68.7210 0.101 -0.934 0.343 173 174 162 0
14.5106 37.8364 -64.9988 -0.089 -0.968 0.233 170 172 159 0
14.6938 37.5149 -64.8903 0.011 -0.979 0.201 168 169 157 0
13.1046 16.6119 -54.7430 -0.395 -0.886 -0.244 170 166 156 0
24.7782 41.1105 -68.8848 0.387 -0.917 0.094 168 158 148 0
21.5822 14.6549 -55.7703 0.639 -0.349 0.686 167 154 145 0
23.7909 17.5361 -57.6250 0.953 -0.271 0.134 160 149 140 0
26.8361 19.6492 -59.3120 0.321 -0.778 -0.540 158 144 131 0
26.9760 18.8036 -58.9484 -0.479 -0.829 0.288 157 143 132 0
32.6541 37.7001 -69.0940 0.491 -0.610 0.622 156 143 131 0
28.9667 16.0832 -58.1315 -0.629 -0.776 0.042 147 137 124 0
29.3059 16.5663 -58.4354 0.089 -0.687 0.721 146 136 122 0
29.1729 15.5731 -57.9400 -0.449 -0.889 0.088 145 136 122 0
32.5005 19.3859 -60.4873 0.890 -0.301 0.343 140 128 116 0
39.9429 36.5548 -70.2287 -0.187 -0.386 0.903 140 128 116 0
39.9831 36.0406 -69.9972 -0.321 -0.327 0.889 141 128 117 0
38.0000 28.7394 -66.1255 0.532 -0.729 -0.430 138 125 114 0
43.9848 41.3663 -73.4071 -0.500 -0.865 0.040 87 81 74 0
44.1763 41.2559 -73.3993 -0.500 -0.865 0.040 48 49 48 0
43.8989 39.9080 -72.7049 -0.037 -0.998 0.053 245 246 244 0
44.1250 39.8972 -72.7517 -0.037 -0.998 0.053 254 254 254 0
44.3511 39.8864 -72.7985 -0.037 -0.998 0.053 255 255 255 0
44.0490 38.5012 -72.0809 0.634 -0.769 -0.077 255 255 254 0
-29.1428 33.4671 -53.2003 0.794 -0.562 -0.232 223 219 220 0
-28.7367 32.6971 -52.9313 0.851 -0.519 -0.078 223 219 220 0
-27.5898 45.2749 -59.1087 0.436 -0.898 0.061 219 208 216 0
-13.0336 38.5618 -59.2882 -0.303 -0.917 0.258 193 185 198 0
-12.6726 37.1716 -58.7172 -0.499 -0.813 0.301 193 185 198 0
-8.1351 37.5462 -59.9333 0.546 -0.513 0.662 187 186 192 0
3.2731 37.4930 -62.5231 -0.040 -0.401 0.915 186 186 182 0
3.4975 37.4138 -62.5372 -0.041 -0.404 0.914 186 185 182 0
3.7382 37.7003 -62.7271 0.020 -0.378 0.926 185 186 181 0
6.6372 36.7626 -62.9506 -0.696 -0.707 0.128 185 187 176 0
10.0854 39.6501 -65.0987 0.097 -0.511 -0.854 180 182 171 0
10.5914 37.8268 -64.3574 0.385 -0.916 0.110 179 181 169 0
10.8522 38.1368 -64.5629 0.613 -0.785 0.091 179 181 169 0
11.0876 38.2000 -64.6466 0.618 -0.782 0.078 178 180 168 0
14.4790 37.9154 -65.2900 -0.206 -0.939 0.275 170 172 161 0
14.5904 37.0720 -64.9190 0.160 -0.930 0.332 169 171 160 0
14.8137 37.0494 -64.9595 0.122 -0.874 0.470 170 172 161 0
12.8838 16.6123 -54.9069 -0.423 -0.821 -0.384 170 167 159 0
13.5748 15.0849 -54.3470 0.401 -0.620 0.674 168 165 156 0
18.5142 30.0571 -62.5196 0.022 -0.519 -0.854 165 161 149 0
22.5657 46.8853 -71.3614 -0.716 -0.441 0.542 161 157 148 0
22.8341 47.0074 -71.4804 -0.778 -0.463 0.426 165 157 150 0
23.0283 46.7447 -71.4014 -0.402 -0.572 0.715 165 155 149 0
24.7140 40.9911 -69.0822 0.075 -0.952 0.297 166 156 146 0
21.0326 14.0069 -55.5494 0.061 -0.271 0.961 166 153 144 0
24.6324 19.4122 -58.9162 0.932 -0.277 0.232 158 148 138 0
27.3730 22.3286 -60.9158 0.485 -0.580 -0.654 157 145 131 0
26.0678 9.1862 -54.4366 0.614 -0.664 -0.427 149 138 126 0
28.8382 15.7570 -58.1614 -0.597 -0.795 0.106 146 136 121 0
28.9940 15.6674 -58.1550 -0.591 -0.799 0.107 146 135 121 0
29.1077 15.4475 -58.0776 -0.552 -0.833 0.035 146 136 121 0
35.0723 30.7182 -66.6255 0.902 -0.305 0.307 145 133 121 0
38.2240 29.4277 -66.7411 0.656 -0.682 -0.325 139 127 115 0
43.9468 41.3396 -73.6541 -0.483 -0.876 -0.003 87 81 74 0
44.1398 41.2331 -73.6483 -0.483 -0.876 -0.003 48 49 48 0
43.8780 39.9254 -72.9733 0.149 -0.987 -0.067 245 246 244 0
44.1101 39.9300 -73.0287 -0.105 -0.993 0.048 254 254 254 0
44.3455 39.9429 -73.0887 -0.088 -0.995 0.047 255 255 255 0
44.0244 38.5070 -72.3399 0.634 -0.769 -0.077 255 255 254 0
-20.3443 34.8434 -56.1201 0.370 -0.918 -0.144 209 201 212 0
-20.1300 34.9040 -56.1978 0.326 -0.941 -0.092 208 199 210 0
-19.4335 33.3156 -55.6070 0.551 -0.830 -0.083 207 198 212 0
-16.9185 43.3815 -60.9390 0.540 -0.824 0.172 201 191 202 0
-16.7185 43.7143 -61.1421 0.671 -0.679 0.297 201 191 202 0
-12.0084 48.0365 -64.2635 0.489 -0.390 -0.780 188 185 196 0
-9.4358 35.6687 -59.0099 0.112 -0.362 0.925 188 186 197 0
2.3715 39.2337 -63.4000 0.503 -0.762 -0.407 185 186 182 0
3.4377 37.1463 -62.6581 -0.041 -0.404 0.914 185 184 183 0
3.9361 38.0770 -63.2121 -0.708 -0.696 0.120 184 185 182 0
4.3401 37.0189 -62.8048 -0.041 -0.761 0.648 182 184 181 0
6.9467 35.4555 -62.6635 0.848 -0.219 0.482 184 182 174 0
5.7833 10.3326 -50.5275 0.904 -0.398 0.158 182 182 172 0
12.6271 16.3711 -54.9488 -0.410 -0.542 0.734 167 167 158 0
13.0639 16.7916 -55.2475 -0.383 -0.877 -0.292 168 167 159 0
13.2222 16.6019 -55.1941 -0.504 -0.799 0.329 169 166 159 0
22.8772 46.1794 -71.3807 -0.430 -0.531 0.730 164 154 148 0
19.5786 11.7600 -54.3633 -0.527 -0.847 0.066 164 154 145 0
25.0056 20.2062 -59.5974 0.800 -0.554 -0.229 156 146 136 0
27.1956 21.8021 -60.8532 0.756 -0.655 -0.002 155 142 128 0
27.0192 20.4900 -60.1929 0.455 -0.793 -0.406 156 142 129 0
33.6086 39.6274 -70.7445 0.689 -0.380 0.617 153 140 131 0
28.7822 15.6596 -58.3148 -0.710 -0.679 0.187 146 134 120 0
28.9505 15.6093 -58.3296 -0.598 -0.798 0.081 146 134 120 0
34.9283 30.3676 -66.6721 0.906 -0.299 0.299 145 132 123 0
35.6636 31.9420 -67.5844 0.901 -0.302 0.311 143 130 121 0
39.8572 35.8443 -70.3891 -0.168 -0.373 0.913 139 125 114 0
43.9298 41.3692 -73.9327 -0.491 -0.870 0.047 86 80 73 0
44.1223 41.2608 -73.9256 -0.491 -0.870 0.047 48 49 48 0
43.8457 39.9126 -73.2253 0.015 -0.994 0.106 245 246 244 0
44.0400 39.8173 -73.2248 -0.174 -0.976 0.128 254 254 254 0
44.3265 39.9645 -73.3599 0.186 -0.983 0.003 255 255 255 0
-19.8935 12.7554 -45.9951 -0.044 -0.408 0.912 216 206 214 0
-19.2467 33.1580 -55.8279 0.677 -0.724 -0.131 208 196 211 0
-15.6965 38.6144 -59.2313 0.785 -0.569 0.247 199 191 203 0
-14.3929 39.3997 -59.9028 0.316 -0.714 0.625 197 189 202 0
-11.0193 32.3830 -57.3452 -0.776 -0.444 0.449 190 187 196 0
2.3526 40.1544 -64.0981 0.429 -0.884 -0.188 184 186 184 0
3.3742 36.7855 -62.7330 -0.075 -0.752 0.655 185 185 183 0
3.6507 37.8975 -63.3242 -0.565 -0.819 0.101 186 187 182 0
4.5162 36.9531 -63.0743 -0.326 -0.945 -0.006 185 186 180 0
9.1522 40.6086 -65.8717 -0.498 -0.814 -0.300 179 182 172 0
10.2866 37.9506 -64.8699 0.771 -0.601 -0.213 177 180 170 0
10.9637 37.8706 -64.9871 0.563 -0.820 0.103 176 178 166 0
11.1707 37.6736 -64.9410 0.547 -0.747 0.378 175 177 166 0
12.8567 16.8882 -55.4611 -0.423 -0.867 -0.265 168 165 156 0
13.0315 16.8028 -55.4606 -0.423 -0.867 -0.265 167 165 156 0
19.0977 34.8933 -65.4377 0.018 -0.523 -0.852 163 156 147 0
25.0048 43.7916 -71.0149 -0.026 -0.940 0.341 162 153 144 0
26.2103 9.2441 -54.8925 0.059 -0.623 -0.780 148 136 124 0
31.9075 18.9835 -60.8209 0.731 -0.634 -0.253 140 128 117 0
41.4095 43.6074 -74.6865 0.811 -0.513 -0.282 140 127 118 0
43.0667 46.9733 -76.6639 -0.462 -0.886 0.025 141 127 118 0
43.7264 44.0914 -75.4471 -0.014 -0.968 0.249 138 124 113 0
43.9022 41.3707 -74.1959 -0.491 -0.870 0.047 85 80 73 0
44.0949 41.2622 -74.1886 -0.491 -0.870 0.047 48 48 48 0
43.8102 39.8914 -73.4727 -0.015 -0.996 0.093 245 245 243 0
44.0464 39.9065 -73.5340 -0.001 -0.994 0.105 255 255 255 0
44.2647 39.8742 -73.5686 -0.007 -0.996 0.086 254 255 255 0
-19.4737 11.2703 -45.5906 -0.776 -0.591 0.219 218 207 215 0
-19.0192 10.7590 -45.4509 -0.519 -0.674 0.526 217 206 214 0
-15.9298 38.1393 -59.2161 0.716 -0.571 0.401 198 190 203 0
-15.2548 38.2810 -59.4384 0.857 -0.511 -0.070 199 191 205 0
-15.4415 44.1360 -62.1878 -0.323 -0.194 0.926 199 191 204 0
-14.3944 38.8637 -59.9134 -0.319 -0.767 0.558 198 190 203 0
-9.5502 35.7496 -59.5381 -0.138 -0.531 0.836 189 187 198 0
-9.2828 38.6127 -60.9648 0.083 -0.864 -0.496 189 187 198 0
-8.8374 35.1638 -59.4221 0.105 -0.750 0.654 189 188 198 0
-7.9008 34.4369 -59.2900 0.946 -0.301 0.117 187 187 199 0
3.4895 40.6295 -64.8528 -0.564 -0.711 0.420 185 185 183 0
3.6172 38.2310 -63.7382 -0.650 -0.666 0.367 185 187 182 0
3.8513 38.3283 -63.8382 -0.669 -0.668 0.327 184 186 181 0
4.0288 37.2469 -63.3632 -0.651 -0.748 0.128 185 186 180 0
4.2560 37.2370 -63.4105 -0.316 -0.948 -0.032 185 185 180 0
10.8552 37.2666 -64.9365 0.662 -0.734 -0.154 175 177 164 0
11.0381 36.8562 -64.7828 0.491 -0.870 -0.034 174 176 164 0
13.7259 43.9398 -68.7767 0.373 -0.482 -0.793 172 170 161 0
12.8301 16.9391 -55.6950 -0.486 -0.824 0.291 167 164 155 0
12.9631 16.5752 -55.5520 -0.397 -0.902 0.169 166 164 155 0
19.4155 35.6324 -66.1184 0.040 -0.549 -0.835 161 154 144 0
19.4909 34.8237 -65.7501 0.006 -0.569 -0.822 161 154 144 0
24.9206 42.4776 -70.6441 0.067 -0.982 -0.176 160 152 141 0
25.0830 19.9889 -59.9566 0.324 -0.808 -0.492 157 146 133 0
27.8300 24.9778 -62.9652 0.467 -0.588 -0.660 155 141 132 0
41.6080 44.2672 -75.3208 0.807 -0.517 -0.286 138 127 116 0
43.5242 43.6168 -75.4496 -0.163 -0.973 0.161 138 123 111 0
42.8654 41.1675 -74.1306 -0.125 -0.987 0.100 135 123 109 0
43.0084 40.9223 -74.0465 -0.429 -0.897 0.105 134 123 109 0
43.6811 41.4798 -74.4665 -0.479 -0.876 0.055 133 121 107 0
43.8753 41.3740 -74.4605 -0.479 -0.876 0.055 85 80 73 0
44.0664 41.2609 -74.4503 -0.484 -0.873 0.060 48 49 48 0
43.7809 39.8870 -73.7297 0.128 -0.991 -0.040 246 246 244 0
44.0184 39.9050 -73.7927 0.186 -0.983 0.003 255 255 255 0
44.2294 39.8531 -73.8163 -0.007 -0.996 0.086 254 255 255 0
-19.4409 24.4809 -52.1319 0.433 -0.871 0.232 210 203 212 0
-19.3547 33.0973 -56.2799 0.662 -0.736 -0.141 206 196 210 0
-15.4928 44.0453 -62.4099 -0.331 -0.183 0.926 199 191 205 0
-14.4397 38.7400 -60.1093 -0.319 -0.767 0.558 199 191 204 0
-14.0479 37.2191 -59.4704 0.279 -0.661 0.697 200 192 203 0
-13.7989 37.0222 -59.4331 -0.167 -0.534 0.829 201 193 204 0
-12.7043 37.5202 -59.9225 -0.400 -0.535 0.744 195 192 202 0
-12.0061 37.3988 -60.0242 -0.328 -0.507 0.797 194 192 200 0
1.2543 37.5513 -63.1349 0.387 -0.616 -0.686 183 185 186 0
2.2614 40.4281 -64.7439 0.669 -0.598 0.442 181 183 182 0
3.4779 41.5329 -65.5520 -0.592 -0.714 0.374 184 185 183 0
8.8494 40.8894 -66.4741 -0.385 -0.556 0.737 180 182 173 0
10.2082 38.0619 -65.4307 -0.144 -0.808 0.571 174 177 166 0
14.4257 42.2947 -68.4248 -0.434 -0.898 -0.071 166 167 157 0
14.7308 42.8067 -68.7400 -0.790 -0.599 0.130 166 166 157 0
12.7798 16.8316 -55.8480 -0.173 -0.819 0.547 167 164 155 0
13.0514 16.1496 -55.5835 -0.610 -0.657 0.443 164 162 152 0
13.2245 16.0629 -55.5816 0.122 -0.796 0.593 162 159 150 0
27.6194 25.0566 -63.1881 0.625 -0.564 -0.539 154 140 131 0
27.8156 24.3115 -62.8761 0.762 -0.576 -0.296 153 139 130 0
33.1315 27.6922 -65.7136 0.339 -0.940 -0.036 144 133 120 0
42.7921 47.0652 -77.2085 0.845 -0.495 -0.201 138 129 113 0
43.4706 43.5503 -75.6799 0.011 -0.901 0.434 138 123 110 0
42.6830 40.7471 -74.1564 -0.219 -0.975 0.034 136 122 109 0
42.8412 40.5450 -74.0958 -0.416 -0.901 0.120 135 122 108 0
43.6501 41.4725 -74.7255 -0.484 -0.873 0.060 134 120 107 0
43.8440 41.3656 -74.7187 -0.484 -0.873 0.060 87 80 73 0
44.0376 41.2588 -74.7119 -0.484 -0.873 0.060 48 49 48 0
43.7306 39.8267 -73.9554 0.096 -0.995 -0.022 246 246 244 0
44.0063 39.9452 -74.0754 0.117 -0.993 -0.025 254 255 255 0
44.2203 39.9010 -74.1032 0.191 -0.982 0.001 254 255 255 0
44.4697 39.9495 -74.1836 0.191 -0.982 0.001 255 255 254 0
-18.6757 9.3681 -45.2668 -0.432 -0.543 0.720 214 204 212 0
-20.5914 34.8845 -57.1101 -0.550 -0.726 0.413 208 201 210 0
-20.3439 34.7432 -57.0988 -0.542 -0.740 0.398 208 200 211 0
-18.2837 37.6300 -58.9602 0.536 -0.818 -0.211 204 196 209 0
-15.3345 35.9933 -58.8479 0.220 -0.700 0.680 199 191 204 0
-14.5519 33.0918 -57.6305 0.066 -0.981 0.184 199 191 206 0
-14.8029 39.4035 -60.6111 0.068 -0.937 0.342 199 191 204 0
-14.5409 39.1353 -60.5420 0.208 -0.533 0.820 199 191 204 0
-14.1974 38.0867 -60.1160 -0.137 -0.700 0.701 200 192 203 0
-13.2360 37.6836 -60.1421 -0.304 -0.499 0.812 195 192 201 0
1.7766 41.6293 -65.4799 0.751 -0.592 0.293 182 184 181 0
4.3609 36.7029 -63.7006 -0.555 -0.724 0.410 183 182 177 0
8.5563 40.7522 -66.6106 -0.044 -0.424 0.904 178 179 172 0
8.8965 41.9787 -67.2789 0.019 -0.724 -0.690 177 180 172 0
9.1321 41.9656 -67.3266 0.018 -0.729 -0.684 176 179 172 0
10.0465 39.2108 -66.2100 -0.728 -0.676 -0.119 174 177 168 0
10.7068 38.8851 -66.2045 0.852 -0.454 -0.262 174 176 163 0
10.5846 25.8080 -59.8819 0.516 -0.477 -0.711 173 171 160 0
11.5430 30.4085 -62.3159 0.646 -0.460 -0.610 171 170 159 0
14.1572 40.5799 -67.8106 -0.171 -0.983 0.072 164 165 154 0
26.5344 48.0270 -74.2301 -0.603 -0.781 -0.166 157 147 137 0
18.7899 8.0689 -53.2228 -0.805 -0.501 -0.318 156 146 135 0
27.9273 24.8137 -63.3756 0.688 -0.589 -0.423 152 138 129 0
29.9522 19.0791 -61.0791 0.700 -0.216 0.680 143 129 118 0
40.5584 42.0941 -74.5865 0.906 -0.421 -0.051 138 129 111 0
41.0220 37.5213 -72.4916 0.254 -0.691 0.677 139 122 112 0
42.7444 40.3589 -74.2520 -0.391 -0.918 0.059 136 122 109 0
43.6210 41.4705 -74.9878 -0.484 -0.873 0.060 135 119 106 0
43.3434 40.1001 -74.2646 0.134 -0.989 -0.066 87 79 72 0
43.5891 40.1383 -74.3393 0.134 -0.989 -0.066 48 49 48 0
43.6867 39.7835 -74.1908 0.119 -0.993 -0.000 246 246 244 0
43.9284 39.8123 -74.2601 0.119 -0.993 -0.000 254 255 255 0
44.4239 40.5071 -74.7080 0.141 -0.985 -0.100 254 255 255 0
44.4401 39.9434 -74.4404 0.191 -0.982 0.001 255 255 254 0
-69.0716 36.1590 -46.8812 0.896 -0.313 -0.316 233 225 222 0
-41.4229 37.0206 -53.6298 -0.053 -0.944 0.325 233 227 227 0
-19.3416 10.7468 -45.9816 0.814 -0.567 0.124 214 207 212 0
-19.0750 10.2846 -45.8191 0.826 -0.522 -0.212 214 206 212 0
-15.3027 35.2337 -58.7476 0.277 -0.739 0.614 200 192 204 0
-15.0769 35.2277 -58.7964 0.380 -0.732 0.566 199 191 205 0
-15.2393 40.6894 -61.4003 -0.117 -0.434 0.894 199 191 204 0
-14.8632 39.4149 -60.8702 -0.114 -0.937 0.329 199 191 204 0
-14.6255 39.3739 -60.9048 -0.114 -0.937 0.329 199 191 204 0
-7.1082 33.1996 -59.6407 -0.190 -0.336 0.922 185 185 195 0
-6.6533 32.8956 -59.5979 0.150 -0.387 0.910 186 186 196 0
0.9441 38.3626 -63.9814 0.447 -0.589 -0.673 182 184 183 0
4.3433 32.9769 -62.1556 0.361 -0.487 0.795 182 182 177 0
8.2411 40.3420 -66.6098 0.144 -0.373 0.917 175 178 171 0
9.8521 40.0763 -66.8502 -0.768 -0.549 -0.329 172 175 168 0
10.0003 39.2038 -66.4622 -0.709 -0.605 -0.364 172 175 168 0
13.1987 15.1317 -55.5542 -0.402 -0.802 0.443 160 156 147 0
15.3008 13.4853 -55.2395 -0.109 -0.564 0.819 157 150 141 0
16.4780 14.9082 -56.1972 -0.420 -0.472 -0.775 156 147 138 0
25.2078 44.3538 -72.4354 -0.702 -0.712 -0.019 154 146 135 0
25.1313 41.8079 -71.1867 0.389 -0.903 0.182 154 145 135 0
26.3102 46.0746 -73.5200 0.605 -0.736 -0.303 154 145 134 0
24.7741 20.6203 -60.8593 0.667 -0.684 -0.296 155 142 130 0
25.0772 21.0320 -61.1278 0.667 -0.684 -0.296 154 141 129 0
25.8032 22.2856 -61.9003 0.181 -0.738 -0.649 153 139 128 0
31.2354 38.3298 -70.9028 0.934 -0.280 0.223 151 138 128 0
27.9044 25.5644 -63.9670 0.502 -0.676 -0.540 149 136 127 0
28.0363 25.3074 -63.8729 0.686 -0.588 -0.428 149 136 127 0
28.5876 18.4578 -60.6869 0.338 -0.549 -0.765 146 134 120 0
33.9459 27.8100 -66.4365 0.569 -0.674 -0.471 140 127 118 0
41.0253 37.6080 -72.7958 0.180 -0.653 0.735 137 122 112 0
43.5919 41.4685 -75.2504 -0.484 -0.873 0.060 135 118 106 0
43.3245 40.1243 -74.5392 0.135 -0.988 -0.068 88 79 73 0
43.5707 40.1633 -74.6144 0.135 -0.988 -0.068 48 49 47 0
43.6803 39.8397 -74.4830 0.143 -0.987 -0.070 246 246 244 0
43.9509 39.9444 -74.5956 0.159 -0.986 0.049 254 255 255 0
44.4195 39.9607 -74.7108 0.128 -0.991 0.041 255 255 254 0
-69.1135 36.0805 -47.0955 0.893 -0.341 -0.293 233 225 222 0
-68.4932 35.4035 -46.9086 0.886 -0.350 -0.303 231 225 220 0
-24.5535 33.8475 -56.2143 -0.170 -0.555 -0.814 213 207 212 0
-23.4005 46.6537 -62.6996 -0.477 -0.784 -0.397 213 203 211 0
-20.5902 34.1477 -57.2677 -0.561 -0.605 0.565 210 202 210 0
-18.8946 37.8382 -59.4488 0.562 -0.806 -0.188 206 196 206 0
-18.7290 38.2891 -59.7058 0.537 -0.822 -0.189 205 196 207 0
-15.3633 35.2586 -59.0042 0.296 -0.767 0.569 200 192 203 0
-15.4624 40.0554 -61.3118 -0.254 -0.485 0.837 200 192 204 0
-15.2276 40.0537 -61.3648 -0.108 -0.454 0.885 200 192 205 0
-14.4641 35.2756 -59.2184 0.290 -0.955 -0.062 199 190 204 0
-13.8060 35.4450 -59.4514 0.293 -0.801 0.522 199 191 203 0
-8.5833 27.8182 -56.9422 -0.046 -0.928 -0.370 193 191 202 0
-8.5252 30.2742 -58.1486 0.004 -0.999 -0.054 191 191 200 0
4.0380 24.1698 -58.0600 0.738 -0.598 0.314 181 181 177 0
4.2532 24.3904 -58.2164 0.670 -0.678 0.303 181 180 177 0
9.5300 42.1654 -68.0597 -0.692 -0.546 -0.473 172 175 168 0
9.7692 42.1849 -68.1240 -0.669 -0.577 -0.468 173 175 168 0
8.0140 17.2526 -55.6100 -0.781 -0.607 -0.150 172 175 166 0
11.6832 32.2845 -63.7527 0.606 -0.481 -0.634 167 169 158 0
14.8796 43.1367 -69.7566 -0.722 -0.521 0.455 160 160 149 0
22.0035 10.8005 -55.6790 0.951 -0.210 0.227 156 142 131 0
25.8714 22.6520 -62.3221 0.155 -0.745 -0.649 152 138 127 0
30.0567 35.8101 -69.6727 0.911 -0.400 0.105 151 139 127 0
28.5180 17.0880 -60.2252 0.161 -0.571 -0.805 140 130 116 0
43.5606 41.4606 -75.5099 -0.491 -0.869 0.057 134 117 106 0
43.2978 40.1275 -74.8021 0.148 -0.987 -0.061 88 79 73 0
43.5452 40.1695 -74.8791 0.148 -0.987 -0.061 48 48 48 0
43.6452 39.8199 -74.7322 0.158 -0.987 0.027 245 245 244 0
43.9244 39.9470 -74.8579 0.163 -0.986 0.021 254 255 255 0
44.8908 41.8789 -76.0177 -0.269 -0.960 0.075 254 255 255 0
44.6155 40.5447 -75.3065 0.082 -0.996 0.033 255 255 255 0
-68.9983 36.1275 -47.4070 0.903 -0.322 -0.284 232 227 222 0
-68.5168 35.6906 -47.3040 0.912 -0.329 -0.243 234 229 223 0
-22.9504 46.5279 -63.0256 0.191 -0.510 0.839 211 203 210 0
-18.9407 28.9858 -55.3825 0.466 -0.682 0.563 210 204 211 0
-18.9120 30.1695 -55.9668 0.547 -0.492 0.677 210 204 211 0
-18.9248 37.6293 -59.6045 0.596 -0.791 -0.141 208 198 208 0
-16.0344 40.4139 -61.6252 -0.374 -0.358 0.855 201 193 204 0
-14.5199 35.2639 -59.4586 0.259 -0.966 0.009 201 191 205 0
-13.5221 32.2104 -58.1969 0.282 -0.946 -0.156 199 191 204 0
-8.3198 29.5834 -58.1059 0.285 -0.945 -0.157 192 190 201 0
-2.4402 47.2205 -68.0596 0.079 -0.644 0.761 185 184 189 0
-2.1884 46.3145 -67.6750 0.288 -0.581 0.761 186 185 190 0
-1.0033 37.9897 -63.8836 -0.667 -0.739 0.093 186 185 190 0
0.6143 38.4144 -64.4612 0.660 -0.689 -0.299 181 183 183 0
3.7316 41.1035 -66.4873 0.747 -0.649 -0.145 179 181 178 0
3.9884 41.5592 -66.7685 0.578 -0.741 -0.341 179 181 178 0
6.7378 33.8970 -63.6586 0.863 -0.440 0.249 175 175 169 0
8.0204 36.0000 -64.9786 0.780 -0.546 -0.304 173 176 168 0
8.4313 14.4098 -54.5360 -0.824 -0.565 0.031 169 171 160 0
11.3795 31.9066 -63.7499 0.578 -0.484 -0.657 165 166 156 0
14.1297 45.1359 -70.8360 0.232 -0.508 -0.830 161 163 150 0
32.6732 37.9951 -71.5967 0.402 -0.612 -0.681 146 134 123 0
33.0825 29.8767 -67.7283 0.188 -0.310 0.932 142 130 118 0
34.1255 29.8182 -67.9386 0.756 -0.562 -0.335 141 130 118 0
43.1084 40.3176 -75.1193 -0.478 -0.873 0.096 135 117 106 0
43.2751 40.1419 -75.0718 0.152 -0.988 -0.040 86 77 71 0
43.5223 40.1830 -75.1484 0.152 -0.988 -0.040 48 48 49 0
43.6242 39.8375 -75.0031 0.139 -0.990 0.006 246 246 244 0
43.8623 39.8559 -75.0666 0.190 -0.982 0.019 254 255 255 0
44.5838 40.5335 -75.5625 0.082 -0.996 0.033 255 255 255 0
-40.7234 34.9903 -53.5848 -0.149 -0.809 0.568 232 226 226 0
-25.5667 34.9048 -57.0126 -0.051 -0.577 -0.815 215 208 215 0
-23.6114 29.6225 -54.8705 0.175 -0.985 0.001 214 208 213 0
-19.8854 33.1879 -57.4715 0.716 -0.279 0.640 210 202 212 0
-18.2147 25.3490 -54.0108 0.041 -0.794 -0.607 209 201 212 0
-19.1609 40.4310 -61.1884 0.566 -0.784 -0.256 206 197 209 0
-19.4287 43.9553 -62.8549 -0.354 -0.433 0.829 204 196 208 0
-19.1215 43.4974 -62.7008 -0.217 -0.485 0.847 205 198 209 0
-15.7980 39.8944 -61.6952 -0.362 -0.333 0.871 203 195 206 0
-14.5294 34.8366 -59.5059 0.445 -0.895 0.017 201 193 204 0
-14.0061 32.1156 -58.2917 0.314 -0.935 -0.163 201 193 205 0
-13.8040 32.2759 -58.4166 0.294 -0.941 -0.164 201 193 204 0
-13.6019 32.4419 -58.5442 0.304 -0.929 -0.210 199 193 203 0
-13.3996 32.6119 -58.6739 0.300 -0.927 -0.226 197 193 203 0
-10.1364 6.0722 -46.4094 0.171 -0.823 0.541 197 194 203 0
-9.7171 19.6985 -53.1859 0.548 -0.794 0.264 195 192 201 0
-2.7436 47.1649 -68.2482 -0.006 -0.889 0.457 185 186 191 0
-2.5023 48.1724 -68.7973 0.357 -0.887 0.293 186 185 190 0
-2.2490 47.4598 -68.5060 0.201 -0.837 0.509 186 185 190 0
0.5699 38.7330 -64.8728 0.650 -0.695 -0.308 181 182 185 0
3.4436 41.0497 -66.6665 0.752 -0.641 -0.154 178 180 178 0
3.6987 41.4894 -66.9405 0.747 -0.647 -0.153 177 179 178 0
4.1541 24.1295 -58.5338 0.774 -0.615 0.150 178 178 178 0
7.4355 40.8503 -67.4826 -0.364 -0.845 -0.392 174 177 170 0
7.6832 41.0128 -67.6189 -0.407 -0.798 -0.445 174 176 169 0
7.7396 35.8796 -65.1152 0.221 -0.847 -0.483 173 174 166 0
13.6197 45.3198 -71.0895 0.338 -0.490 -0.804 161 161 151 0
33.2919 28.6311 -67.4111 0.320 -0.913 -0.253 142 130 118 0
34.2895 30.4118 -68.5125 0.753 -0.553 -0.357 141 130 118 0
42.4918 39.9799 -75.0811 0.282 -0.951 -0.131 136 119 110 0
42.7546 40.0643 -75.1827 0.151 -0.987 -0.058 135 118 109 0
43.0860 40.3332 -75.3904 -0.468 -0.880 0.085 135 118 108 0
43.2516 40.1540 -75.3404 0.148 -0.987 -0.061 86 76 71 0
43.5014 40.2017 -75.4210 0.147 -0.988 -0.048 48 48 48 0
43.5748 39.7801 -75.2311 -0.252 -0.954 0.165 246 246 245 0
43.8454 39.8841 -75.3440 0.133 -0.990 0.035 254 255 255 0
44.7507 41.0425 -76.1192 0.077 -0.995 -0.071 255 255 255 0
-25.6936 17.6707 -48.7545 0.569 -0.783 -0.251 221 217 218 0
-25.9079 38.4792 -58.9537 -0.232 -0.558 -0.797 215 210 215 0
-25.6532 38.3692 -58.9578 -0.291 -0.549 -0.784 213 207 211 0
-23.6971 29.7520 -55.1616 -0.091 -0.959 -0.270 214 208 212 0
-23.4275 29.4783 -55.0885 -0.106 -0.951 -0.292 214 208 212 0
-18.3960 26.1533 -54.6026 0.076 -0.805 -0.589 207 199 210 0
-15.5678 39.4168 -61.7823 -0.362 -0.333 0.871 202 194 205 0
-15.3126 39.2289 -61.7481 -0.362 -0.333 0.871 203 195 206 0
-14.5683 34.6749 -59.6757 0.579 -0.809 0.099 202 194 205 0
-14.0888 32.3616 -58.6461 0.363 -0.920 -0.149 202 194 205 0
-13.9139 32.7777 -58.8911 0.134 -0.865 -0.484 200 194 204 0
-13.4302 32.3727 -58.8024 0.200 -0.864 -0.462 198 195 204 0
-8.6046 9.7103 -48.7456 -0.086 -0.538 0.838 195 192 201 0
-2.0564 47.5272 -68.8694 0.223 -0.848 0.481 185 184 189 0
-1.5653 38.7199 -64.6442 -0.375 -0.927 0.022 184 184 188 0
-0.8781 37.5425 -64.2216 0.052 -0.857 0.512 182 182 184 0
3.8686 41.1178 -67.0689 0.672 -0.715 -0.190 176 178 177 0
4.1775 42.6554 -67.8969 0.531 -0.832 -0.161 177 178 178 0
5.1418 18.4434 -56.1931 0.560 -0.827 -0.047 175 176 170 0
8.0338 13.0370 -54.1925 0.251 -0.833 0.493 166 166 158 0
11.8622 36.8182 -66.7811 -0.110 -0.990 0.090 161 163 152 0
12.0431 36.4226 -66.6276 0.045 -0.901 -0.432 159 160 150 0
14.9394 13.1841 -55.8456 0.553 -0.768 0.323 147 143 132 0
15.1804 13.5180 -56.0652 0.743 -0.575 0.343 145 141 130 0
16.7164 15.8531 -57.5668 -0.371 -0.651 -0.663 147 140 130 0
30.0625 37.0326 -71.0526 -0.193 -0.855 -0.482 148 136 124 0
33.3148 40.4399 -73.4752 0.328 -0.663 0.673 148 134 122 0
42.5602 40.2442 -75.4950 0.175 -0.983 -0.059 134 117 109 0
42.7308 40.0765 -75.4514 0.151 -0.987 -0.058 134 117 109 0
43.0573 40.3320 -75.6520 -0.474 -0.875 0.101 134 117 108 0
43.2285 40.1673 -75.6101 0.148 -0.987 -0.061 88 78 73 0
43.4763 40.2093 -75.6875 0.148 -0.987 -0.061 49 48 49 0
43.5515 39.7918 -75.4991 -0.252 -0.954 0.164 246 246 245 0
43.7869 39.8024 -75.5582 0.136 -0.987 0.089 254 255 255 0
44.7421 41.7081 -76.7154 -0.094 -0.994 0.064 254 255 255 0
-25.5776 17.7539 -49.0427 0.574 -0.780 -0.250 221 217 218 0
-25.9847 37.4102 -58.6743 -0.034 -0.601 -0.798 216 211 217 0
-23.7737 29.8355 -55.4328 -0.091 -0.959 -0.270 213 207 211 0
-23.5877 29.9849 -55.5493 0.156 -0.956 -0.250 213 207 211 0
-19.4022 10.7089 -46.9705 0.496 -0.839 -0.225 212 206 210 0
-18.4401 26.0817 -54.7963 0.071 -0.800 -0.595 207 199 210 0
-14.1775 32.6587 -59.0258 0.197 -0.961 -0.195 203 195 206 0
-13.9735 32.8118 -59.1483 0.680 -0.692 0.244 202 196 206 0
-2.8516 46.7316 -68.5804 -0.237 -0.791 0.564 181 181 186 0
-2.1117 47.3801 -69.0706 0.597 -0.774 0.213 184 183 188 0
-1.1583 37.5720 -64.4363 0.179 -0.814 0.553 181 182 185 0
-0.9294 37.4767 -64.4415 0.211 -0.812 0.544 181 182 184 0
-0.7018 37.2614 -64.3871 0.430 -0.726 0.536 178 182 183 0
-0.4717 37.3795 -64.4982 0.442 -0.750 0.493 177 181 183 0
-0.2467 37.0363 -64.3799 0.493 -0.582 -0.647 178 182 184 0
3.3320 40.7670 -67.0447 0.735 -0.667 -0.120 176 176 176 0
5.4881 21.1974 -57.8562 -0.435 -0.659 -0.613 173 172 167 0
7.6239 35.5682 -65.4548 0.588 -0.688 -0.425 170 172 163 0
7.9985 14.8272 -55.2791 0.520 -0.751 0.408 163 163 155 0
14.5781 14.4356 -56.5912 -0.586 -0.682 0.437 146 142 130 0
32.7978 27.9175 -67.4311 0.305 -0.229 0.925 141 129 117 0
33.0162 27.9472 -67.4958 0.305 -0.229 0.925 141 129 117 0
33.4081 27.8665 -67.5456 -0.035 -0.545 0.837 139 127 115 0
43.0286 40.3308 -75.9140 -0.481 -0.866 0.139 134 118 108 0
43.2218 40.2248 -75.9058 -0.481 -0.866 0.139 88 78 73 0
43.4146 40.1190 -75.8976 -0.481 -0.866 0.139 48 48 49 0
43.6577 40.1483 -75.9677 0.109 -0.994 0.028 246 246 245 0
43.9148 40.2142 -76.0591 0.097 -0.995 0.029 254 255 255 0
-44.1046 37.4867 -54.8309 0.098 -0.985 -0.142 232 227 223 0
-43.7981 37.2780 -54.7973 0.278 -0.941 -0.196 233 228 224 0
-23.8529 29.9305 -55.7099 -0.029 -0.965 -0.260 214 208 212 0
-19.4108 31.8702 -57.6903 0.599 -0.414 0.686 208 200 211 0
-7.9669 39.3279 -64.0154 0.491 -0.696 0.523 189 187 198 0
-4.0206 29.4381 -60.0034 0.413 -0.904 -0.109 186 184 189 0
-2.7692 32.7034 -61.9126 -0.726 -0.461 -0.510 182 182 186 0
0.0040 42.4010 -67.3667 0.592 -0.629 0.503 177 180 180 0
7.4201 39.4281 -67.5863 0.665 -0.491 -0.563 170 171 163 0
10.2169 12.2267 -54.7076 -0.503 -0.720 0.479 153 153 145 0
15.6837 12.6529 -56.1704 0.615 -0.487 0.620 144 137 127 0
19.7965 15.7444 -58.6480 0.024 -0.465 0.885 145 135 124 0
21.8511 19.7440 -61.1059 0.928 -0.363 -0.087 144 136 123 0
19.2193 3.0246 -52.1944 0.940 -0.337 0.054 149 140 123 0
43.0024 40.3364 -76.1802 -0.487 -0.863 0.138 135 117 107 0
43.1952 40.2290 -76.1710 -0.487 -0.863 0.138 88 78 73 0
43.3877 40.1219 -76.1618 -0.487 -0.863 0.138 49 48 49 0
43.6318 40.1534 -76.2333 0.094 -0.996 0.010 246 246 245 0
43.8885 40.2180 -76.3241 0.128 -0.992 0.010 254 255 255 0
-69.4855 33.4982 -47.2984 0.709 -0.665 -0.236 71 68 68 0
-26.9713 32.9794 -56.7668 0.646 -0.463 0.607 217 211 215 0
-25.5097 37.8472 -59.5314 0.603 -0.635 0.483 214 208 212 0
-8.4866 39.2754 -64.1393 0.538 -0.618 0.574 193 191 202 0
-8.0323 39.5117 -64.3613 0.488 -0.793 0.366 189 187 198 0
-4.8379 33.9614 -62.3213 -0.348 -0.937 0.003 185 184 192 0
-3.8478 29.0492 -60.0955 0.295 -0.954 0.048 184 183 186 0
-3.0107 30.3618 -60.9423 -0.219 -0.971 -0.099 183 181 186 0
-1.0341 36.9209 -64.6691 0.049 -0.837 0.545 176 180 183 0
-0.4540 27.4421 -60.0697 -0.266 -0.958 -0.110 178 179 179 0
0.3457 37.4523 -65.2501 0.639 -0.761 0.112 174 179 175 0
8.7242 15.3633 -56.1396 -0.744 -0.538 0.396 157 157 147 0
11.6945 38.5187 -68.3791 -0.554 -0.717 -0.423 155 157 145 0
9.0461 10.2129 -53.6420 0.015 -0.784 0.621 153 155 144 0
9.1033 9.2233 -53.1611 0.193 -0.939 0.286 152 153 144 0
9.4461 9.1806 -53.2182 -0.085 -0.995 0.042 153 152 146 0
10.8427 17.3904 -57.6363 -0.138 -0.582 -0.801 151 151 144 0
14.5765 14.8068 -57.2008 -0.574 -0.750 -0.327 142 138 125 0
14.5287 13.4582 -56.5166 -0.437 -0.661 0.610 141 137 125 0
14.7366 11.5614 -55.6172 -0.512 -0.765 0.391 141 136 124 0
19.8665 15.3615 -58.6881 -0.209 -0.380 0.901 144 134 123 0
19.1316 2.7737 -52.2358 0.940 -0.337 0.054 145 138 121 0
33.7639 28.4906 -68.4223 -0.347 -0.933 -0.097 138 125 117 0
41.0727 38.9279 -75.3052 0.404 -0.753 -0.519 137 120 110 0
44.3725 46.7759 -79.9782 0.538 -0.617 -0.574 137 120 109 0
42.9667 40.3164 -76.4317 -0.487 -0.863 0.138 134 117 106 0
43.1596 40.2090 -76.4223 -0.487 -0.863 0.138 87 78 72 0
43.3522 40.1018 -76.4128 -0.487 -0.863 0.138 48 48 49 0
43.6019 40.1480 -76.4930 0.094 -0.996 0.010 246 246 245 0
43.8559 40.2053 -76.5798 0.109 -0.994 0.014 254 255 255 0
44.3227 40.8233 -76.9951 0.013 -0.995 0.096 254 255 255 0
-28.3769 26.7668 -53.5854 0.490 -0.347 0.800 222 217 219 0
-28.2672 27.1734 -53.8144 0.509 -0.386 0.769 223 219 220 0
-28.0855 27.2932 -53.9160 0.505 -0.387 0.771 222 218 219 0
-26.0421 35.6621 -58.5803 0.132 -0.659 -0.740 216 212 218 0
-25.1038 35.5212 -58.7243 0.018 -0.925 0.379 214 208 212 0
-17.7257 27.1594 -56.2190 0.376 -0.880 -0.289 207 202 209 0
-17.5035 31.5371 -58.4651 0.129 -0.087 0.988 205 202 210 0
-8.3158 39.4009 -64.5105 0.169 -0.753 0.636 191 190 198 0
-7.8575 39.5816 -64.7060 -0.400 -0.880 -0.256 189 188 197 0
-5.4860 31.8336 -61.3631 0.661 -0.694 -0.286 186 185 192 0
-5.0994 33.5269 -62.3007 -0.222 -0.954 -0.200 186 185 191 0
-4.8822 33.7058 -62.4401 -0.201 -0.949 -0.243 185 184 192 0
-4.1378 30.2846 -60.8947 0.587 -0.605 0.538 183 183 187 0
-3.8906 28.7510 -60.1822 0.341 -0.939 0.037 182 182 184 0
8.2627 31.5872 -64.3849 0.219 -0.894 0.392 161 160 155 0
7.8467 16.2719 -56.6094 0.676 -0.496 0.545 157 157 151 0
8.9066 7.8554 -52.6312 0.472 -0.738 0.482 151 152 143 0
9.4239 9.2681 -53.4580 -0.144 -0.963 0.227 150 149 144 0
10.7733 18.6372 -58.4651 -0.220 -0.569 -0.793 150 149 144 0
15.5551 12.2948 -56.3785 0.480 -0.422 0.769 142 133 123 0
33.9480 31.1338 -70.0336 -0.702 -0.711 -0.044 140 127 116 0
41.2890 39.6131 -75.9652 0.446 -0.849 0.285 137 120 110 0
42.9371 41.5879 -77.3326 -0.220 -0.964 0.149 135 119 107 0
42.9408 40.3230 -76.6991 -0.463 -0.879 0.109 133 117 106 0
43.1325 40.2120 -76.6873 -0.442 -0.888 0.128 86 78 72 0
43.3258 40.1064 -76.6786 -0.450 -0.882 0.137 48 48 49 0
43.5765 40.1549 -76.7602 0.082 -0.996 -0.016 246 246 245 0
44.1636 39.8645 -76.7489 0.371 -0.925 -0.087 255 255 255 0
-28.8987 27.7599 -54.2082 0.573 -0.497 0.651 223 217 217 0
-28.2458 26.8395 -53.8939 0.444 -0.431 0.786 224 219 221 0
-28.1890 27.4644 -54.2217 0.308 -0.823 0.477 223 219 220 0
-27.7799 26.6553 -53.9077 -0.829 -0.526 -0.191 221 218 219 0
-26.4365 36.1458 -58.9956 0.150 -0.817 -0.557 216 212 218 0
-26.5709 37.8691 -59.8329 0.111 -0.925 -0.363 214 212 217 0
-25.0322 34.8562 -58.6672 0.306 -0.892 0.334 213 208 214 0
-9.2322 31.3834 -60.5320 0.435 -0.559 -0.706 193 192 200 0
-8.9892 31.0084 -60.3987 0.708 -0.417 -0.570 193 192 200 0
-8.1568 39.7556 -64.9953 -0.549 -0.834 -0.057 188 187 194 0
-5.7397 15.9434 -53.5534 0.659 -0.439 0.611 187 186 193 0
-4.7138 33.8104 -62.7882 0.888 -0.439 -0.135 184 183 188 0
2.8620 39.8673 -67.5721 0.060 -0.500 -0.864 169 169 169 0
3.4105 41.7984 -68.6703 0.065 -0.564 -0.823 171 171 171 0
4.5445 28.2954 -62.1279 -0.201 -0.973 0.109 166 164 165 0
5.0078 28.9519 -62.5645 -0.546 -0.799 -0.253 167 167 164 0
8.0213 16.5070 -56.9850 -0.819 -0.472 0.325 155 156 149 0
8.1740 16.1555 -56.8429 -0.836 -0.433 0.338 155 156 147 0
8.5690 14.5914 -56.1454 -0.359 -0.659 0.661 154 156 145 0
9.3206 10.1262 -54.0681 -0.714 -0.691 0.114 148 148 142 0
11.4534 19.6995 -59.3782 -0.736 -0.654 0.174 148 145 138 0
11.6454 19.6803 -59.4125 -0.771 -0.626 -0.117 149 144 138 0
11.9483 19.0518 -59.1652 -0.161 -0.571 -0.805 148 143 137 0
20.5364 16.1147 -59.6502 0.949 -0.211 0.233 144 133 121 0
40.7014 44.8166 -78.7207 0.912 -0.183 0.367 137 123 115 0
39.8181 36.8462 -74.5037 -0.522 -0.850 -0.071 137 120 112 0
42.8972 40.2817 -76.9386 -0.301 -0.952 0.062 133 118 106 0
43.1054 40.2149 -76.9526 -0.301 -0.952 0.062 87 79 72 0
43.3133 40.1482 -76.9665 -0.301 -0.952 0.062 48 48 49 0
43.5493 40.1570 -77.0249 0.082 -0.996 -0.016 246 246 245 0
-26.4893 36.0918 -59.2195 0.161 -0.819 -0.551 215 210 216 0
-26.6587 37.9767 -60.1344 0.111 -0.925 -0.363 214 212 217 0
-26.5297 38.4702 -60.4137 0.145 -0.743 -0.653 212 210 215 0
-26.3315 38.6391 -60.5445 0.269 -0.744 -0.612 212 209 214 0
-9.3334 32.0912 -61.1190 0.406 -0.566 -0.718 194 193 201 0
-9.0786 31.5646 -60.9108 0.400 -0.520 -0.755 193 192 200 0
-8.1115 29.9949 -60.3378 0.370 -0.906 -0.208 190 189 194 0
-8.4568 39.9187 -65.2801 -0.539 -0.839 -0.073 189 188 194 0
-6.7996 29.6153 -60.4458 -0.521 -0.537 0.663 185 186 191 0
-5.6182 26.7256 -59.2539 -0.432 -0.898 -0.080 186 185 190 0
-5.5886 31.8502 -61.8536 0.694 -0.391 -0.605 186 185 190 0
-5.4047 32.9170 -62.4354 0.698 -0.394 -0.598 186 185 190 0
-4.5966 35.9592 -64.1595 0.116 -0.969 0.218 182 182 185 0
-3.3752 18.0660 -55.3853 -0.473 -0.741 -0.477 181 181 183 0
3.4355 43.6382 -69.8820 0.086 -0.553 -0.829 168 168 168 0
6.8272 40.3223 -68.9799 -0.426 -0.583 0.692 161 160 158 0
8.2406 29.8782 -64.0187 0.401 -0.878 -0.260 158 157 152 0
7.6761 13.4066 -55.5553 -0.373 -0.709 0.598 154 155 147 0
9.6281 10.0370 -54.2969 -0.660 -0.680 0.320 146 145 140 0
11.4112 19.6555 -59.5714 -0.742 -0.656 0.138 148 145 138 0
12.4671 14.9638 -57.4390 -0.498 -0.541 -0.678 143 140 133 0
14.6132 14.5135 -57.7020 0.821 -0.547 -0.167 139 135 123 0
17.4720 14.9868 -58.5953 0.824 -0.430 -0.370 135 131 119 0
24.6124 38.0055 -71.8754 -0.634 -0.773 0.029 139 131 120 0
24.7449 37.5717 -71.6862 -0.659 -0.752 0.028 142 133 121 0
42.8648 40.2708 -77.1961 -0.301 -0.952 0.051 133 118 106 0
43.0694 40.1941 -77.2041 -0.297 -0.953 0.059 87 79 72 0
43.2778 40.1282 -77.2184 -0.297 -0.953 0.059 48 48 49 0
43.5345 40.1922 -77.3095 0.042 -0.999 -0.030 246 246 245 0
43.7719 40.2040 -77.3698 0.042 -0.999 -0.030 254 255 255 0
44.1551 39.9869 -77.3476 0.392 -0.917 -0.069 255 255 255 0
-9.3149 31.0472 -60.8466 0.377 -0.532 -0.758 193 192 200 0
-8.7221 35.6274 -63.3099 0.665 -0.543 -0.514 190 189 194 0
-8.1596 29.9333 -60.5447 0.417 -0.881 -0.223 189 188 193 0
-5.3221 35.6827 -64.1155 0.260 -0.863 -0.433 183 183 187 0
-4.6501 36.0075 -64.4343 0.146 -0.976 0.162 182 182 187 0
-3.0944 38.9662 -66.2938 0.368 -0.728 -0.579 178 177 182 0
-1.6957 38.0679 -66.1571 -0.590 -0.489 -0.643 176 175 180 0
1.9056 42.6964 -69.3330 -0.601 -0.521 -0.607 169 170 169 0
4.2654 41.8587 -69.4469 0.560 -0.828 -0.033 164 164 162 0
8.3320 16.5781 -57.5284 -0.768 -0.572 -0.288 152 152 143 0
8.8155 7.9154 -53.2363 0.608 -0.734 0.303 148 147 141 0
9.4505 10.2953 -54.5911 -0.410 -0.912 -0.014 147 144 139 0
11.3369 17.8961 -58.8855 -0.529 -0.546 -0.649 146 142 136 0
12.0488 16.1761 -58.1741 -0.184 -0.569 -0.802 144 144 136 0
12.6633 15.2620 -57.8500 -0.213 -0.537 -0.817 142 138 129 0
13.0409 11.7960 -56.1749 -0.615 -0.693 -0.376 142 135 126 0
13.1941 11.6345 -56.1278 -0.615 -0.693 -0.376 142 134 125 0
24.5431 37.8614 -72.0525 -0.673 -0.735 -0.084 139 130 120 0
24.7328 37.6835 -72.0054 -0.637 -0.769 -0.056 140 130 118 0
25.1235 34.4454 -70.4491 -0.489 -0.799 -0.351 146 134 122 0
32.8201 36.3896 -73.1972 0.796 0.012 0.605 141 129 117 0
43.1865 41.2207 -78.0232 -0.435 -0.890 0.137 132 118 106 0
43.0293 40.1622 -77.4493 -0.292 -0.955 0.046 87 79 72 0
43.2379 40.0967 -77.4637 -0.266 -0.963 0.037 48 48 49 0
43.4963 40.1650 -77.5575 -0.105 -0.991 -0.079 246 246 245 0
43.7832 40.3082 -77.6959 0.045 -0.998 -0.051 254 255 255 0
44.4144 41.3604 -78.3750 0.030 -0.996 -0.087 254 255 255 0
44.1212 39.9704 -77.6015 0.390 -0.916 -0.090 255 255 255 0
-14.2311 33.5966 -61.2757 -0.661 -0.490 -0.568 196 195 203 0
-13.6573 32.4010 -60.7965 -0.673 -0.480 -0.564 196 193 201 0
-13.3098 31.1889 -60.2572 -0.694 -0.504 -0.514 195 192 201 0
-13.0207 30.5004 -59.9719 -0.694 -0.504 -0.514 195 192 201 0
-9.2220 20.3895 -55.6790 0.720 -0.645 -0.254 193 192 199 0
-8.1948 29.6559 -60.6442 0.466 -0.881 -0.080 188 187 192 0
-6.6885 29.6683 -60.9950 -0.526 -0.835 0.162 184 185 190 0
-5.4116 36.8333 -64.9446 0.131 -0.827 -0.547 181 180 184 0
-4.8969 34.8285 -64.0388 -0.107 -0.984 -0.144 179 180 184 0
-4.7194 36.6503 -65.0094 -0.066 -0.995 -0.073 179 180 184 0
-2.9279 40.2804 -67.2722 0.367 -0.612 -0.700 173 174 178 0
4.2078 41.7004 -69.6287 0.453 -0.891 -0.004 164 163 160 0
3.3896 13.2359 -54.9108 -0.048 -0.795 -0.605 162 161 159 0
6.5152 7.5778 -52.7371 -0.427 -0.879 0.212 153 152 145 0
8.3115 13.1830 -56.0092 -0.462 -0.757 0.462 149 148 141 0
11.0647 17.5489 -58.8674 0.747 -0.501 -0.438 146 143 136 0
14.4610 14.0032 -57.8340 0.511 -0.849 -0.135 138 134 121 0
24.7360 37.8641 -72.3641 -0.637 -0.770 -0.038 140 130 118 0
29.1516 10.3455 -59.3258 0.817 -0.547 -0.181 139 126 115 0
42.7684 41.4428 -78.3141 -0.193 -0.971 0.142 135 120 109 0
43.1483 41.1949 -78.2744 -0.479 -0.872 0.100 133 117 107 0
42.9970 40.1514 -77.7072 -0.281 -0.959 0.039 87 79 73 0
43.2088 40.0941 -77.7263 -0.292 -0.955 0.046 47 48 48 0
43.4773 40.1892 -77.8363 -0.105 -0.991 -0.079 246 246 244 0
44.3352 41.2251 -78.5612 0.141 -0.981 -0.130 254 255 255 0
44.0641 39.8928 -77.8191 0.331 -0.942 -0.061 255 255 255 0
-25.4491 10.3939 -47.0719 -0.763 -0.536 -0.361 224 220 221 0
-29.2585 29.0452 -55.7643 -0.264 -0.606 -0.751 221 215 219 0
-21.9871 14.2309 -49.8308 0.211 -0.910 -0.357 214 208 214 0
-12.8541 30.4621 -60.2413 -0.594 -0.525 -0.610 195 191 200 0
-9.2533 20.1671 -55.7857 0.828 -0.561 -0.007 191 191 196 0
-8.7725 27.8279 -59.8237 0.390 -0.846 -0.364 190 189 197 0
-8.6171 28.7141 -60.3136 0.236 -0.629 -0.741 188 187 194 0
-7.7676 32.7562 -62.5804 -0.364 -0.838 0.407 184 185 190 0
-7.5310 32.4655 -62.4855 -0.160 -0.868 0.470 183 185 190 0
-7.3050 32.3629 -62.4845 -0.097 -0.882 0.461 182 184 189 0
-5.5241 38.6577 -66.1193 0.048 -0.855 -0.517 179 179 181 0
-4.1246 19.6852 -56.7112 0.109 -0.991 -0.076 177 178 183 0
-0.7274 28.0424 -61.7730 -0.535 -0.779 -0.327 170 170 173 0
-0.5186 27.7475 -61.6695 -0.583 -0.756 -0.298 169 168 172 0
1.0663 32.1430 -64.2856 -0.835 -0.402 -0.377 162 163 168 0
3.3461 13.1354 -55.0608 0.019 -0.844 -0.536 160 159 157 0
7.3697 46.6790 -73.1800 -0.651 -0.715 0.254 159 154 155 0
7.9006 16.7859 -57.9738 -0.254 -0.574 0.779 153 148 145 0
8.0752 16.6376 -57.9377 -0.229 -0.580 0.782 152 148 144 0
8.2636 16.6309 -57.9773 -0.298 -0.893 0.336 149 148 141 0
8.0905 13.1520 -56.1539 -0.442 -0.788 0.429 150 147 139 0
8.7114 15.5248 -57.5125 -0.749 -0.503 0.430 150 145 139 0
11.1786 18.7054 -59.7074 0.889 -0.449 -0.085 145 142 135 0
42.9970 40.2279 -78.0174 0.120 -0.991 -0.058 88 80 74 0
43.2430 40.2620 -78.0911 0.120 -0.991 -0.058 48 48 48 0
43.4512 40.1946 -78.1041 0.147 -0.989 -0.006 246 246 243 0
44.0597 39.9540 -78.1199 0.179 -0.983 -0.047 255 255 255 0
-74.9406 42.3761 -52.4358 -0.247 -0.956 -0.160 234 227 221 0
-21.6981 38.7419 -62.7349 -0.494 -0.866 -0.078 207 206 214 0
-13.6198 9.6277 -49.5874 -0.053 -0.615 0.787 201 200 205 0
-11.5506 32.3212 -61.7478 0.626 -0.682 -0.378 193 192 199 0
-9.0159 27.5390 -59.8643 0.272 -0.672 -0.689 188 187 195 0
-7.9119 34.4366 -63.6690 0.534 -0.698 0.477 184 184 191 0
-6.9160 32.3657 -62.8302 -0.250 -0.931 0.267 182 182 187 0
-6.6806 32.0383 -62.7153 0.250 -0.337 0.908 184 183 188 0
-5.7538 20.1068 -56.7824 0.570 -0.810 -0.137 184 182 186 0
-5.5974 39.2393 -66.6715 -0.024 -0.855 -0.518 179 179 182 0
3.9574 29.4257 -63.8015 0.151 -0.849 -0.507 158 157 153 0
5.8160 14.8522 -56.7209 -0.411 -0.758 -0.506 153 152 148 0
5.9722 14.4826 -56.5663 -0.418 -0.745 -0.520 153 152 149 0
6.1190 14.0171 -56.3601 -0.688 -0.671 -0.277 152 151 147 0
6.0686 9.1584 -53.8463 -0.502 -0.836 0.222 150 150 144 0
6.1442 8.0340 -53.2845 -0.504 -0.804 -0.315 150 150 143 0
8.0232 16.4886 -58.0682 -0.263 -0.589 0.764 150 145 142 0
8.2211 16.5767 -58.1589 -0.298 -0.893 0.336 149 146 140 0
8.1471 14.0401 -56.8356 -0.415 -0.850 -0.325 149 146 141 0
9.1497 10.0991 -55.0351 -0.628 -0.761 0.161 146 142 138 0
9.6281 9.6938 -54.9357 -0.499 -0.866 0.030 144 143 136 0
10.8330 17.7912 -59.3814 0.899 -0.435 -0.045 143 143 135 0
11.1325 18.6292 -59.8814 0.887 -0.452 -0.091 145 142 134 0
11.3370 18.7172 -59.9735 -0.554 -0.759 -0.344 145 141 133 0
11.6384 19.5322 -60.4621 -0.732 -0.663 -0.157 143 139 131 0
25.3634 39.9678 -74.1240 -0.362 -0.894 -0.265 138 130 117 0
25.5833 39.9060 -74.1425 -0.329 -0.901 -0.281 139 130 118 0
31.0863 29.3788 -69.9788 0.772 0.008 0.636 142 130 114 0
28.8738 9.6606 -59.3180 0.831 -0.514 -0.212 137 124 113 0
42.9734 40.2408 -78.2901 0.120 -0.991 -0.058 88 80 74 0
43.2196 40.2750 -78.3640 0.113 -0.992 -0.058 48 48 48 0
43.4221 40.1919 -78.3675 0.147 -0.989 -0.006 246 246 243 0
43.7191 40.3613 -78.5226 0.095 -0.994 -0.048 254 255 254 0
44.1836 40.3536 -78.6249 0.092 -0.994 -0.050 255 255 255 0
-75.0791 42.4504 -52.7229 -0.256 -0.956 -0.143 234 228 223 0
-74.9610 42.6623 -52.8594 -0.272 -0.953 -0.131 233 228 225 0
-30.8135 27.1575 -54.9296 -0.154 -0.795 -0.587 223 218 220 0
-23.3957 17.5894 -51.6757 0.350 -0.926 -0.143 217 212 216 0
-22.2451 14.0784 -50.1225 0.383 -0.729 -0.567 215 212 215 0
-24.1828 33.2330 -59.5878 -0.706 -0.487 -0.514 212 206 213 0
-21.5364 36.0533 -61.6515 -0.383 -0.862 0.331 207 205 212 0
-12.7816 26.6219 -58.7739 0.544 -0.654 0.526 195 192 198 0
-9.8147 26.2481 -59.2587 0.693 -0.647 -0.319 190 188 193 0
-8.9247 28.5750 -60.6657 0.261 -0.660 -0.704 186 185 193 0
-8.4646 28.0500 -60.4993 0.452 -0.826 -0.337 185 184 190 0
-7.7361 34.3527 -63.9260 0.357 -0.513 0.781 183 183 190 0
-7.2171 32.9387 -63.3132 -0.715 -0.481 0.507 182 180 187 0
-6.0403 37.0948 -65.7320 -0.119 -0.760 -0.639 179 178 183 0
-4.6913 29.8759 -62.3062 0.103 -0.823 -0.558 176 177 182 0
0.6398 26.9409 -62.0065 -0.194 -0.957 0.217 164 164 165 0
0.8565 27.2364 -62.2089 -0.321 -0.934 0.154 162 162 163 0
1.0636 27.1009 -62.1861 -0.297 -0.934 0.199 161 161 163 0
1.8227 31.2346 -64.4979 -0.445 -0.469 -0.763 162 161 163 0
3.7018 29.5058 -64.0331 0.179 -0.905 -0.385 159 158 153 0
5.8257 26.1233 -62.7689 -0.482 -0.875 0.046 153 151 148 0
5.1121 10.8781 -54.7199 0.584 -0.753 0.302 152 153 147 0
5.4735 10.9416 -54.8353 0.503 -0.857 0.111 151 152 146 0
5.6350 10.7309 -54.7632 0.363 -0.852 0.377 151 151 146 0
5.8123 10.7247 -54.8005 0.541 -0.832 0.127 152 151 146 0
6.0033 8.8038 -53.8505 -0.593 -0.786 0.174 151 151 144 0
6.1776 6.8655 -52.8878 -0.516 -0.828 -0.219 153 150 143 0
8.9841 12.0205 -56.1958 -0.790 -0.608 0.085 149 146 138 0
11.1121 18.7530 -60.1647 0.886 -0.463 -0.022 144 140 131 0
15.1456 15.3164 -59.3089 -0.057 -0.700 -0.712 135 131 119 0
25.2432 40.6510 -74.7217 -0.583 -0.774 -0.249 137 130 114 0
25.5356 40.9054 -74.9201 -0.515 -0.791 -0.329 137 130 115 0
24.6154 19.4740 -63.6239 -0.200 -0.843 0.499 146 134 124 0
42.9507 40.2563 -78.5648 0.113 -0.992 -0.058 87 79 73 0
43.1963 40.2885 -78.6375 0.113 -0.992 -0.058 48 48 48 0
43.4293 40.2866 -78.6898 0.056 -0.998 0.000 246 246 243 0
43.6646 40.2907 -78.7457 0.053 -0.999 -0.006 254 255 254 0
44.8699 42.8658 -80.3532 -0.641 -0.767 0.003 254 255 255 0
44.9235 42.3777 -80.1130 -0.061 -0.998 -0.031 255 255 255 0
-76.4008 42.8627 -52.9157 -0.327 -0.938 -0.114 255 255 255 0
-76.0931 42.7593 -52.9323 -0.328 -0.938 -0.111 133 133 133 0
-75.4748 42.5457 -52.9626 -0.327 -0.938 -0.114 230 225 222 0
-75.2222 42.5322 -53.0134 -0.256 -0.956 -0.143 233 227 224 0
-75.1320 42.7910 -53.1684 -0.272 -0.953 -0.136 233 227 227 0
-14.0630 30.0788 -60.5200 -0.076 -0.982 -0.171 196 195 200 0
-9.6620 29.1854 -61.0616 0.785 -0.366 -0.500 187 186 192 0
-9.3910 28.3967 -60.7138 0.489 -0.676 -0.552 187 186 194 0
-8.5170 28.0700 -60.7438 0.448 -0.878 -0.168 183 182 190 0
-7.8290 27.1981 -60.4480 0.445 -0.880 0.165 183 182 190 0
-6.5359 31.3948 -62.9239 0.186 -0.293 0.938 180 178 183 0
-6.2670 30.1988 -62.3640 0.373 -0.352 0.859 180 178 183 0
-6.0622 36.2516 -65.5554 -0.075 -0.840 -0.537 178 177 182 0
-4.5078 29.2109 -62.2527 0.053 -0.847 0.529 171 172 177 0
-4.4351 35.1081 -65.3331 0.837 -0.539 0.093 171 172 177 0
-4.1776 33.6924 -64.6565 0.227 -0.830 0.510 171 171 177 0
0.5931 26.8928 -62.2141 -0.218 -0.960 0.178 162 162 162 0
0.8057 27.0115 -62.3243 -0.330 -0.928 0.171 161 161 160 0
1.0148 26.9685 -62.3498 -0.307 -0.943 0.127 160 160 160 0
1.3766 32.6335 -65.3757 -0.613 -0.464 -0.639 160 160 161 0
1.6660 35.0096 -66.6763 -0.420 -0.469 -0.777 161 161 163 0
3.7381 31.1902 -65.1655 0.108 -0.627 -0.771 158 157 153 0
3.9710 31.4835 -65.3711 0.108 -0.627 -0.771 156 155 152 0
4.1452 30.6324 -64.9687 -0.082 -0.960 -0.269 155 153 151 0
5.6889 9.6483 -54.4194 0.494 -0.869 -0.041 151 150 145 0
8.9472 12.0003 -56.3860 -0.796 -0.599 0.090 147 144 138 0
9.3220 10.6223 -55.7557 -0.202 -0.669 0.715 142 142 134 0
9.4433 10.1631 -55.5449 -0.174 -0.506 0.845 141 141 133 0
25.0539 39.9698 -74.5981 0.256 -0.962 -0.091 137 130 113 0
25.4440 39.6233 -74.5072 0.043 -0.986 -0.162 137 130 116 0
42.8410 41.3137 -79.3612 -0.480 -0.877 0.019 135 118 110 0
42.9134 40.2323 -78.8159 0.092 -0.993 -0.079 86 78 72 0
43.1726 40.3010 -78.9109 0.120 -0.991 -0.058 48 48 48 0
43.3632 40.1849 -78.8941 0.047 -0.999 -0.007 245 245 242 0
43.6169 40.2383 -78.9798 0.049 -0.999 0.006 254 255 254 0
-76.5517 42.9545 -53.2112 -0.316 -0.941 -0.124 255 255 255 0
-76.2394 42.8442 -53.2249 -0.327 -0.938 -0.114 133 133 133 0
-75.6216 42.6326 -53.2557 -0.327 -0.938 -0.114 231 224 222 0
-75.3135 42.5271 -53.2710 -0.327 -0.938 -0.114 234 226 225 0
-75.2181 42.7769 -53.4232 -0.292 -0.945 -0.148 233 227 227 0
-42.5304 30.9513 -54.7216 -0.351 -0.577 -0.737 232 226 226 0
-42.2196 30.7033 -54.6632 -0.292 -0.561 -0.774 232 225 226 0
-30.8905 29.3635 -56.5528 -0.184 -0.717 -0.672 223 217 221 0
-28.9167 30.1370 -57.4074 -0.780 -0.480 -0.402 220 215 219 0
-25.8443 29.0490 -57.5417 -0.505 -0.857 -0.104 214 212 216 0
-23.7275 26.1159 -56.4949 -0.826 -0.453 -0.335 212 204 215 0
-24.3562 31.2734 -59.0425 -0.738 -0.461 -0.492 214 204 215 0
-23.8368 29.7855 -58.3847 -0.749 -0.457 -0.479 214 204 215 0
-21.9474 36.3882 -62.2618 -0.422 -0.849 0.318 208 205 210 0
-19.9869 30.1089 -59.4332 -0.281 -0.379 0.882 205 202 208 0
-15.7416 19.9851 -55.1206 0.452 -0.891 -0.050 200 197 206 0
-15.5376 19.9369 -55.1421 0.427 -0.903 0.035 200 197 205 0
-15.9356 39.9062 -65.4712 -0.551 -0.773 -0.315 196 193 200 0
-12.9435 25.1803 -58.4708 -0.666 -0.740 0.099 193 192 196 0
-11.4791 29.6791 -61.1530 -0.269 -0.918 -0.292 188 185 195 0
-8.5247 27.3871 -60.6320 0.572 -0.733 -0.368 182 181 189 0
-6.8519 32.3767 -63.6179 -0.666 -0.711 0.226 180 177 183 0
-6.2798 29.2965 -62.1413 0.308 -0.401 0.863 178 175 181 0
-4.2267 33.5968 -64.8544 0.299 -0.844 0.446 171 170 175 0
-0.9169 27.7763 -62.5735 -0.445 -0.738 -0.507 165 165 165 0
0.7511 26.6094 -62.3457 0.179 -0.982 0.056 160 160 159 0
0.9616 26.6538 -62.4170 0.017 -0.982 0.187 159 159 159 0
3.7181 31.7299 -65.6956 0.217 -0.700 -0.680 155 154 152 0
3.8788 30.5555 -65.1195 -0.211 -0.695 -0.687 154 153 151 0
4.2698 29.7547 -64.7910 -0.574 -0.737 0.358 154 152 150 0
5.6465 9.5623 -54.5690 0.455 -0.890 -0.010 148 147 142 0
6.1121 6.8907 -53.2813 -0.376 -0.735 -0.564 150 145 141 0
8.4056 14.0167 -57.5238 -0.796 -0.591 0.127 146 145 138 0
8.5408 13.5634 -57.3182 -0.780 -0.603 -0.167 145 145 136 0
8.8015 12.6171 -56.8839 -0.771 -0.606 -0.193 145 142 137 0
8.8960 11.8551 -56.5080 -0.683 -0.697 -0.219 144 140 136 0
25.4182 39.6761 -74.8004 0.075 -0.959 -0.274 137 129 116 0
27.7862 37.9240 -74.4273 -0.720 -0.681 0.137 145 133 121 0
25.6341 23.5806 -66.4510 0.342 -0.524 0.780 147 133 124 0
30.3609 19.4191 -65.3596 -0.576 -0.786 0.226 140 126 117 0
37.2460 37.3299 -76.2788 -0.188 -0.493 -0.850 139 124 115 0
42.8344 41.3749 -79.6664 -0.492 -0.869 0.051 133 116 108 0
43.0301 41.2648 -79.6537 -0.492 -0.869 0.051 133 116 107 0
43.3622 40.2578 -79.2041 0.074 -0.990 -0.116 245 245 242 0
43.6060 40.2842 -79.2736 0.074 -0.990 -0.116 254 255 254 0
-76.6929 43.0300 -53.5010 -0.327 -0.936 -0.132 255 255 255 0
-76.3875 42.9317 -53.5192 -0.327 -0.938 -0.114 133 133 133 0
-75.7752 42.7304 -53.5537 -0.302 -0.945 -0.122 233 225 223 0
-75.4630 42.6188 -53.5665 -0.302 -0.946 -0.123 235 227 226 0
-75.2737 42.7119 -53.6585 -0.342 -0.938 -0.061 233 227 227 0
-43.2996 32.8500 -55.7952 -0.264 -0.569 -0.779 231 225 225 0
-30.8749 37.8043 -61.2302 -0.876 -0.394 -0.278 220 215 219 0
-25.6016 28.6477 -57.6362 -0.247 -0.965 0.088 215 209 217 0
-25.3085 28.2882 -57.5148 -0.068 -0.981 0.183 213 207 215 0
-25.0714 28.1821 -57.5134 -0.105 -0.967 0.231 213 207 217 0
-15.5849 19.9067 -55.3438 0.427 -0.903 0.035 199 196 204 0
-15.2516 20.3609 -55.6580 -0.149 -0.944 -0.293 197 194 202 0
-15.0028 19.9799 -55.5151 -0.164 -0.909 -0.383 198 195 203 0
-16.1502 39.2264 -65.3396 -0.340 -0.835 -0.432 197 193 200 0
-12.9255 24.5247 -58.3716 -0.664 -0.746 -0.053 191 191 193 0
