ply
format ascii 1.0
element vertex 819
property float x
property float y
property float z
property float nx
property float ny
property float nz
property uchar diffuse_red
property uchar diffuse_green
property uchar diffuse_blue
property uchar class
end_header
14.7481 37.8444 -56.0557 -0.086 -0.715 0.694 177 177 64 0
19.5863 45.6756 -60.3298 0.386 -0.919 0.073 148 143 70 0
19.7704 45.3868 -60.2625 0.143 -0.976 -0.166 149 140 76 0
19.8751 44.6914 -60.0160 -0.383 -0.904 -0.189 153 142 87 0
20.0476 44.3583 -59.9284 -0.226 -0.971 -0.083 160 147 100 0
20.2603 44.2367 -59.9338 -0.083 -0.985 -0.150 167 155 112 0
24.6207 48.9538 -62.8685 0.839 -0.476 -0.262 191 182 165 0
24.2097 44.9742 -61.2066 0.807 -0.470 -0.358 191 183 168 0
23.9041 23.6044 -52.7559 -0.787 -0.588 0.187 188 176 168 0
27.2615 22.3238 -53.0903 -0.431 -0.638 0.638 182 169 162 0
27.3964 22.1288 -53.0475 -0.452 -0.651 0.610 180 169 163 0
28.2360 21.7089 -53.0921 -0.310 -0.340 0.888 178 169 160 0
31.4193 28.4686 -56.5340 -0.469 -0.743 0.478 177 169 158 0
33.6413 27.1451 -56.5688 0.105 -0.377 0.920 176 163 155 0
33.7273 26.8110 -56.4593 0.113 -0.526 0.843 175 162 154 0
33.4503 23.7936 -55.2079 0.762 -0.525 -0.379 173 159 154 0
32.6918 17.5819 -52.5846 0.388 -0.706 -0.593 172 157 150 0
39.5022 33.9138 -60.6813 0.053 -0.817 -0.575 166 154 142 0
40.2127 34.6274 -61.1380 0.710 -0.690 -0.137 166 154 140 0
45.1699 43.1934 -65.7296 -0.724 -0.685 0.081 155 144 134 0
45.7725 42.9404 -65.7806 -0.225 -0.974 0.022 247 247 244 0
-70.2424 44.9743 -37.9467 -0.536 -0.834 0.131 233 224 218 0
-27.9069 41.9624 -47.3059 0.439 -0.517 -0.735 220 206 204 0
-26.5020 39.3921 -46.6431 0.035 -0.849 0.528 213 197 195 0
-26.1828 38.8894 -46.5246 0.081 -0.851 0.520 210 195 192 0
-25.8181 39.3586 -46.8003 0.042 -0.996 -0.081 204 188 187 0
-25.6378 39.6118 -46.9450 0.745 -0.624 0.238 202 183 183 0
-25.4610 39.8909 -47.0990 0.737 -0.623 0.262 202 177 179 0
-25.2761 40.1292 -47.2390 0.751 -0.595 0.286 198 168 170 0
-24.4111 39.0558 -47.0315 -0.791 -0.407 -0.457 166 118 125 0
-20.9862 31.3260 -44.8388 -0.660 -0.584 -0.473 147 77 87 0
-19.8225 30.5533 -44.8243 -0.555 -0.616 -0.559 135 60 78 0
-19.6105 30.5342 -44.8696 -0.644 -0.669 -0.370 133 56 74 0
-19.2342 29.3269 -44.4875 -0.673 -0.739 0.036 132 54 73 0
-16.9633 27.6483 -44.3918 -0.113 -0.978 -0.175 122 49 65 0
-15.4076 26.4407 -44.3035 -0.230 -0.901 0.369 115 44 60 0
-15.2075 26.4561 -44.3594 -0.245 -0.887 0.392 114 43 59 0
-15.0098 26.4955 -44.4242 -0.298 -0.873 0.385 115 44 59 0
-14.7980 26.3955 -44.4376 -0.308 -0.875 0.373 115 45 58 0
-14.5875 26.3046 -44.4542 -0.310 -0.875 0.371 114 43 56 0
-14.3724 26.1633 -44.4521 -0.351 -0.733 0.583 111 44 58 0
-13.9116 25.5342 -44.3190 -0.357 -0.860 0.364 114 42 58 0
-13.9090 27.7055 -45.1752 -0.868 -0.469 0.165 115 42 57 0
-13.4083 26.6444 -44.8818 0.122 -0.876 0.467 116 41 57 0
-13.0895 25.2745 -44.4215 0.146 -0.833 -0.533 116 39 57 0
-9.5538 26.3854 -45.7400 0.242 -0.969 0.050 95 32 45 0
-8.9513 26.4471 -45.9143 -0.172 -0.941 0.292 93 31 44 0
-8.7469 26.3893 -45.9425 -0.161 -0.942 0.294 92 32 44 0
-7.7377 26.3789 -46.1898 -0.015 -0.977 -0.214 88 32 43 0
-7.5414 26.5521 -46.3069 0.208 -0.968 -0.141 84 30 41 0
-7.3244 26.0599 -46.1670 0.461 -0.784 0.415 82 28 40 0
-6.7374 26.7346 -46.5791 0.175 -0.499 0.849 80 30 37 0
-1.6574 27.4390 -48.1221 0.182 -0.704 0.686 78 55 59 0
-0.2205 33.6566 -50.9300 0.362 -0.827 -0.430 90 78 78 0
-0.0065 33.6052 -50.9631 -0.095 -0.907 -0.411 95 84 85 0
2.7682 44.7973 -56.0643 -0.578 -0.351 0.737 131 132 126 0
2.9939 44.5993 -56.0425 -0.576 -0.353 0.737 135 136 130 0
3.3640 42.9028 -55.4662 -0.608 -0.507 0.611 137 138 131 0
4.1621 44.3708 -56.2435 0.325 0.031 0.945 132 131 123 0
7.1924 41.3876 -55.8229 -0.429 -0.716 0.550 189 183 78 0
11.0735 42.9199 -57.3934 -0.516 -0.845 -0.140 206 202 66 0
15.4044 38.0096 -56.5375 0.235 -0.730 0.642 169 171 62 0
17.6411 43.0408 -59.0771 0.353 -0.738 -0.575 154 155 65 0
19.5165 45.5415 -60.5296 0.085 -0.996 -0.029 147 141 73 0
19.8500 44.7893 -60.3163 -0.379 -0.907 -0.185 155 143 93 0
20.0503 44.5975 -60.2906 -0.335 -0.937 -0.101 163 150 107 0
20.2371 44.3404 -60.2359 -0.226 -0.971 -0.083 172 159 122 0
24.5120 48.6608 -63.0032 0.903 -0.429 -0.004 191 182 165 0
23.3028 25.9840 -53.7665 -0.870 -0.390 0.302 190 177 168 0
31.2161 31.1806 -57.7854 -0.400 -0.296 0.867 178 169 161 0
31.2644 30.6685 -57.5957 -0.515 -0.529 0.674 178 169 160 0
31.0063 27.9290 -56.4519 0.885 -0.454 -0.104 177 169 158 0
31.7288 29.5078 -57.2540 0.889 -0.453 -0.070 177 169 158 0
31.7965 29.0790 -57.1019 0.769 -0.457 0.447 176 167 156 0
33.5062 27.4251 -56.8760 -0.721 -0.509 0.471 176 162 155 0
33.6077 27.1313 -56.7856 -0.729 -0.510 0.456 175 162 154 0
33.4528 26.1162 -56.3470 -0.044 -0.565 0.824 175 162 156 0
39.9624 34.0538 -61.0963 0.608 -0.774 0.175 166 154 140 0
40.4270 34.6897 -61.4626 0.819 -0.574 0.020 166 154 140 0
45.1403 43.1943 -65.9878 -0.724 -0.685 0.081 155 142 132 0
45.3343 43.0917 -65.9957 -0.730 -0.677 0.097 100 93 87 0
45.5479 43.0387 -66.0280 -0.287 -0.955 0.072 50 50 50 0
45.7565 42.9740 -66.0545 -0.287 -0.955 0.072 247 247 244 0
-70.3904 45.0814 -38.2197 -0.509 -0.844 0.168 234 224 219 0
-28.9853 12.3011 -35.5477 -0.110 -0.755 -0.646 234 229 226 0
-28.8154 12.3186 -35.5969 -0.110 -0.755 -0.646 233 228 225 0
-28.7788 12.8381 -35.8119 0.079 -0.848 -0.525 234 226 225 0
-26.4512 38.7717 -46.6661 0.104 -0.980 -0.171 216 200 198 0
-25.8861 39.3723 -47.0448 0.029 -0.996 -0.085 207 189 190 0
-25.0890 39.9852 -47.4862 0.392 -0.791 0.470 200 170 172 0
-24.8942 40.1723 -47.6089 0.508 -0.582 0.636 190 154 157 0
-21.4334 31.1080 -44.8800 -0.688 -0.686 -0.236 149 82 94 0
-20.8377 31.3464 -45.1228 -0.678 -0.601 -0.423 142 74 85 0
-20.5885 31.0880 -45.0825 -0.705 -0.616 -0.351 140 72 84 0
-19.7898 29.9141 -44.8164 -0.805 -0.576 0.141 135 62 79 0
-13.7104 27.1651 -45.2418 -0.863 -0.505 0.023 117 41 57 0
-13.4670 26.7063 -45.1207 0.067 -0.992 0.106 117 41 57 0
-11.4604 26.9553 -45.7192 -0.428 -0.822 0.376 104 33 47 0
-9.8215 26.6619 -46.0113 0.024 -0.997 0.067 96 32 46 0
-9.6058 26.4039 -45.9628 0.214 -0.967 0.137 96 32 46 0
-7.7896 26.4316 -46.4262 -0.015 -0.977 -0.214 88 30 42 0
-7.5910 26.5355 -46.5168 0.143 -0.980 -0.135 86 30 43 0
-7.3721 25.9909 -46.3556 0.482 -0.798 0.362 85 29 42 0
3.2976 42.6615 -55.6182 -0.619 -0.554 0.557 143 144 136 0
4.9895 43.4752 -56.3621 -0.594 -0.512 0.621 135 129 112 0
7.3885 41.5407 -56.1933 -0.138 -0.988 -0.074 189 184 80 0
7.6169 41.5123 -56.2390 -0.138 -0.988 -0.074 190 184 77 0
7.8579 41.6129 -56.3389 -0.135 -0.985 -0.106 194 189 78 0
8.0866 39.3264 -55.4900 -0.156 -0.986 0.059 196 191 76 0
9.1565 40.8029 -56.3415 -0.035 -0.988 -0.152 202 198 73 0
14.7944 37.2807 -56.3506 -0.417 -0.832 0.365 169 171 60 0
15.2785 37.5089 -56.5616 -0.439 -0.739 0.511 167 169 63 0
17.6232 43.1911 -59.3969 0.259 -0.667 -0.699 154 154 66 0
19.4646 45.5022 -60.7712 0.198 -0.947 -0.254 147 141 79 0
19.6861 45.4100 -60.7899 0.523 -0.734 -0.433 150 142 87 0
19.8505 45.0223 -60.6772 -0.398 -0.910 -0.112 159 147 102 0
20.0704 44.9282 -60.6947 -0.398 -0.910 -0.112 166 153 116 0
20.2601 44.6815 -60.6442 -0.237 -0.971 0.019 174 162 128 0
20.4515 44.4484 -60.5996 -0.254 -0.967 -0.015 178 167 139 0
20.6562 44.2861 -60.5863 -0.182 -0.957 -0.225 182 170 147 0
24.8155 24.9963 -53.9802 -0.646 -0.728 0.231 186 175 169 0
28.3918 26.2136 -55.3534 -0.507 -0.861 0.029 182 169 163 0
28.5633 26.1126 -55.3561 -0.507 -0.861 0.029 179 168 162 0
31.1890 30.5314 -57.7609 -0.515 -0.529 0.674 176 167 159 0
31.7795 27.2534 -56.6093 0.821 -0.571 0.021 174 162 153 0
33.6800 27.4188 -57.1483 -0.730 -0.527 0.435 173 161 154 0
33.8671 27.3680 -57.1747 -0.722 -0.533 0.440 172 161 155 0
32.7030 23.5177 -55.3593 0.543 -0.608 -0.579 171 160 153 0
39.5838 33.7099 -61.1115 0.611 -0.772 0.176 164 152 139 0
39.8899 33.9401 -61.2789 0.602 -0.779 0.176 164 152 139 0
44.7820 42.9606 -66.0714 0.181 -0.983 0.024 159 144 135 0
45.1106 43.1952 -66.2462 -0.724 -0.685 0.081 158 142 133 0
45.5177 43.0376 -66.2852 -0.287 -0.956 0.062 50 50 50 0
45.7232 42.9648 -66.3075 -0.287 -0.955 0.072 247 247 244 0
45.9256 42.8850 -66.3263 -0.283 -0.959 0.025 254 255 254 0
-25.5833 41.1224 -48.0738 0.385 -0.472 0.793 204 179 182 0
-24.9241 39.9677 -47.7780 0.467 -0.595 0.654 201 170 172 0
-24.7240 40.1265 -47.8912 0.457 -0.590 0.666 187 150 152 0
-20.9573 31.7460 -45.4914 -0.677 -0.600 -0.426 142 72 85 0
-20.1873 30.8185 -45.3138 -0.802 -0.541 -0.253 135 62 79 0
-19.8800 30.1386 -45.1195 -0.838 -0.543 0.051 135 62 78 0
-15.8186 29.2662 -45.7838 -0.580 -0.793 -0.187 114 44 58 0
-15.1890 29.1885 -45.9098 0.605 -0.489 0.629 113 42 57 0
-14.9678 29.0473 -45.9086 0.777 -0.466 0.423 114 43 57 0
-14.7864 29.3082 -46.0577 0.612 -0.516 0.599 115 43 56 0
-14.0601 28.1744 -45.7870 -0.587 -0.779 -0.221 118 43 58 0
-13.5181 26.6809 -45.3272 0.067 -0.992 0.106 116 43 58 0
-13.2783 26.2475 -45.2143 0.026 -0.994 -0.102 115 42 58 0
-10.6961 26.8789 -46.1091 0.306 -0.907 0.289 104 36 47 0
-10.5015 27.0179 -46.2129 -0.717 -0.681 0.151 102 34 45 0
-9.8572 26.3702 -46.1155 0.119 -0.992 0.045 99 35 48 0
-9.6452 26.1763 -46.0911 0.409 -0.842 -0.351 96 34 47 0
-5.8849 30.5694 -48.7778 -0.159 -0.970 0.186 77 31 39 0
-5.6777 30.7715 -48.9099 -0.219 -0.966 0.136 75 31 38 0
-2.9051 34.2621 -50.9911 -0.635 -0.216 0.742 71 44 49 0
-2.6918 33.9545 -50.9217 -0.622 -0.203 0.756 73 46 51 0
-1.3319 27.9124 -48.8538 0.229 -0.945 0.234 86 70 75 0
9.1998 39.5574 -56.1161 -0.224 -0.934 0.277 199 196 76 0
10.7701 43.1372 -57.9333 -0.436 -0.882 -0.180 203 199 72 0
10.9914 43.0305 -57.9459 -0.436 -0.882 -0.180 202 200 71 0
15.5747 50.1034 -61.9052 -0.352 -0.901 -0.254 179 180 62 0
15.1984 37.2848 -56.7054 -0.453 -0.834 0.315 166 166 64 0
19.4302 45.5566 -61.0546 0.176 -0.953 -0.247 149 143 88 0
19.7099 45.7705 -61.2095 0.493 -0.772 -0.401 155 147 98 0
20.0284 46.1831 -61.4532 0.563 -0.701 -0.438 164 152 113 0
20.2470 46.0701 -61.4626 0.347 -0.910 -0.225 170 157 125 0
20.4979 46.1252 -61.5471 0.365 -0.900 -0.236 175 164 135 0
20.4693 44.7603 -60.9963 -0.211 -0.976 0.051 178 166 141 0
23.2827 25.3886 -53.9809 -0.895 -0.413 0.169 190 177 170 0
24.8469 25.2287 -54.3069 -0.560 -0.786 0.264 186 176 167 0
24.7311 21.2963 -52.7116 0.753 -0.267 0.602 182 174 161 0
28.5351 26.1217 -55.5814 -0.507 -0.861 0.029 179 167 160 0
28.8502 25.8326 -55.5448 -0.645 -0.721 -0.253 180 168 161 0
28.9882 25.6286 -55.4979 -0.676 -0.698 -0.235 178 166 160 0
29.1336 25.4501 -55.4630 -0.676 -0.697 -0.238 177 166 160 0
29.2678 25.2385 -55.4122 -0.600 -0.705 0.379 178 167 161 0
30.3293 26.6597 -56.2428 0.898 -0.438 -0.031 174 165 155 0
30.8707 27.6997 -56.7919 0.898 -0.439 -0.017 174 165 156 0
33.5132 25.3098 -56.4983 0.559 -0.609 -0.563 170 160 150 0
33.9383 25.9334 -56.8526 0.587 -0.592 -0.552 169 159 149 0
35.2564 28.4500 -58.1834 0.601 -0.598 -0.531 166 156 146 0
32.6094 14.6776 -52.0379 0.368 -0.774 0.515 162 149 139 0
45.0809 43.1961 -66.5049 -0.724 -0.685 0.081 161 142 134 0
45.2660 43.0706 -66.5010 -0.728 -0.679 0.092 103 93 88 0
45.4151 42.8569 -66.4530 -0.729 -0.680 0.083 50 50 50 0
45.6833 42.9394 -66.5527 -0.223 -0.975 0.004 247 247 244 0
45.8982 42.8900 -66.5866 -0.223 -0.975 0.004 254 255 254 0
-29.0798 12.8945 -36.1582 0.088 -0.773 -0.628 234 227 224 0
-24.9716 39.8649 -47.9830 0.334 -0.671 0.662 204 176 176 0
-24.7565 39.9351 -48.0647 0.467 -0.583 0.665 202 168 169 0
-24.4902 39.7063 -48.0394 0.615 -0.783 -0.092 188 148 151 0
-24.2758 39.7811 -48.1228 0.619 -0.781 -0.081 172 130 134 0
-24.0658 39.8836 -48.2162 0.530 -0.848 -0.026 169 123 128 0
-19.5293 28.7269 -44.8784 -0.615 -0.780 0.113 135 62 77 0
-14.8213 29.1005 -46.2010 0.597 -0.520 0.611 115 45 56 0
-14.6386 29.3543 -46.3482 0.624 -0.496 0.603 116 44 57 0
-14.3271 28.2514 -45.9841 -0.503 -0.722 -0.475 117 45 59 0
-14.1029 28.0492 -45.9590 -0.503 -0.720 -0.478 117 45 59 0
-13.8805 27.8583 -45.9379 -0.563 -0.699 -0.441 116 45 59 0
-13.6203 27.2314 -45.7517 0.765 -0.409 0.498 116 45 59 0
-13.3354 26.2933 -45.4470 -0.011 -0.999 0.051 116 44 58 0
-10.5607 27.1384 -46.4768 0.337 -0.845 0.414 104 36 47 0
-9.9134 26.4598 -46.3663 -0.419 -0.882 -0.216 100 37 48 0
-7.8989 26.6770 -46.9552 -0.322 -0.877 0.357 83 31 42 0
-5.7281 30.7181 -49.1144 -0.235 -0.961 0.144 75 32 39 0
-3.3988 32.9886 -50.6041 -0.122 -0.781 0.612 73 43 49 0
-1.0645 40.3296 -54.1256 -0.477 -0.431 0.766 89 74 80 0
-0.8465 39.9344 -54.0217 -0.577 -0.561 0.593 90 77 84 0
4.0435 41.4131 -55.8322 0.409 0.011 0.913 156 157 146 0
6.0701 40.7884 -56.0870 -0.003 -0.802 0.597 150 142 97 0
6.3100 40.9040 -56.1930 0.016 -0.811 0.585 171 162 109 0
6.5391 40.8930 -56.2457 0.004 -0.810 0.586 179 169 106 0
6.7687 40.8867 -56.3004 0.037 -0.814 0.579 182 172 99 0
6.9725 40.6013 -56.2369 -0.142 -0.982 0.121 186 176 96 0
7.1985 40.5635 -56.2781 -0.142 -0.982 0.121 187 180 92 0
7.4139 40.4160 -56.2726 -0.033 -0.994 0.107 186 181 86 0
7.6448 38.1308 -55.4150 -0.337 -0.880 0.335 191 188 83 0
8.9258 39.5658 -56.3089 -0.224 -0.934 0.277 197 194 77 0
10.9465 43.0560 -58.2101 -0.397 -0.847 -0.354 198 197 71 0
15.8088 50.3324 -62.3356 -0.345 -0.897 -0.276 175 176 63 0
16.0443 50.2496 -62.3611 -0.345 -0.897 -0.276 173 173 63 0
15.4170 37.5151 -57.1049 -0.487 -0.829 0.274 161 160 66 0
20.1851 45.9796 -61.6827 0.093 -0.922 -0.376 174 162 132 0
20.3594 45.6419 -61.5910 0.199 -0.969 -0.147 178 166 139 0
20.5023 45.1503 -61.4297 0.052 -0.950 -0.308 181 169 146 0
22.9793 20.6492 -52.2346 -0.699 -0.663 0.268 189 176 169 0
24.8089 25.9446 -54.8111 -0.534 -0.747 0.396 186 175 166 0
24.8975 21.3095 -52.9769 0.214 -0.665 0.715 182 174 161 0
23.6111 12.4985 -49.1278 -0.081 -0.945 -0.317 182 171 162 0
28.2649 25.3436 -55.4315 0.480 -0.457 0.749 179 167 158 0
28.3557 21.2348 -53.8086 0.421 -0.642 -0.640 174 165 156 0
33.7257 22.6849 -55.7273 -0.342 -0.804 -0.487 165 152 143 0
36.2075 26.1175 -57.7204 0.536 -0.575 -0.618 163 150 141 0
32.7177 15.0184 -52.4059 -0.041 -0.853 -0.521 158 145 136 0
45.0511 43.1970 -66.7638 -0.724 -0.685 0.081 159 140 132 0
45.2427 43.0871 -66.7676 -0.725 -0.688 0.019 102 92 87 0
45.4735 43.0760 -66.8206 -0.353 -0.935 -0.029 51 50 50 0
45.6557 42.9446 -66.8134 -0.223 -0.975 0.004 247 247 244 0
45.8834 42.9263 -66.8628 -0.245 -0.969 -0.002 254 255 254 0
-30.7389 46.4365 -49.4499 0.617 -0.420 -0.666 227 217 216 0
-26.1201 39.5738 -47.8376 0.478 -0.875 -0.071 213 197 198 0
-24.7760 39.6696 -48.2111 0.577 -0.572 0.583 204 173 175 0
-24.5517 39.6854 -48.2733 0.615 -0.783 -0.092 201 166 168 0
-24.3533 39.8552 -48.3911 0.615 -0.783 -0.092 191 154 156 0
-24.1544 40.0255 -48.5093 0.615 -0.783 -0.092 175 133 137 0
-16.5837 29.5401 -46.1738 -0.495 -0.803 -0.332 117 47 58 0
-15.4300 28.4485 -46.0218 0.609 -0.499 0.616 119 48 64 0
-15.2396 28.6007 -46.1305 0.615 -0.493 0.615 121 50 66 0
-15.0492 28.7579 -46.2412 0.591 -0.523 0.614 126 55 71 0
-14.8533 28.8659 -46.3335 0.592 -0.527 0.610 122 51 65 0
-14.6671 29.0774 -46.4651 0.604 -0.518 0.606 116 45 59 0
-14.4082 28.5316 -46.3098 -0.504 -0.722 -0.474 116 45 59 0
-14.1910 28.4123 -46.3159 -0.498 -0.725 -0.477 116 45 59 0
-13.5619 28.2816 -46.4200 -0.485 -0.842 -0.237 116 45 61 0
-13.1965 26.4091 -45.7571 0.355 -0.935 -0.017 114 43 59 0
-12.9947 26.4131 -45.8090 -0.144 -0.989 0.043 114 44 56 0
-12.5902 26.4095 -45.9084 0.053 -0.986 0.161 128 58 69 0
-12.3881 26.4100 -45.9589 0.090 -0.995 -0.031 132 62 72 0
-12.1875 26.4299 -46.0169 0.090 -0.995 -0.031 114 44 55 0
-11.9842 26.4148 -46.0615 0.102 -0.994 -0.026 110 40 50 0
-10.6236 27.3170 -46.7638 0.535 -0.805 0.255 105 36 48 0
-10.4216 27.3482 -46.8267 0.355 -0.851 0.387 102 36 46 0
-9.9710 26.5730 -46.6268 -0.403 -0.879 -0.254 100 37 48 0
-9.7569 26.3537 -46.5919 0.421 -0.816 -0.395 98 35 46 0
-7.7713 27.4033 -47.5093 -0.048 -0.985 -0.168 85 31 46 0
-6.1796 29.6212 -48.7989 0.923 -0.373 0.091 78 34 41 0
-5.9817 30.2399 -49.0973 -0.060 -0.952 -0.301 75 34 40 0
-5.7773 30.5874 -49.2881 -0.222 -0.915 0.336 76 35 41 0
-5.5646 30.4031 -49.2669 0.372 -0.803 0.466 77 36 42 0
-3.8807 32.4846 -50.5246 -0.298 -0.628 -0.719 73 44 49 0
-3.6618 33.7287 -51.0801 -0.689 -0.468 0.554 73 44 51 0
-3.4572 31.7418 -50.3311 0.175 -0.984 -0.030 74 44 52 0
-2.8029 33.1772 -51.0720 -0.555 -0.545 0.629 76 52 58 0
-2.5320 37.2970 -52.7983 -0.139 -0.990 0.035 78 57 62 0
-0.9035 39.7765 -54.2024 -0.566 -0.556 0.609 93 81 89 0
1.6149 44.9969 -56.9318 0.394 -0.594 -0.702 139 139 137 0
1.8539 45.0201 -57.0007 0.409 -0.604 -0.684 141 142 140 0
7.5878 38.0346 -55.6168 -0.259 -0.863 0.435 190 184 87 0
7.9064 38.9632 -56.0701 0.168 -0.966 -0.195 191 186 85 0
8.8571 39.3707 -56.4711 -0.008 -0.854 0.520 197 193 82 0
9.2221 38.5724 -56.2406 -0.210 -0.855 0.474 197 192 77 0
9.4554 38.6373 -56.3249 -0.307 -0.854 0.420 198 193 75 0
10.9051 43.1102 -58.4870 -0.400 -0.894 -0.203 195 194 73 0
11.1180 42.9355 -58.4697 -0.194 -0.942 -0.275 195 194 72 0
15.7377 50.1861 -62.5402 -0.119 -0.893 -0.434 172 176 63 0
15.9867 50.1915 -62.6044 -0.130 -0.885 -0.447 170 173 64 0
16.4697 50.1071 -62.6908 -0.152 -0.910 -0.386 167 167 66 0
15.6887 39.4138 -58.1907 -0.324 -0.733 0.598 160 159 68 0
15.8969 39.2977 -58.1958 0.041 -0.565 0.824 158 156 69 0
19.5714 46.7912 -62.1285 0.218 -0.619 -0.755 159 150 105 0
20.0778 45.6534 -61.7966 -0.030 -0.933 -0.357 175 164 135 0
25.8525 45.7421 -63.2712 0.969 -0.244 0.031 192 182 170 0
22.7802 20.7414 -52.4394 -0.726 -0.494 0.478 187 177 168 0
29.1707 25.7614 -56.0530 0.637 -0.464 0.615 176 165 157 0
29.4435 25.9850 -56.2110 0.739 -0.362 0.568 174 164 155 0
28.5170 21.8287 -54.3066 0.425 -0.642 -0.638 173 162 156 0
40.3539 49.5042 -68.3993 -0.690 -0.720 -0.077 170 159 153 0
40.4609 49.0970 -68.2620 -0.674 -0.733 -0.094 169 158 151 0
35.8141 25.6849 -57.6775 0.513 -0.584 -0.629 162 149 141 0
45.0310 43.2222 -67.0353 -0.727 -0.686 0.021 157 138 130 0
45.6281 42.9497 -67.0743 -0.223 -0.975 0.004 246 246 243 0
45.8578 42.9359 -67.1260 -0.238 -0.971 -0.023 254 255 254 0
-66.6526 34.5359 -35.9557 0.237 -0.953 -0.190 255 255 255 0
-29.5672 47.4172 -50.4112 0.813 -0.265 0.518 224 212 212 0
-26.2804 36.4913 -46.8075 -0.735 -0.560 0.382 221 207 206 0
-25.9918 37.3148 -47.2127 -0.522 -0.726 0.447 216 201 202 0
-26.1555 39.4084 -48.0194 0.463 -0.885 -0.053 214 198 199 0
-25.7954 39.9232 -48.3175 0.153 -0.702 0.696 210 191 193 0
-25.5057 39.5760 -48.2492 0.357 -0.593 0.721 207 187 188 0
-25.0672 38.3801 -47.8743 0.389 -0.918 -0.079 204 184 185 0
-24.9913 39.2296 -48.2371 0.552 -0.618 0.560 203 181 181 0
-24.8143 39.5144 -48.3965 0.649 -0.753 0.107 202 176 177 0
-24.6209 39.7095 -48.5237 0.626 -0.776 -0.078 198 168 170 0
-24.4228 39.8814 -48.6426 0.626 -0.776 -0.078 195 163 165 0
-24.2242 40.0537 -48.7619 0.626 -0.776 -0.078 186 149 153 0
-22.6186 37.1019 -47.9671 -0.840 -0.444 -0.312 161 100 111 0
-17.7163 29.8302 -46.2451 -0.712 -0.680 0.176 123 52 68 0
-15.2703 28.3624 -46.2605 0.568 -0.508 0.647 119 48 64 0
-15.0799 28.5150 -46.3697 0.584 -0.529 0.616 135 64 79 0
-14.8877 28.6564 -46.4748 0.597 -0.531 0.601 135 64 78 0
-14.7019 28.8687 -46.6071 0.589 -0.517 0.621 119 48 62 0
-14.2818 28.7997 -46.6839 -0.524 -0.715 -0.463 117 46 61 0
-13.6191 28.3157 -46.6531 -0.460 -0.825 -0.330 116 45 61 0
-13.2620 26.5532 -46.0286 0.417 -0.908 -0.050 115 44 60 0
-12.6434 26.4142 -46.1265 -0.038 -0.989 0.142 120 49 62 0
-10.4652 27.2051 -46.9894 0.456 -0.833 0.313 104 37 47 0
-10.2351 26.7460 -46.8609 0.174 -0.845 0.506 103 37 48 0
-9.9971 26.1138 -46.6643 0.524 -0.687 0.503 102 38 49 0
-8.2221 27.1810 -47.5386 0.329 -0.810 -0.485 87 34 44 0
-7.8258 27.5122 -47.7714 0.529 -0.751 0.395 85 32 45 0
-6.0342 30.3250 -49.3565 -0.060 -0.952 -0.301 76 35 41 0
-5.8275 30.5257 -49.4892 -0.222 -0.915 0.336 76 35 41 0
-5.6014 29.3605 -49.0739 0.456 -0.890 -0.020 78 36 43 0
-5.4007 29.9932 -49.3800 0.210 -0.855 0.474 77 35 44 0
-3.2784 33.9938 -51.5283 0.696 -0.408 0.592 76 48 56 0
-3.0744 32.6001 -51.0150 -0.590 -0.538 0.602 79 54 62 0
-2.8508 33.4341 -51.4083 -0.607 -0.581 0.543 81 58 64 0
-2.5830 37.4148 -53.0864 -0.109 -0.993 -0.036 80 60 65 0
-1.1879 39.6293 -54.3304 -0.260 -0.504 0.824 91 78 86 0
-0.9719 39.1841 -54.2040 -0.372 -0.508 0.777 96 85 93 0
0.5227 36.8265 -53.6221 0.067 -0.688 0.723 132 130 130 0
0.7018 35.7857 -53.2454 -0.367 -0.724 0.584 136 135 135 0
2.0434 36.1392 -53.7228 -0.189 -0.980 -0.056 154 154 151 0
2.9337 39.9998 -55.5075 0.516 -0.301 0.802 161 162 157 0
3.6184 39.9867 -55.6728 0.306 -0.275 0.911 167 168 157 0
25.6174 44.9281 -63.1549 0.965 -0.261 -0.006 192 182 170 0
24.9606 19.7444 -52.7970 0.257 -0.596 -0.760 183 170 161 0
25.3051 20.2692 -53.0953 0.209 -0.641 -0.739 183 170 161 0
28.9109 25.6751 -56.1821 0.453 -0.468 0.759 177 167 158 0
29.0344 25.4252 -56.1116 0.743 -0.349 0.572 174 165 156 0
29.3414 25.7585 -56.3231 0.743 -0.347 0.573 175 165 156 0
30.1293 16.5704 -52.8001 -0.450 -0.771 -0.450 165 155 146 0
30.2886 16.4989 -52.8109 -0.446 -0.772 -0.453 165 157 146 0
37.4439 29.5192 -59.8644 0.527 -0.584 -0.618 160 147 138 0
32.8563 14.5642 -52.6675 -0.156 -0.738 -0.656 158 144 135 0
33.0555 14.6104 -52.7359 -0.158 -0.744 -0.650 156 142 133 0
45.1829 43.0878 -67.2854 -0.729 -0.684 0.012 101 89 86 0
45.4247 43.1032 -67.3518 -0.288 -0.956 -0.060 51 50 50 0
45.6026 42.9603 -67.3383 -0.279 -0.960 -0.026 247 247 244 0
45.8306 42.9419 -67.3877 -0.255 -0.966 -0.039 254 255 254 0
-66.8095 34.6677 -36.2167 0.149 -0.979 -0.140 255 255 255 0
-26.5116 37.3648 -47.3566 -0.832 -0.444 0.333 223 208 208 0
-26.1888 36.8351 -47.2214 -0.026 -0.933 0.359 218 203 205 0
-26.0551 37.3066 -47.4466 -0.413 -0.836 0.360 217 202 204 0
-25.8987 40.1293 -48.6343 0.280 -0.687 0.670 212 194 196 0
-25.0197 39.0204 -48.4021 -0.513 -0.855 0.084 205 185 186 0
-24.8344 39.2543 -48.5435 0.563 -0.826 -0.037 204 179 182 0
-24.6783 39.6641 -48.7491 0.503 -0.864 0.019 201 172 176 0
-25.0218 45.8362 -51.1753 -0.795 -0.362 -0.487 184 146 151 0
-18.9895 31.1208 -46.6901 -0.805 -0.585 0.101 137 66 79 0
-18.7340 30.7846 -46.6169 -0.848 -0.503 0.167 138 67 81 0
-18.4947 30.5626 -46.5862 -0.830 -0.485 0.273 136 64 80 0
-18.2297 30.1344 -46.4780 -0.712 -0.699 0.073 134 61 78 0
-17.9983 29.9591 -46.4643 -0.721 -0.689 0.080 128 56 73 0
-17.7643 29.7576 -46.4406 -0.723 -0.672 0.161 125 55 70 0
-15.7078 28.0857 -46.2727 -0.781 -0.535 -0.323 118 50 63 0
-14.3904 29.3728 -47.1248 -0.507 -0.789 -0.347 118 47 63 0
-13.6849 28.4469 -46.9238 -0.469 -0.828 -0.308 116 45 60 0
-13.5368 29.1198 -47.2346 -0.630 -0.758 -0.168 116 45 61 0
-10.5065 27.0233 -47.1366 0.547 -0.797 0.255 104 38 50 0
-8.2852 27.4969 -47.8828 -0.040 -0.999 0.026 87 35 45 0
-7.8722 27.3852 -47.9403 0.534 -0.744 0.401 86 35 44 0
-6.0875 30.4404 -49.6284 -0.188 -0.922 0.340 79 38 44 0
-5.8766 30.3976 -49.6635 -0.198 -0.918 0.343 79 38 44 0
-5.6600 29.9371 -49.5301 -0.407 -0.828 0.387 78 37 45 0
-5.4502 29.8916 -49.5639 0.204 -0.873 0.444 78 37 46 0
-5.2344 29.2399 -49.3525 0.849 -0.453 0.272 77 38 48 0
-3.3326 33.6009 -51.6011 0.722 -0.425 0.545 81 54 63 0
-2.3706 40.2669 -54.5536 -0.309 -0.944 0.115 84 67 70 0
-1.0282 39.0424 -54.3898 -0.291 -0.492 0.821 102 92 100 0
0.2109 35.7959 -53.3774 0.023 -0.576 0.817 133 131 132 0
3.2635 42.5251 -56.8766 0.184 -0.256 0.949 167 168 161 0
3.5263 39.3364 -55.6444 0.247 -0.491 0.835 171 171 163 0
3.7658 39.5203 -55.7789 0.125 -0.476 0.870 174 172 163 0
7.7932 38.7877 -56.4845 -0.541 -0.827 0.155 188 181 94 0
11.0100 42.8363 -58.9337 -0.327 -0.923 -0.203 193 189 77 0
13.7929 45.9294 -60.8860 0.246 -0.600 -0.761 176 179 67 0
16.1579 50.3208 -63.2624 -0.158 -0.933 -0.323 164 167 64 0
15.7186 40.1270 -59.0045 0.070 -0.969 0.238 156 155 71 0
15.6981 38.6312 -58.3907 0.247 -0.510 0.824 155 153 72 0
26.5087 22.4732 -54.5092 0.071 -0.727 0.683 182 169 160 0
28.7429 25.2351 -56.1899 0.467 -0.489 0.737 174 165 156 0
28.8849 25.0464 -56.1485 0.743 -0.349 0.572 173 164 155 0
30.0434 16.4011 -52.9189 -0.143 -0.677 0.722 163 153 144 0
34.2373 18.1600 -54.6799 -0.177 -0.980 0.092 156 142 133 0
44.5455 43.3409 -67.4962 0.379 -0.916 -0.133 157 138 131 0
45.1773 43.1488 -67.5754 -0.726 -0.687 0.015 98 88 83 0
45.4053 43.1292 -67.6243 -0.253 -0.967 -0.030 50 50 50 0
45.6140 43.0621 -67.6490 -0.248 -0.968 -0.020 246 246 243 0
-66.8669 34.6173 -36.4286 0.142 -0.983 -0.117 255 255 255 0
-25.5131 37.6449 -47.9734 0.143 -0.802 0.580 213 196 197 0
-25.0988 39.0991 -48.6716 -0.562 -0.812 0.157 208 187 189 0
-24.0862 39.8120 -49.2156 0.635 -0.680 -0.368 194 159 164 0
-24.8875 46.0579 -51.5712 -0.807 -0.359 -0.468 184 144 149 0
-22.2794 36.9718 -48.5039 -0.775 -0.458 -0.437 162 103 116 0
-18.2571 29.8997 -46.6130 -0.665 -0.669 -0.332 137 66 82 0
-15.3506 28.0732 -46.5901 -0.515 -0.663 -0.543 119 51 64 0
-14.4837 29.7762 -47.5029 0.044 -0.968 -0.247 120 49 64 0
-14.2699 29.7224 -47.5342 -0.088 -0.975 -0.205 118 47 64 0
-14.0611 29.7219 -47.5860 -0.114 -0.955 -0.275 117 46 62 0
-11.7744 26.9374 -47.0167 -0.136 -0.932 -0.337 111 45 57 0
-11.5650 26.8538 -47.0347 0.208 -0.922 -0.326 110 44 56 0
-10.7699 27.1473 -47.3529 0.204 -0.920 -0.336 104 39 52 0
-9.5055 26.3399 -47.3377 -0.620 -0.714 0.324 96 35 50 0
-9.2946 26.1652 -47.3188 -0.620 -0.714 0.324 93 35 47 0
-9.0839 25.9815 -47.2962 -0.666 -0.698 0.263 92 36 45 0
-8.3369 27.5114 -48.1082 -0.021 -0.997 -0.071 88 36 47 0
-7.9187 27.2604 -48.1098 0.534 -0.744 0.401 86 36 45 0
-6.1361 30.2932 -49.7948 -0.298 -0.871 -0.391 78 39 47 0
-5.7097 29.8554 -49.7220 -0.298 -0.839 0.456 75 39 46 0
-5.4986 29.7076 -49.7141 0.214 -0.895 0.392 75 40 48 0
12.2810 40.4699 -58.5481 0.698 -0.671 -0.250 181 181 73 0
16.1205 50.3935 -63.5649 -0.222 -0.832 -0.509 161 163 66 0
15.6077 39.7224 -59.0714 0.056 -0.797 0.601 155 153 74 0
25.9271 46.5804 -64.4489 0.961 -0.266 0.072 193 183 171 0
26.3909 36.3479 -60.3782 -0.340 -0.598 0.726 187 175 167 0
26.2532 22.3757 -54.6276 -0.648 -0.734 0.203 180 169 158 0
26.4093 22.2422 -54.6120 -0.648 -0.734 0.203 180 168 158 0
26.5923 22.2001 -54.6403 0.280 -0.475 0.834 178 167 156 0
26.6675 21.8019 -54.4962 -0.442 -0.828 0.345 175 165 154 0
28.6504 23.7633 -55.7928 0.543 -0.324 0.775 172 163 154 0
25.4746 12.5808 -50.4264 0.835 -0.500 0.229 172 161 154 0
27.0072 15.0985 -51.8384 0.311 -0.949 -0.054 170 158 152 0
26.5322 13.1020 -50.9032 -0.417 -0.771 -0.482 170 158 150 0
26.7904 13.3434 -51.0663 -0.670 -0.698 -0.253 171 158 150 0
30.1412 16.2300 -53.0824 -0.140 -0.665 0.734 164 153 143 0
31.4050 10.9672 -51.2442 0.089 -0.657 -0.749 156 140 130 0
44.4966 43.2943 -67.7324 0.369 -0.923 -0.108 155 137 128 0
-66.9159 34.5517 -36.6364 0.158 -0.981 -0.114 255 255 255 0
-25.5789 37.6505 -48.2136 0.179 -0.981 0.069 214 198 199 0
-25.2163 39.3952 -49.0215 0.010 -0.882 0.471 211 190 192 0
-24.9379 39.1004 -48.9696 -0.455 -0.826 0.332 208 183 187 0
-23.2431 39.8302 -49.6922 -0.819 -0.450 -0.356 172 125 135 0
-19.6697 32.1356 -47.4182 -0.714 -0.693 -0.099 141 70 86 0
-18.3692 30.3230 -46.9968 -0.672 -0.690 -0.270 140 70 85 0
-15.6837 28.7525 -47.0203 -0.632 -0.626 -0.456 116 48 63 0
-14.1510 30.1021 -47.9573 -0.079 -0.896 -0.436 116 48 61 0
-13.3444 28.0186 -47.3014 -0.223 -0.951 -0.216 117 49 64 0
-13.1114 27.6908 -47.2247 -0.363 -0.758 -0.542 115 48 63 0
-11.8370 27.0746 -47.2889 -0.233 -0.864 -0.447 113 47 59 0
-11.6242 26.9479 -47.2898 0.204 -0.908 -0.366 113 49 60 0
-10.8191 27.0974 -47.5519 0.261 -0.949 -0.177 102 40 53 0
-10.3828 26.6135 -47.4617 0.600 -0.723 0.342 100 38 52 0
-10.1144 25.4632 -47.0555 0.444 -0.712 0.543 98 38 51 0
-10.1618 29.9810 -48.9017 0.275 -0.891 0.361 99 38 54 0
-7.9653 27.1418 -48.2815 0.556 -0.722 0.412 86 36 47 0
-6.1829 30.0500 -49.9218 -0.337 -0.822 0.460 77 43 50 0
-5.9716 29.9556 -49.9356 -0.337 -0.822 0.460 75 42 48 0
-5.7585 29.7134 -49.8892 -0.309 -0.840 0.445 75 42 49 0
-5.5494 29.7125 -49.9409 -0.312 -0.866 0.390 75 44 50 0
-3.8662 34.5353 -52.3439 0.586 -0.429 -0.687 81 59 66 0
0.5265 35.1720 -53.7006 0.071 -0.583 0.809 153 153 153 0
15.2560 48.2899 -62.7668 0.202 -0.797 -0.569 164 166 71 0
15.5163 48.3894 -62.8726 0.176 -0.786 -0.592 162 163 68 0
15.8209 48.7732 -63.1064 -0.318 -0.845 -0.431 160 161 67 0
16.7286 48.3029 -63.1392 -0.700 -0.626 -0.343 154 153 74 0
19.0183 46.0845 -62.7975 -0.270 -0.765 -0.585 168 158 128 0
20.4033 39.8932 -60.5963 -0.443 -0.873 0.206 188 181 166 0
24.7435 43.7599 -63.2683 0.924 -0.383 0.013 192 182 172 0
25.3120 45.1715 -63.9906 0.926 -0.368 0.089 192 183 172 0
22.2586 21.4477 -53.4725 -0.643 -0.691 0.330 188 177 167 0
27.9506 38.1295 -61.7520 0.802 -0.392 0.452 181 172 162 0
22.5401 15.4993 -51.0962 0.466 -0.555 -0.689 182 172 161 0
26.2359 22.4208 -54.8640 -0.375 -0.898 0.228 177 167 155 0
26.3522 22.1532 -54.7829 -0.644 -0.737 0.206 176 166 154 0
26.5030 22.0039 -54.7591 -0.593 -0.763 0.259 175 166 153 0
26.4868 21.3036 -54.4670 -0.723 -0.681 0.114 174 164 152 0
26.8125 20.4710 -54.2058 -0.791 -0.611 -0.034 174 164 154 0
28.6482 25.7780 -56.8460 -0.523 -0.849 -0.074 174 164 154 0
26.6842 12.5655 -50.9224 -0.325 -0.795 -0.512 169 156 148 0
44.3670 43.0428 -67.8643 0.493 -0.865 -0.090 152 135 124 0
45.7845 43.0478 -68.2197 -0.214 -0.969 -0.126 254 255 254 0
-67.0795 34.6946 -36.9019 0.155 -0.979 -0.135 255 255 255 0
-29.8064 49.6275 -52.3662 0.860 -0.468 -0.201 226 212 214 0
-22.9550 40.4905 -50.2963 -0.767 -0.514 -0.384 167 116 131 0
-19.7365 32.1894 -47.6665 -0.710 -0.696 -0.106 142 71 86 0
-18.5354 31.1592 -47.5399 -0.271 -0.680 -0.682 142 72 87 0
-18.2220 30.3618 -47.2884 -0.598 -0.724 -0.343 139 70 83 0
-14.0386 30.5685 -48.4165 -0.087 -0.992 -0.087 118 51 63 0
-13.4016 28.0555 -47.5363 -0.232 -0.950 -0.208 119 51 66 0
-11.8975 27.1806 -47.5495 -0.225 -0.862 -0.454 116 51 63 0
-11.6848 27.0597 -47.5525 0.009 -0.902 -0.432 118 54 66 0
-11.4790 27.0329 -47.5927 0.022 -0.908 -0.418 110 46 58 0
-11.2758 27.0429 -47.6475 0.014 -0.904 -0.427 105 43 55 0
-11.0831 27.2151 -47.7668 0.285 -0.800 -0.528 104 42 56 0
-10.8827 27.2755 -47.8417 -0.069 -0.878 -0.474 102 41 55 0
-10.4794 27.3683 -47.9806 0.091 -0.894 -0.438 99 39 53 0
-8.0099 26.9699 -48.4314 0.568 -0.713 0.411 87 38 50 0
-6.2462 30.6812 -50.4054 0.103 -0.970 -0.221 80 47 54 0
13.3529 49.0756 -62.8956 -0.070 -0.597 -0.799 174 174 75 0
15.3049 48.9351 -63.3240 0.326 -0.761 -0.560 164 164 72 0
15.5834 49.1450 -63.4802 0.240 -0.790 -0.564 160 161 71 0
15.8609 49.3439 -63.6316 0.220 -0.790 -0.572 158 159 70 0
18.2251 47.3175 -63.3831 -0.444 -0.884 0.144 146 140 98 0
18.4151 47.0163 -63.3059 -0.570 -0.782 0.251 152 146 106 0
19.8777 31.2660 -57.1586 -0.473 -0.881 -0.012 192 183 167 0
26.2310 22.5076 -55.1211 -0.143 -0.670 -0.728 175 167 152 0
26.3704 22.3165 -55.0768 -0.713 -0.632 0.304 173 165 151 0
26.4904 22.0631 -55.0020 -0.650 -0.729 0.215 173 164 150 0
26.5991 21.1331 -54.6445 -0.824 -0.554 -0.120 173 163 151 0
25.7556 11.4314 -50.4232 0.229 -0.638 -0.735 167 156 149 0
31.2929 24.1090 -57.0448 0.916 -0.310 0.255 168 154 146 0
37.4686 37.6299 -64.1743 0.921 -0.291 0.258 165 152 141 0
32.7191 20.3800 -55.8586 0.712 -0.592 -0.378 158 146 135 0
31.1504 14.6200 -53.0861 -0.767 -0.478 0.428 157 145 133 0
44.3298 43.0256 -68.1153 0.478 -0.873 -0.100 151 134 122 0
-67.4252 34.7733 -37.0962 -0.692 -0.686 0.224 255 255 255 0
-67.1251 34.6224 -37.1083 0.147 -0.979 -0.139 255 255 255 0
-24.5821 44.4126 -51.7818 -0.527 -0.462 0.714 190 161 166 0
-23.9916 45.1668 -52.2425 -0.346 -0.802 0.487 178 133 145 0
-23.2006 41.6430 -50.9751 -0.776 -0.518 -0.359 172 124 137 0
-22.7840 40.4481 -50.5824 -0.784 -0.488 -0.383 170 119 134 0
-22.2860 38.6922 -49.9767 -0.711 -0.537 -0.454 165 110 127 0
-19.3912 32.3550 -48.0645 -0.736 -0.574 -0.359 137 70 82 0
-18.8583 31.5599 -47.8668 -0.347 -0.647 -0.679 148 79 93 0
-18.6266 31.4117 -47.8630 -0.347 -0.650 -0.676 149 80 93 0
-18.3075 30.5785 -47.5963 -0.598 -0.724 -0.343 138 71 84 0
-18.0911 30.5323 -47.6310 -0.517 -0.758 -0.398 132 65 77 0
-14.2685 30.1732 -48.4346 -0.225 -0.960 0.165 120 53 66 0
-13.0494 28.1216 -47.8858 -0.509 -0.727 0.460 126 64 75 0
-11.9998 27.8558 -48.0370 -0.000 -0.999 -0.045 115 52 65 0
-11.7712 27.5318 -47.9593 -0.025 -0.997 -0.072 114 51 65 0
-11.5712 27.6022 -48.0384 -0.031 -0.994 -0.105 109 47 61 0
-11.3636 27.5651 -48.0747 -0.023 -0.995 -0.102 106 44 57 0
-11.1836 27.9482 -48.2788 0.029 -0.999 -0.027 105 44 58 0
-10.7382 27.3971 -48.1608 0.075 -0.941 -0.329 101 42 57 0
-7.8569 26.9748 -48.7035 0.827 -0.560 0.046 87 40 52 0
-6.3018 30.8817 -50.7149 0.143 -0.961 -0.236 79 47 56 0
-4.6468 39.2259 -54.5954 0.523 -0.806 0.275 81 57 64 0
-4.4201 39.5334 -54.7797 0.523 -0.784 0.335 81 59 65 0
-4.1921 39.5336 -54.8366 0.538 -0.778 0.325 83 62 69 0
1.6171 32.6461 -53.4221 -0.524 -0.758 0.389 174 176 175 0
2.0016 31.8118 -53.1712 -0.613 -0.689 0.385 177 179 176 0
15.3531 49.5792 -63.8837 0.436 -0.688 -0.580 161 161 76 0
16.1841 50.1411 -64.3244 -0.849 -0.484 -0.213 155 156 78 0
16.9832 47.4507 -63.4054 -0.199 -0.973 -0.118 151 148 91 0
17.2347 47.4968 -63.4873 0.004 -0.990 -0.138 150 144 93 0
17.4809 47.5105 -63.5543 -0.190 -0.978 -0.085 146 139 92 0
17.7295 47.5383 -63.6279 -0.179 -0.982 -0.064 144 137 93 0
17.9738 47.5402 -63.6895 -0.426 -0.884 0.189 146 138 100 0
18.4132 47.2660 -63.6851 -0.442 -0.886 0.141 159 150 118 0
23.7023 36.7513 -60.6334 -0.391 -0.676 0.625 188 178 166 0
23.9480 36.8433 -60.7329 -0.351 -0.663 0.661 188 178 166 0
26.3668 23.0709 -55.6119 -0.225 -0.647 -0.729 174 164 152 0
26.3641 22.3980 -55.3315 -0.355 -0.923 -0.146 172 162 150 0
26.4524 22.0379 -55.2039 -0.621 -0.729 0.287 172 163 150 0
26.4032 21.2256 -54.8540 -0.771 -0.570 0.283 171 161 149 0
44.3063 43.0436 -68.3845 0.478 -0.873 -0.100 149 134 123 0
44.9408 43.4519 -68.7124 -0.724 -0.690 0.009 146 132 120 0
45.5653 43.2377 -68.7790 -0.259 -0.952 -0.164 246 246 245 0
-67.5208 34.7916 -37.3282 -0.689 -0.685 0.236 255 255 255 0
-67.2599 34.7123 -37.3601 0.170 -0.980 -0.104 255 255 255 0
-70.9184 42.2014 -39.5769 0.037 -0.928 -0.370 135 135 135 0
-70.7015 42.2278 -39.6420 0.058 -0.933 -0.356 69 66 65 0
-24.9253 44.6448 -52.0631 -0.637 -0.349 0.688 194 172 175 0
-22.9507 41.1038 -51.0760 -0.784 -0.488 -0.383 173 128 139 0
-18.9850 32.0735 -48.2918 -0.347 -0.647 -0.679 141 76 88 0
-18.7511 31.9174 -48.2849 -0.347 -0.650 -0.676 143 77 89 0
-18.3300 31.9591 -48.4073 -0.155 -0.624 -0.766 134 68 80 0
-17.6772 30.1220 -47.8025 -0.193 -0.846 -0.498 129 63 76 0
-14.3275 30.2105 -48.6745 -0.241 -0.961 0.138 123 56 69 0
-14.1219 30.2598 -48.7464 -0.162 -0.920 0.357 119 53 65 0
-13.3144 28.1778 -48.0778 -0.512 -0.728 0.456 124 58 72 0
-13.0964 28.0360 -48.0729 -0.509 -0.727 0.460 132 68 81 0
-12.8784 27.8880 -48.0655 -0.509 -0.727 0.460 127 62 75 0
-8.1272 27.3884 -49.0411 -0.164 -0.966 -0.201 89 43 56 0
-7.9258 27.4874 -49.1327 -0.033 -0.963 -0.269 88 44 56 0
-6.1572 31.7194 -51.3416 -0.479 -0.724 -0.496 79 49 55 0
-5.9399 31.4669 -51.2904 -0.424 -0.764 -0.486 79 50 56 0
-5.5415 33.6247 -52.2911 0.488 -0.872 -0.039 82 56 62 0
-5.3254 33.6989 -52.3760 0.490 -0.870 -0.047 81 57 63 0
-5.1145 34.3977 -52.7205 0.890 -0.414 -0.191 82 58 64 0
-4.9314 39.5758 -54.9295 0.504 -0.706 0.498 82 58 64 0
-4.7010 39.1218 -54.7973 0.523 -0.806 0.275 84 61 67 0
-4.4734 39.0657 -54.8306 0.159 -0.927 0.341 87 67 71 0
-4.2464 39.3336 -54.9991 0.517 -0.812 0.271 88 70 75 0
-2.8958 37.7707 -54.6828 0.407 -0.911 0.062 94 80 85 0
-2.4451 37.8440 -54.8258 0.465 -0.883 -0.069 103 91 98 0
16.9740 47.6798 -63.7759 -0.299 -0.949 0.098 142 138 91 0
17.2360 47.7856 -63.8854 -0.351 -0.932 0.084 139 135 92 0
17.4618 47.6746 -63.8953 -0.299 -0.953 0.041 142 135 97 0
17.6930 47.5974 -63.9207 -0.261 -0.963 0.068 149 141 106 0
17.8998 47.3813 -63.8820 -0.510 -0.787 0.347 152 144 114 0
18.1282 47.2934 -63.9022 -0.236 -0.966 0.110 158 150 123 0
18.3404 47.1152 -63.8806 -0.280 -0.952 0.123 165 158 132 0
21.4161 46.6803 -64.4657 -0.271 -0.951 0.151 189 180 165 0
20.4118 40.5507 -61.6545 -0.607 -0.734 -0.303 190 180 166 0
20.5534 40.1166 -61.5084 -0.622 -0.734 -0.272 191 181 169 0
20.6941 39.6856 -61.3634 -0.433 -0.774 -0.462 191 181 169 0
24.4412 36.2740 -60.8722 0.300 -0.362 0.883 187 179 166 0
24.8595 36.1646 -60.9308 -0.348 -0.714 0.607 187 178 165 0
45.5513 43.2774 -69.0605 0.060 -0.992 0.107 247 247 245 0
-67.6877 34.9385 -37.5967 -0.687 -0.690 0.229 255 255 255 0
-67.3004 34.6308 -37.5641 0.166 -0.980 -0.108 255 255 255 0
-24.1253 45.1581 -52.7486 -0.628 -0.633 0.453 186 155 160 0
-22.1372 39.8633 -51.0207 -0.635 -0.588 -0.501 163 110 123 0
-21.6255 39.4889 -50.9910 -0.770 -0.421 -0.479 156 98 112 0
-19.1185 32.6330 -48.7368 -0.584 -0.613 -0.532 141 76 89 0
-18.8487 32.2129 -48.6277 -0.597 -0.609 -0.523 141 75 88 0
-18.6096 32.0183 -48.6056 -0.361 -0.658 -0.661 139 73 85 0
-18.3981 32.0336 -48.6647 -0.370 -0.649 -0.665 134 67 80 0
-17.2645 33.3090 -49.4829 0.135 -0.556 0.820 126 63 77 0
-17.0372 33.2101 -49.4981 0.102 -0.584 0.806 125 62 76 0
-16.8219 33.2143 -49.5535 0.052 -0.636 0.770 124 61 74 0
-16.0127 31.6973 -49.1182 -0.634 -0.708 -0.310 122 58 69 0
-14.3857 30.2370 -48.9105 -0.399 -0.892 -0.214 123 57 69 0
-14.1753 30.2350 -48.9622 -0.158 -0.907 0.390 123 56 70 0
-13.1395 27.9061 -48.2423 -0.261 -0.673 0.692 120 56 71 0
-12.9259 27.8100 -48.2553 -0.261 -0.673 0.692 118 53 67 0
-12.7126 27.7142 -48.2682 -0.261 -0.673 0.692 115 50 63 0
-10.5092 28.6874 -49.2262 0.118 -0.956 0.268 102 47 60 0
-8.6654 29.2413 -49.9185 -0.201 -0.788 0.582 89 42 58 0
-8.2502 29.2885 -50.0418 -0.745 -0.649 -0.153 91 47 60 0
-8.1097 31.1872 -50.8742 -0.597 -0.784 -0.170 90 48 61 0
-7.8874 30.8921 -50.8057 -0.603 -0.792 -0.098 89 48 61 0
-6.2135 31.9459 -51.6655 -0.385 -0.802 -0.457 81 53 60 0
-5.6013 34.1792 -52.7560 0.492 -0.862 -0.124 86 62 68 0
-4.9840 39.2423 -55.0362 0.456 -0.781 0.426 86 65 71 0
-4.7543 38.8743 -54.9390 0.179 -0.928 0.325 89 69 75 0
-4.5274 38.8952 -55.0043 0.179 -0.928 0.325 92 73 78 0
-4.2998 38.5964 -54.9355 -0.135 -0.981 -0.141 93 76 82 0
-3.8470 38.5279 -55.0197 -0.020 -0.862 -0.506 90 75 85 0
-3.6214 38.3469 -54.9999 0.017 -0.874 -0.485 90 76 86 0
-3.1716 38.0611 -54.9920 0.521 -0.837 -0.165 94 82 90 0
-2.9490 37.7619 -54.9218 0.398 -0.916 0.055 98 87 94 0
-2.7233 37.8259 -55.0050 0.407 -0.911 0.062 106 95 103 0
-0.8567 40.2557 -56.4908 -0.418 -0.864 0.281 149 148 153 0
1.8720 35.2725 -55.0783 0.105 -0.820 -0.563 179 181 180 0
4.8129 36.2633 -56.2276 -0.653 -0.673 0.347 191 191 178 0
16.9717 47.9516 -64.1673 -0.763 -0.587 -0.273 138 134 95 0
17.4405 47.8262 -64.2315 -0.548 -0.816 0.183 151 146 113 0
17.6189 47.4373 -64.1127 -0.511 -0.825 0.241 160 153 123 0
17.8497 47.3607 -64.1381 -0.472 -0.846 0.249 163 156 129 0
18.0632 47.1865 -64.1181 -0.221 -0.971 0.094 167 160 137 0
18.2909 47.0966 -64.1371 -0.261 -0.963 0.069 173 166 144 0
18.5064 46.9398 -64.1250 0.081 -0.994 -0.075 177 169 149 0
18.7401 46.8878 -64.1614 0.026 -0.998 -0.057 179 171 152 0
18.9339 46.6176 -64.0963 0.086 -0.994 -0.066 180 173 155 0
19.1812 46.6439 -64.1690 0.086 -0.994 -0.066 182 174 158 0
21.6156 49.1226 -65.8168 0.053 -0.924 -0.378 188 178 165 0
21.4494 47.0667 -64.9120 -0.238 -0.956 0.172 189 180 165 0
24.9401 36.6395 -61.4033 -0.427 -0.735 0.527 185 175 163 0
33.0607 27.7464 -59.6930 0.916 -0.400 0.045 160 147 138 0
32.7811 21.8340 -57.1404 -0.268 -0.895 -0.356 158 144 135 0
31.3617 13.4553 -53.2678 -0.317 -0.904 0.288 151 136 129 0
32.0929 13.9554 -53.6601 0.200 -0.715 -0.670 149 134 127 0
32.9783 15.7759 -54.6454 0.049 -0.969 -0.240 150 136 128 0
44.8964 43.4934 -69.2567 -0.728 -0.686 0.012 143 129 117 0
45.0633 43.3169 -69.2242 -0.728 -0.686 0.012 92 84 78 0
45.2296 43.1406 -69.1917 -0.722 -0.692 0.008 50 50 51 0
45.5090 43.2467 -69.3058 0.078 -0.989 0.126 247 247 245 0
46.6015 44.1824 -69.9712 -0.231 -0.968 0.102 255 255 255 0
-67.6793 34.7684 -37.7761 -0.571 -0.806 0.158 255 255 255 0
-67.4558 34.7574 -37.8271 0.158 -0.981 -0.110 255 255 255 0
-25.2930 39.2605 -50.2399 -0.179 -0.983 0.027 217 201 206 0
-22.3183 40.6382 -51.5632 -0.615 -0.562 -0.553 165 115 129 0
-22.2445 41.6874 -52.0245 -0.608 -0.768 -0.201 160 109 123 0
-21.6519 39.2349 -51.1369 -0.810 -0.465 -0.358 157 101 116 0
-18.7080 32.3228 -48.9531 -0.614 -0.624 -0.484 140 75 89 0
-17.1967 32.2236 -49.2880 -0.534 -0.819 0.209 127 65 79 0
-17.0654 32.9458 -49.6256 0.076 -0.610 0.788 127 65 78 0
-16.8445 32.8974 -49.6603 0.212 -0.967 -0.143 126 63 77 0
-16.6220 32.8329 -49.6885 -0.095 -0.932 -0.349 128 64 78 0
-16.0896 31.8801 -49.4190 -0.650 -0.691 -0.317 123 59 73 0
-14.6512 30.2306 -49.0813 -0.439 -0.872 -0.217 126 59 72 0
-14.4346 30.1643 -49.1073 -0.280 -0.886 0.371 130 64 77 0
-14.2257 30.1784 -49.1654 -0.194 -0.898 0.394 132 66 80 0
-13.1789 27.7312 -48.3933 -0.294 -0.702 0.648 119 55 71 0
-12.9651 27.6314 -48.4045 -0.294 -0.702 0.648 117 54 68 0
-12.7732 27.8009 -48.5239 -0.287 -0.846 0.450 115 53 66 0
-10.7566 28.4729 -49.3103 0.634 -0.773 -0.028 113 58 70 0
-10.5601 28.6526 -49.4352 0.099 -0.962 0.253 106 53 65 0
-8.7212 29.3247 -50.1774 -0.174 -0.749 0.639 89 45 60 0
-8.5122 29.3181 -50.2267 -0.307 -0.848 0.433 91 47 62 0
-4.5815 38.7870 -55.2038 0.177 -0.918 0.355 91 74 82 0
-4.3542 38.6212 -55.1905 -0.244 -0.969 -0.027 90 75 82 0
-4.1275 38.4973 -55.1947 -0.245 -0.968 -0.060 89 75 84 0
-3.9014 38.2844 -55.1612 -0.567 -0.821 -0.063 88 75 85 0
-3.6756 38.2358 -55.1970 -0.226 -0.959 -0.173 91 78 88 0
-3.4491 38.3274 -55.2922 0.151 -0.986 -0.069 95 83 94 0
-3.2246 38.1116 -55.2570 0.498 -0.832 -0.243 97 86 96 0
-0.4312 33.7410 -54.1085 0.208 -0.857 0.472 163 163 165 0
-0.2175 33.6325 -54.1160 0.175 -0.854 0.490 168 168 170 0
0.0918 36.1738 -55.2658 0.061 -0.838 0.542 171 172 174 0
0.9335 35.1065 -55.0251 -0.645 -0.500 0.577 178 179 181 0
4.8440 37.3041 -56.9278 -0.600 -0.671 0.436 193 194 180 0
4.9696 36.0426 -56.4266 -0.687 -0.607 0.398 193 194 179 0
17.3527 47.5835 -64.3857 -0.583 -0.783 0.215 159 154 124 0
17.5701 47.4251 -64.3730 -0.583 -0.783 0.215 166 161 131 0
17.7993 47.3384 -64.3935 -0.550 -0.796 0.253 168 162 136 0
18.0174 47.1897 -64.3852 -0.222 -0.969 0.108 174 168 144 0
18.2510 47.1324 -64.4192 -0.222 -0.969 0.108 176 170 148 0
18.5511 47.4503 -64.6282 0.713 -0.695 0.090 178 171 151 0
19.8870 49.3864 -65.7786 -0.066 -0.623 -0.780 180 174 157 0
19.9221 48.2504 -65.3078 -0.154 -0.646 -0.748 181 175 159 0
21.4522 48.5288 -65.8068 0.406 -0.724 0.557 188 179 162 0
21.3197 46.6423 -64.9774 -0.543 -0.745 0.388 189 180 165 0
21.2790 45.2444 -64.3772 -0.328 -0.899 -0.290 188 179 164 0
22.5787 48.0241 -65.8746 -0.270 -0.934 -0.235 189 180 165 0
22.8117 47.9650 -65.9078 -0.270 -0.934 -0.235 189 180 165 0
25.1934 36.9090 -61.8345 -0.341 -0.786 0.516 183 172 162 0
21.4977 21.3879 -54.3611 -0.553 -0.787 0.274 182 172 162 0
22.3149 20.7956 -54.3148 -0.510 -0.860 0.012 181 169 157 0
30.5241 27.0332 -58.9946 0.338 -0.519 -0.785 164 152 143 0
38.8336 40.5496 -66.7720 0.886 -0.455 -0.094 157 143 134 0
31.2767 13.2942 -53.3826 -0.369 -0.881 0.296 149 135 127 0
32.9439 15.7494 -54.8347 0.078 -0.896 0.438 148 134 125 0
44.2851 43.2234 -69.2598 0.060 -0.993 -0.100 145 131 120 0
44.8737 43.5129 -69.5288 -0.728 -0.686 0.012 142 128 116 0
45.0482 43.3551 -69.5057 -0.627 -0.778 0.028 92 84 78 0
45.2277 43.2110 -69.4896 -0.627 -0.778 0.028 49 49 50 0
45.4650 43.2122 -69.5493 0.078 -0.989 0.126 247 247 245 0
46.7653 44.6572 -70.4835 -0.229 -0.972 0.054 255 255 255 0
-67.7787 34.7929 -38.0106 -0.571 -0.806 0.158 255 255 255 0
-67.5165 34.7122 -38.0418 0.185 -0.976 -0.116 255 255 255 0
-29.0645 44.1251 -51.6231 0.348 -0.576 0.739 227 215 218 0
-24.8147 41.4059 -51.5290 -0.586 -0.798 0.140 207 188 194 0
-23.3255 33.9435 -48.7339 -0.097 -0.995 0.034 204 186 192 0
-23.7385 44.8723 -53.2681 -0.398 -0.480 0.782 184 154 162 0
-22.3545 41.9874 -52.3891 -0.731 -0.677 0.081 164 118 132 0
-21.9775 41.0094 -52.0681 -0.849 -0.514 0.123 162 112 125 0
-17.1053 32.7846 -49.7931 0.039 -0.978 -0.204 128 66 81 0
-16.9190 33.0400 -49.9479 0.184 -0.949 -0.257 129 67 82 0
-16.4879 33.0443 -50.0572 0.051 -0.962 -0.268 125 61 77 0
-15.8993 31.5567 -49.5728 -0.826 -0.560 0.068 126 63 78 0
-14.3069 30.4553 -49.5025 -0.430 -0.847 -0.312 129 63 77 0
-14.0780 30.2554 -49.4747 -0.418 -0.854 -0.309 124 58 75 0
-13.7063 28.4326 -48.7940 -0.599 -0.686 0.413 121 57 74 0
-13.2864 28.3646 -48.8698 -0.091 -0.902 -0.423 121 57 74 0
-13.0826 28.4021 -48.9365 -0.093 -0.903 -0.419 118 56 72 0
-12.8759 28.4053 -48.9894 -0.093 -0.903 -0.419 116 55 70 0
-10.8078 28.4428 -49.5210 0.616 -0.788 0.025 117 64 74 0
-10.6097 28.5950 -49.6349 0.099 -0.962 0.253 107 54 64 0
-8.5526 29.0273 -50.3313 -0.169 -0.915 -0.366 91 47 60 0
-4.4089 38.8025 -55.5122 0.020 -0.867 0.498 90 74 84 0
-4.1818 38.8574 -55.5921 0.042 -0.807 0.590 90 77 86 0
-3.9551 38.4809 -55.4889 -0.326 -0.724 0.608 94 81 91 0
-3.7287 38.4449 -55.5300 -0.305 -0.787 0.536 97 84 95 0
-3.5030 38.2850 -55.5184 0.294 -0.952 0.086 102 90 101 0
-3.2772 38.2390 -55.5553 0.401 -0.828 0.391 105 95 105 0
-0.9711 39.9506 -56.8565 -0.477 -0.455 0.752 159 157 162 0
-0.7876 38.3204 -56.2105 -0.494 -0.687 0.533 163 161 166 0
-0.4317 35.2907 -55.0137 0.331 -0.812 0.481 168 168 170 0
-0.1966 35.7210 -55.2549 0.258 -0.823 0.507 171 172 174 0
0.2335 35.3874 -55.2206 0.314 -0.766 0.561 177 177 179 0
0.4556 35.4203 -55.2899 -0.327 -0.713 0.621 178 179 183 0
0.6749 35.3856 -55.3299 -0.561 -0.770 0.303 179 180 184 0
4.7918 37.2602 -57.1518 -0.598 -0.686 0.415 194 196 180 0
5.6163 39.1101 -58.1423 -0.720 -0.635 0.280 193 195 178 0
17.1420 48.0709 -64.8182 -0.757 -0.591 -0.280 163 158 130 0
17.4101 48.2058 -64.9423 -0.450 -0.774 -0.446 168 163 135 0
17.5474 47.5671 -64.7055 -0.578 -0.804 0.139 173 168 140 0
17.9275 46.9395 -64.5340 0.015 -1.000 0.019 177 173 149 0
18.1548 46.8478 -64.5518 -0.004 -1.000 -0.020 178 173 151 0
18.3575 46.6199 -64.5056 0.657 -0.686 0.312 177 172 152 0
19.4543 48.6319 -65.6328 0.777 -0.629 -0.033 178 173 156 0
21.3463 48.2233 -65.9311 0.386 -0.717 0.581 186 177 161 0
21.4688 47.6081 -65.7007 0.394 -0.607 0.691 188 177 161 0
21.4028 46.0724 -65.0326 -0.262 -0.914 -0.311 188 176 161 0
22.4525 47.6311 -65.9557 0.399 -0.916 -0.042 187 178 163 0
22.8200 48.2153 -66.2952 -0.249 -0.937 -0.244 187 179 162 0
21.9278 34.5518 -60.2752 -0.528 -0.188 0.828 187 178 165 0
21.7591 31.9205 -59.1166 -0.139 -0.980 -0.142 186 176 165 0
21.9530 31.8308 -59.1269 -0.014 -0.958 0.285 187 177 165 0
22.0096 31.1588 -58.8559 0.717 -0.604 -0.348 188 178 166 0
22.1572 30.8812 -58.7749 0.674 -0.585 -0.451 187 177 165 0
23.2756 34.6736 -60.6629 -0.584 -0.475 0.659 186 176 164 0
23.8618 35.2758 -61.0646 0.493 -0.433 0.755 183 175 164 0
31.0701 30.1258 -60.6767 0.228 -0.509 -0.830 165 153 143 0
32.9680 27.6490 -60.0989 0.908 -0.418 0.029 156 146 136 0
38.7806 40.4918 -66.9976 0.888 -0.451 -0.089 156 144 132 0
33.0324 15.5655 -54.9879 -0.497 -0.816 0.294 150 133 123 0
44.4180 43.6402 -69.7390 0.681 -0.719 -0.137 147 131 118 0
44.8428 43.5122 -69.7906 -0.723 -0.690 0.007 143 128 115 0
45.0223 43.3663 -69.7735 -0.627 -0.778 0.028 92 84 78 0
45.2019 43.2221 -69.7571 -0.627 -0.778 0.028 49 49 50 0
45.4299 43.1997 -69.8044 -0.010 -0.985 0.170 247 246 245 0
-27.3238 47.1777 -53.6293 -0.574 -0.499 -0.649 218 207 210 0
-27.0562 47.0396 -53.6371 -0.581 -0.508 -0.635 220 205 210 0
-24.6160 41.2081 -51.7585 -0.212 -0.678 0.704 205 188 194 0
-24.6983 44.5045 -53.1439 0.186 -0.292 0.938 200 183 189 0
-24.5026 46.2357 -53.9310 0.486 -0.112 0.867 190 170 177 0
-24.2723 46.3020 -54.0167 0.263 -0.250 0.932 187 164 173 0
-23.5161 44.5415 -53.4544 0.348 -0.881 0.321 184 153 166 0
-23.3073 44.7293 -53.5866 0.357 -0.877 0.321 181 144 158 0
-22.3935 41.8116 -52.5701 -0.746 -0.615 0.254 170 128 142 0
-22.0506 41.0658 -52.3375 -0.849 -0.514 0.123 165 118 133 0
-17.1558 32.7164 -49.9971 0.105 -0.920 -0.377 131 68 84 0
-10.6630 28.5991 -49.8601 0.141 -0.990 0.012 102 51 63 0
-8.8248 29.2949 -50.6152 0.037 -0.998 -0.056 94 52 64 0
-4.6890 38.4697 -55.5594 0.638 -0.761 -0.120 91 77 89 0
-4.4640 39.0014 -55.8423 -0.033 -0.855 0.518 91 79 90 0
-4.2362 38.8150 -55.8196 -0.006 -0.802 0.597 94 82 92 0
-4.0091 38.5748 -55.7738 -0.214 -0.770 0.601 100 87 97 0
-3.7825 38.4945 -55.7961 -0.214 -0.770 0.601 105 93 103 0
-3.5566 38.3188 -55.7774 0.301 -0.949 0.089 111 100 110 0
-2.2015 38.1308 -56.0352 0.376 -0.854 0.360 145 144 151 0
-1.9717 38.3374 -56.1806 0.126 -0.833 0.538 148 148 156 0
-1.0205 40.1004 -57.1697 -0.509 -0.545 0.666 164 164 169 0
