ply
format ascii 1.0
element vertex 823
property float x
property float y
property float z
property float nx
property float ny
property float nz
property uchar diffuse_red
property uchar diffuse_green
property uchar diffuse_blue
property uchar class
end_header
-18.5178 26.4837 -37.9582 0.173 -0.945 -0.278 126 37 55 0
-18.2013 25.1738 -37.5946 -0.257 -0.759 0.599 125 37 53 0
-13.7100 25.0070 -38.7642 0.564 -0.268 0.781 111 27 42 0
-9.6171 25.9916 -40.2206 -0.509 -0.773 0.379 105 23 35 0
-9.4200 26.0463 -40.2933 -0.565 -0.825 -0.032 105 24 35 0
-8.6290 24.8878 -40.1113 0.381 -0.780 -0.496 102 22 35 0
-4.5569 23.7813 -40.8436 0.112 -0.990 0.089 82 19 30 0
-4.3716 23.5636 -40.8194 0.110 -0.982 0.156 82 18 31 0
-3.9025 25.3718 -41.5688 0.819 -0.493 0.292 80 19 31 0
3.6060 36.5504 -47.4605 0.450 -0.779 -0.437 75 54 29 0
4.8103 37.4762 -48.1075 -0.052 -0.583 -0.811 98 76 22 0
5.5194 37.8459 -48.4283 -0.355 -0.930 -0.098 130 107 31 0
10.8576 48.0345 -53.3869 0.709 -0.657 0.256 209 201 57 0
10.4737 43.9792 -51.8888 0.321 -0.945 0.058 211 203 60 0
10.7395 44.1790 -52.0301 0.263 -0.946 0.188 213 206 62 0
10.7328 42.6511 -51.5033 -0.132 -0.913 -0.387 216 208 65 0
10.9932 42.8270 -51.6349 0.060 -0.930 -0.363 219 212 69 0
13.9790 43.8801 -52.8124 -0.005 -0.992 -0.126 226 222 90 0
20.7261 50.8503 -57.0502 0.120 -0.777 -0.619 181 171 53 0
22.6218 48.3964 -56.7250 -0.421 -0.900 -0.110 154 140 74 0
23.1101 47.4082 -56.5189 -0.034 -0.915 -0.401 157 144 100 0
23.4437 47.7677 -56.7335 0.021 -0.897 -0.442 179 165 129 0
23.7000 47.8164 -56.8203 0.021 -0.897 -0.442 187 175 144 0
24.0547 48.2496 -57.0660 -0.513 -0.727 -0.455 185 174 148 0
25.3354 43.9857 -55.9510 0.190 -0.974 0.124 188 177 163 0
43.6712 43.8724 -60.9210 0.896 -0.442 0.040 170 159 149 0
44.7635 45.8771 -61.9082 0.885 -0.466 0.007 169 157 148 0
43.3540 41.4534 -60.0033 0.806 -0.479 0.347 168 156 144 0
41.7713 34.1496 -57.0617 -0.709 -0.612 -0.351 168 150 141 0
-67.3029 41.6111 -30.0786 -0.307 -0.921 -0.239 255 255 255 0
-27.7722 19.2769 -33.1611 0.200 -0.854 0.480 231 225 218 0
-27.5762 19.2036 -33.1893 0.069 -0.963 0.262 232 226 218 0
-30.1927 42.2388 -40.4369 0.279 -0.665 0.693 225 218 212 0
-30.0159 42.5116 -40.5795 0.302 -0.558 0.773 224 216 210 0
-29.7659 42.3679 -40.5981 -0.118 -0.993 0.012 223 214 209 0
-29.6662 43.0990 -40.8781 -0.070 -0.852 0.519 222 213 208 0
-29.3578 42.6143 -40.7948 0.126 -0.842 0.525 222 211 206 0
-28.3328 39.1501 -39.8775 0.432 -0.895 -0.111 218 207 201 0
-28.2606 40.0463 -40.2070 -0.482 -0.354 0.801 217 203 200 0
-28.0882 40.3446 -40.3572 0.483 -0.839 -0.250 217 202 199 0
-27.8276 40.1003 -40.3440 0.479 -0.874 0.081 218 200 198 0
-27.7111 40.7594 -40.6037 0.438 -0.847 0.302 218 197 194 0
-27.4894 40.7632 -40.6655 0.456 -0.830 0.320 218 190 189 0
-24.9613 35.4795 -39.5300 -0.887 -0.462 0.006 153 91 102 0
-24.6313 34.6422 -39.3308 -0.892 -0.451 0.026 147 83 94 0
-24.3450 34.0989 -39.2212 -0.876 -0.480 -0.051 143 77 89 0
-23.6668 30.6640 -38.2192 -0.662 -0.750 -0.005 140 74 86 0
-21.5075 27.9719 -37.8787 -0.451 -0.892 0.042 127 53 68 0
-21.2257 27.2709 -37.7134 -0.678 -0.735 -0.003 124 51 66 0
-20.9043 26.2070 -37.4335 0.291 -0.802 0.521 123 51 65 0
-20.0717 25.7653 -37.5083 -0.600 -0.749 -0.280 127 49 61 0
-19.0335 25.1544 -37.5809 0.449 -0.878 0.166 125 39 56 0
-18.8346 25.1094 -37.6197 0.400 -0.916 0.045 125 38 55 0
-18.6766 25.4910 -37.7948 0.358 -0.934 -0.007 125 37 54 0
-18.5774 26.5161 -38.1762 0.184 -0.883 -0.432 124 37 54 0
-18.1908 24.4518 -37.5683 0.012 -0.994 0.105 124 38 54 0
-15.6504 24.0847 -38.1356 -0.155 -0.985 -0.081 117 29 45 0
-15.4534 24.0251 -38.1688 -0.153 -0.985 -0.079 117 29 45 0
-14.0027 25.8730 -39.2041 -0.605 -0.604 -0.519 110 28 42 0
-9.6708 26.1736 -40.4918 -0.416 -0.907 0.058 106 24 36 0
-4.0407 23.3621 -41.0585 -0.167 -0.855 -0.490 79 19 31 0
-3.3618 25.3110 -41.9177 0.644 -0.569 0.511 72 21 28 0
-0.4375 24.7899 -42.5367 0.319 -0.356 0.878 59 24 27 0
0.6311 28.0546 -43.9573 -0.120 -0.919 -0.375 59 28 27 0
1.2308 32.5702 -45.6820 -0.041 -0.902 -0.430 59 29 27 0
1.5116 33.3391 -46.0246 -0.269 -0.936 -0.228 60 31 29 0
1.6876 32.9321 -45.9320 -0.280 -0.945 -0.168 63 35 29 0
2.2839 34.7259 -46.7150 -0.505 -0.704 -0.498 65 38 28 0
3.0090 35.4877 -47.1764 -0.077 -0.878 -0.472 71 49 31 0
5.4736 37.8828 -48.6779 -0.391 -0.887 -0.247 130 108 31 0
10.5015 44.4889 -52.3354 -0.281 -0.954 0.109 212 205 63 0
11.2852 43.5025 -52.2086 0.311 -0.950 0.009 219 214 71 0
12.4718 46.3987 -53.5340 0.587 -0.803 -0.101 221 214 74 0
12.7647 46.7135 -53.7229 0.614 -0.785 -0.075 221 214 76 0
13.2067 43.7765 -52.8284 0.560 -0.761 0.328 222 220 78 0
13.4397 43.7666 -52.8887 0.378 -0.926 0.022 222 220 80 0
13.6509 43.6352 -52.9009 -0.010 -0.994 -0.112 223 220 83 0
13.8864 43.6403 -52.9671 -0.010 -0.994 -0.112 224 220 86 0
21.6068 44.4206 -55.3466 -0.092 -0.988 0.123 153 140 71 0
22.8893 48.6778 -57.1687 -0.266 -0.963 -0.049 152 139 77 0
24.1307 48.7274 -57.5251 -0.398 -0.795 -0.457 186 174 148 0
24.6210 48.7208 -57.6568 -0.126 -0.458 0.880 188 176 159 0
28.8182 15.3764 -47.2777 0.873 -0.250 0.419 175 162 155 0
29.6216 16.9407 -48.0379 0.889 -0.270 0.369 174 162 155 0
40.6727 38.4912 -58.5073 0.892 -0.449 -0.059 174 161 150 0
-67.4450 41.7237 -30.3295 -0.307 -0.921 -0.239 255 255 255 0
-66.2069 41.4073 -30.5579 -0.301 -0.918 -0.260 233 224 218 0
-30.5031 42.3266 -40.6381 0.237 -0.612 0.754 226 221 215 0
-30.0169 42.1184 -40.6985 0.289 -0.546 0.787 224 217 211 0
-29.8910 42.6859 -40.9303 -0.314 -0.947 0.061 223 214 208 0
-29.6629 42.6711 -40.9875 -0.250 -0.960 0.123 222 213 207 0
-29.4054 42.4837 -40.9928 0.126 -0.842 0.525 222 212 206 0
-28.4720 39.5808 -40.2384 0.479 -0.876 0.057 218 207 201 0
-28.2034 39.2853 -40.2090 0.556 -0.822 0.125 217 204 200 0
-27.8434 39.7762 -40.4782 0.374 -0.836 -0.402 217 201 198 0
-27.5105 40.4648 -40.8086 0.449 -0.853 0.266 217 194 192 0
-24.9800 35.1604 -39.6556 -0.942 -0.336 0.008 154 93 104 0
-24.7313 34.9014 -39.6336 -0.885 -0.464 -0.023 149 86 97 0
-24.3746 33.8567 -39.3677 -0.808 -0.558 -0.191 146 81 92 0
-24.1434 33.7015 -39.3770 -0.820 -0.542 -0.184 142 78 89 0
-20.1456 25.9201 -37.7636 -0.600 -0.749 -0.280 125 48 61 0
-19.1063 25.3206 -37.8393 0.278 -0.853 0.441 124 40 56 0
-18.6414 26.5942 -38.4093 0.216 -0.563 0.798 122 37 53 0
-15.8888 23.9599 -38.2456 0.027 -0.980 0.195 117 29 45 0
-15.5090 24.0506 -38.3810 -0.153 -0.985 -0.079 115 27 43 0
-11.7559 21.5215 -38.5274 0.355 -0.933 -0.065 110 23 39 0
-0.1236 26.8395 -43.5568 0.729 -0.416 0.544 58 25 28 0
1.9360 33.8501 -46.5580 0.477 -0.875 -0.079 65 38 29 0
2.2504 34.9031 -47.0102 -0.307 -0.944 0.125 65 39 28 0
3.0198 36.0951 -47.6351 0.361 -0.855 -0.373 71 50 31 0
3.3437 35.0051 -47.3446 0.152 -0.861 -0.485 78 61 35 0
6.0939 41.5734 -50.3807 -0.238 -0.867 -0.437 143 123 35 0
8.3574 39.7135 -50.3526 0.167 -0.984 -0.067 194 184 51 0
12.6201 46.1586 -53.7595 0.752 -0.614 0.238 221 214 74 0
15.6416 46.9250 -54.8520 0.018 -0.670 -0.742 218 212 76 0
18.7014 45.4513 -55.1759 -0.558 -0.826 0.079 188 178 57 0
21.0643 44.3278 -55.4311 0.171 -0.929 0.329 158 145 64 0
21.3721 44.6199 -55.6168 -0.055 -0.959 0.277 154 141 66 0
21.5390 44.3280 -55.5610 -0.084 -0.987 0.135 153 140 71 0
24.3444 47.8283 -57.5453 0.198 -0.792 0.578 188 176 158 0
24.6139 47.9243 -57.6523 0.010 -0.579 0.815 188 177 159 0
25.4864 43.9854 -56.5209 0.052 -0.998 -0.042 188 176 162 0
41.8853 40.3584 -59.7425 0.874 -0.481 -0.070 170 161 147 0
43.2179 42.9592 -61.0113 0.884 -0.468 0.000 167 159 145 0
44.1599 42.3776 -61.0666 0.856 -0.465 0.225 166 157 142 0
46.0905 40.3489 -60.8888 0.286 -0.953 -0.101 255 255 255 0
-67.6061 41.8750 -30.5895 -0.302 -0.926 -0.226 255 255 255 0
-67.2677 41.6254 -30.5947 -0.287 -0.927 -0.242 255 255 255 0
-67.0740 41.6747 -30.6649 -0.159 -0.924 -0.348 135 135 135 0
-66.8478 41.6568 -30.7205 -0.159 -0.924 -0.348 68 66 64 0
-66.5868 41.5657 -30.7600 -0.183 -0.922 -0.342 229 222 217 0
-66.3464 41.5176 -30.8089 -0.263 -0.916 -0.302 233 224 217 0
-66.1629 41.5890 -30.8841 -0.167 -0.929 -0.330 233 226 219 0
-66.1135 41.9449 -31.0221 -0.172 -0.937 -0.303 233 226 219 0
-27.9186 39.8230 -40.7248 0.395 -0.826 -0.402 217 203 199 0
-27.7423 40.1008 -40.8702 0.398 -0.911 0.105 217 199 195 0
-27.5606 40.3517 -41.0077 0.385 -0.803 0.455 216 196 192 0
-27.3363 40.3351 -41.0632 0.645 -0.759 0.090 214 189 187 0
-24.8122 35.0226 -39.8946 -0.867 -0.481 -0.129 150 87 99 0
-24.4697 34.0864 -39.6607 -0.806 -0.556 -0.201 146 83 94 0
-24.2080 33.7132 -39.6017 -0.803 -0.563 -0.195 143 80 91 0
-20.5763 27.5145 -38.4260 -0.496 -0.750 -0.437 121 48 60 0
-20.2149 26.0313 -38.0058 -0.203 -0.872 -0.446 124 48 60 0
-19.9992 25.8499 -38.0014 -0.203 -0.858 -0.472 122 47 59 0
-15.5641 24.0677 -38.5906 -0.165 -0.983 -0.084 116 29 45 0
-5.2778 24.0242 -41.3884 0.423 -0.826 0.372 87 21 31 0
-5.0909 23.7881 -41.3569 0.436 -0.775 0.457 86 22 31 0
-4.8941 23.8521 -41.4331 0.438 -0.777 0.452 82 20 31 0
1.9081 34.0898 -46.8754 0.930 -0.330 0.163 65 38 30 0
2.1738 34.6264 -47.1358 0.841 -0.407 0.356 66 41 30 0
6.1095 48.1343 -52.9384 -0.180 -0.967 0.183 110 91 29 0
10.6460 44.5564 -52.9272 0.318 -0.928 0.196 215 210 68 0
11.4092 43.4409 -52.7456 0.357 -0.836 -0.417 219 213 73 0
12.4266 45.3105 -53.6780 0.436 -0.898 0.062 221 213 72 0
12.9478 44.2050 -53.4337 0.555 -0.730 -0.398 220 216 74 0
19.5890 42.2516 -54.5664 -0.263 -0.644 0.718 165 154 57 0
20.9613 47.1349 -56.6503 -0.286 -0.322 0.902 164 151 60 0
21.3384 44.6691 -55.8907 -0.014 -0.971 0.237 153 141 68 0
22.5387 48.6313 -57.6052 -0.601 -0.743 0.294 152 139 72 0
22.7716 48.5786 -57.6505 -0.354 -0.924 -0.142 151 139 77 0
30.2215 23.1442 -50.7884 0.372 -0.887 -0.272 178 166 153 0
43.1361 42.8449 -61.2133 0.874 -0.481 -0.070 168 159 145 0
44.2032 42.5536 -61.4032 0.855 -0.474 0.211 168 156 142 0
45.9342 40.5888 -61.1892 0.228 -0.967 -0.115 254 255 255 0
-63.6787 33.6083 -29.0056 0.147 -0.960 -0.238 255 255 255 0
-67.4207 41.7605 -30.8515 -0.352 -0.903 -0.246 255 255 255 0
-67.2213 41.7987 -30.9195 -0.158 -0.926 -0.341 135 136 136 0
-66.9932 41.7774 -30.9745 -0.159 -0.924 -0.348 68 66 64 0
-66.7302 41.6830 -31.0132 -0.165 -0.930 -0.329 229 223 216 0
-66.4931 41.6425 -31.0638 -0.176 -0.927 -0.331 233 225 217 0
-66.3168 41.7297 -31.1427 -0.176 -0.931 -0.321 233 226 218 0
-66.2449 42.0381 -31.2710 -0.144 -0.934 -0.326 233 226 219 0
-29.4282 43.1252 -41.7254 0.289 -0.573 0.767 222 211 207 0
-27.7500 39.7252 -40.9876 0.495 -0.858 0.136 216 199 192 0
-27.5739 40.0068 -41.1349 0.345 -0.858 0.381 215 195 190 0
-27.3861 40.2204 -41.2615 0.647 -0.757 0.091 215 192 188 0
-27.1750 40.2881 -41.3431 0.663 -0.747 0.051 214 187 184 0
-24.3135 34.0219 -39.9201 -0.817 -0.540 -0.202 144 82 93 0
-22.4194 30.6623 -39.2556 -0.664 -0.738 -0.125 126 60 70 0
-20.0675 25.9527 -38.2412 0.397 -0.846 -0.356 122 47 58 0
-16.1472 23.3711 -38.4049 0.087 -0.981 0.173 115 31 46 0
-15.9623 23.4699 -38.4903 0.500 -0.863 0.074 114 30 45 0
-13.4103 22.3752 -38.8031 -0.380 -0.915 0.133 109 27 41 0
-11.8886 22.4899 -39.2597 0.478 -0.874 -0.085 109 25 38 0
-10.7757 24.1187 -40.1375 -0.271 -0.940 -0.207 113 25 42 0
-10.5793 24.0085 -40.1524 -0.287 -0.942 -0.172 110 24 40 0
-6.7005 23.5121 -41.0389 0.458 -0.845 -0.276 93 22 36 0
-4.6950 25.2657 -42.2048 0.695 -0.528 -0.489 79 19 31 0
-4.4977 25.2634 -42.2579 0.493 -0.665 -0.561 80 20 32 0
-0.5018 25.7795 -43.5327 0.612 -0.763 -0.207 59 26 27 0
-0.2189 26.8409 -43.9837 0.752 -0.445 0.485 59 28 27 0
6.0501 48.0955 -53.1806 -0.195 -0.959 0.205 112 94 30 0
6.0394 45.9303 -52.4155 -0.404 -0.902 -0.151 125 105 33 0
6.0479 42.0504 -51.0521 -0.378 -0.863 -0.334 145 126 35 0
10.5956 44.5597 -53.1794 0.198 -0.974 0.106 218 212 74 0
11.3996 43.6899 -53.0932 0.349 -0.838 -0.420 221 215 76 0
13.3721 44.2161 -53.8181 0.039 -0.916 -0.400 221 216 74 0
13.5716 44.0123 -53.8009 -0.120 -0.992 0.040 222 216 75 0
13.7764 43.8418 -53.7969 0.135 -0.991 0.001 222 217 76 0
20.8463 46.8429 -56.7874 -0.284 -0.317 0.905 162 151 62 0
21.3209 44.7856 -56.1930 -0.009 -0.981 0.192 152 140 70 0
36.6300 30.5594 -55.3733 0.840 -0.538 -0.066 172 160 152 0
44.3260 42.9138 -61.8275 0.848 -0.499 0.177 168 156 142 0
42.0093 34.4552 -58.2162 -0.694 -0.646 -0.318 162 149 137 0
-63.7799 33.6476 -29.2266 0.147 -0.960 -0.238 255 255 255 0
-67.5411 41.8278 -31.0941 -0.273 -0.930 -0.246 255 255 255 0
-67.3663 41.9171 -31.1736 -0.158 -0.926 -0.341 135 136 136 0
-67.1393 41.8988 -31.2293 -0.158 -0.926 -0.341 68 66 64 0
-66.8711 41.7944 -31.2657 -0.233 -0.931 -0.281 229 222 216 0
-66.6553 41.7991 -31.3264 -0.153 -0.929 -0.338 233 225 217 0
-66.4858 41.9014 -31.4090 -0.176 -0.927 -0.330 233 226 219 0
-64.8487 39.3585 -30.9565 0.215 -0.828 -0.517 234 228 221 0
-30.0529 41.1371 -41.1086 -0.032 -0.732 0.680 226 218 214 0
-27.8203 39.7416 -41.2254 0.477 -0.873 0.104 215 202 194 0
-27.5042 39.1412 -41.0993 0.660 -0.660 0.360 212 197 189 0
-27.3898 39.8118 -41.3681 0.646 -0.748 0.150 213 195 188 0
-21.7538 29.7260 -39.3388 -0.666 -0.576 -0.474 124 55 67 0
-19.4959 27.4947 -39.1665 -0.039 -0.876 0.482 125 46 59 0
-19.2722 27.2487 -39.1406 0.193 -0.950 0.245 126 45 59 0
-18.5532 23.8928 -38.1490 -0.243 -0.605 0.758 129 46 61 0
-17.5772 23.7474 -38.3646 -0.714 -0.636 0.291 128 45 60 0
-17.1864 23.6782 -38.4470 0.125 -0.760 0.638 116 34 48 0
-17.0503 24.3754 -38.7311 -0.362 -0.925 -0.118 116 34 48 0
-16.1984 23.3329 -38.5951 0.087 -0.981 0.173 116 32 47 0
-15.4089 23.0088 -38.6964 -0.165 -0.787 0.595 117 35 50 0
-11.9967 24.2366 -40.0650 -0.248 -0.910 -0.331 109 25 39 0
-11.2130 23.9959 -40.1942 -0.048 -0.824 0.564 113 28 41 0
-5.5558 24.5315 -41.9320 0.481 -0.771 -0.417 89 23 36 0
-4.5262 25.7945 -42.6611 0.239 -0.811 -0.534 78 20 32 0
-0.5142 26.2367 -43.9156 0.672 -0.729 0.130 59 28 27 0
-0.2902 26.5418 -44.0849 0.732 -0.594 0.334 60 30 27 0
0.8635 30.6181 -45.8442 0.818 -0.410 -0.403 67 39 35 0
1.4936 32.9898 -46.8565 0.810 -0.406 -0.423 64 38 32 0
2.4422 36.2275 -48.2627 0.888 -0.381 0.257 72 49 35 0
2.7006 36.6283 -48.4753 0.821 -0.511 0.256 75 56 37 0
4.4187 42.4048 -50.9911 0.947 -0.299 -0.114 52 58 27 0
5.6996 47.6213 -53.1890 0.378 -0.741 0.555 97 87 37 0
5.9701 47.8774 -53.3537 0.299 -0.727 0.617 113 96 33 0
6.3308 48.8998 -53.8145 0.233 -0.760 0.607 125 105 33 0
6.4080 45.4829 -52.6256 -0.131 -0.938 0.322 145 126 35 0
7.5766 43.5334 -52.2550 0.355 -0.807 -0.472 181 168 51 0
10.5773 44.7716 -53.5146 0.170 -0.982 0.082 218 213 77 0
10.7535 44.3837 -53.4255 0.111 -0.994 0.019 220 215 79 0
11.2031 44.2429 -53.4987 0.022 -0.964 -0.264 220 214 76 0
12.9514 44.7986 -54.1739 -0.396 -0.878 -0.269 219 216 71 0
13.1516 44.5872 -54.1538 -0.172 -0.983 -0.065 219 217 72 0
13.3061 44.1224 -54.0315 -0.091 -0.991 0.100 219 216 73 0
13.7541 43.9891 -54.1069 0.102 -0.993 0.061 221 218 75 0
17.7581 50.9606 -57.6715 0.613 -0.569 -0.547 207 199 61 0
20.7198 46.5004 -56.9025 -0.293 -0.316 0.902 161 150 63 0
21.0291 44.7540 -56.3687 0.092 -0.847 0.524 151 142 68 0
21.2581 44.7143 -56.4173 -0.009 -0.982 0.189 151 139 70 0
29.4709 42.6622 -57.9381 0.170 -0.931 0.324 185 177 165 0
23.8104 22.5767 -49.2762 0.423 -0.624 0.657 184 174 162 0
42.9773 43.1950 -61.8230 0.410 -0.643 0.647 171 160 149 0
43.7745 43.3803 -62.1068 0.447 -0.609 0.655 167 157 144 0
41.8963 34.7720 -58.5443 -0.702 -0.644 -0.306 163 151 140 0
42.0327 34.5758 -58.5121 -0.694 -0.646 -0.318 164 151 140 0
-67.7078 41.9899 -31.3584 -0.249 -0.933 -0.260 255 255 255 0
-67.5125 42.0376 -31.4289 -0.174 -0.931 -0.322 135 135 135 0
-67.2824 42.0136 -31.4833 -0.174 -0.931 -0.322 67 66 64 0
-67.0123 41.9062 -31.5190 -0.233 -0.931 -0.281 227 220 215 0
-66.7725 41.8612 -31.5686 -0.233 -0.931 -0.281 231 224 216 0
-64.1387 36.7909 -30.4833 0.231 -0.797 0.558 232 225 219 0
-27.2529 17.9106 -33.8550 -0.009 -0.711 0.704 231 226 222 0
-30.4588 40.5322 -41.0363 0.161 -0.468 0.869 227 219 215 0
-29.8027 40.5876 -41.2357 -0.421 -0.905 0.055 226 217 213 0
-27.6690 34.4551 -39.6351 -0.069 -0.535 0.842 218 207 203 0
-26.1137 39.6981 -41.9287 0.560 -0.784 -0.269 159 105 111 0
-24.5746 34.9897 -40.6726 -0.892 -0.411 -0.187 147 86 97 0
-24.2275 34.0087 -40.4182 -0.836 -0.526 -0.157 144 83 94 0
-21.8724 30.2138 -39.7110 -0.432 -0.810 -0.397 125 56 68 0
-21.4212 29.8443 -39.7029 -0.456 -0.804 -0.381 125 54 68 0
-20.8552 28.4362 -39.3562 0.098 -0.452 0.887 124 50 64 0
-19.7232 27.2087 -39.2288 -0.014 -0.770 0.638 126 47 60 0
-19.5519 27.4776 -39.3715 -0.042 -0.871 0.489 127 47 60 0
-19.3534 27.4854 -39.4286 -0.048 -0.876 0.479 129 46 60 0
-19.1327 27.2679 -39.4115 0.319 -0.850 0.420 130 45 61 0
-18.5972 23.7742 -38.3134 -0.243 -0.611 0.754 128 43 58 0
-18.5415 25.2221 -38.8445 -0.195 -0.981 -0.021 127 42 57 0
-16.0696 23.4599 -38.8935 0.515 -0.854 0.075 115 33 47 0
-15.7110 23.8418 -39.1277 0.218 -0.613 0.759 115 34 48 0
-15.5149 23.7970 -39.1654 0.207 -0.632 0.747 115 34 48 0
-15.3321 23.9563 -39.2722 -0.025 -0.875 0.484 113 33 47 0
-14.9650 24.2809 -39.4883 -0.060 -0.940 0.335 110 31 42 0
-14.7718 24.2948 -39.5462 -0.060 -0.955 0.289 109 31 42 0
-14.3629 23.9224 -39.5254 -0.278 -0.950 0.142 110 29 41 0
-12.0619 24.6246 -40.4055 -0.312 -0.902 -0.297 109 25 38 0
-11.2621 23.8847 -40.3609 -0.048 -0.824 0.564 110 26 39 0
-11.0780 24.3070 -40.5617 -0.051 -0.717 0.695 110 28 40 0
-8.3480 24.3684 -41.3310 -0.328 -0.903 0.277 95 22 34 0
-4.9542 26.3334 -42.9601 0.556 -0.711 -0.430 78 19 29 0
-4.7723 25.8490 -42.8373 0.188 -0.840 -0.509 77 19 29 0
-3.8438 24.4208 -42.5827 0.924 -0.378 0.064 73 22 29 0
0.8369 30.8807 -46.1654 0.818 -0.410 -0.403 69 42 37 0
1.7741 34.2745 -47.6310 0.764 -0.452 -0.460 69 45 35 0
2.0769 35.2092 -48.0469 0.764 -0.452 -0.460 73 48 36 0
2.6717 36.8580 -48.7971 0.586 -0.704 -0.400 75 56 37 0
3.2688 38.4036 -49.5112 0.750 -0.464 -0.471 68 60 36 0
5.8952 47.7027 -53.5430 0.672 -0.488 0.558 112 97 38 0
6.0837 47.2443 -53.4313 0.257 -0.592 0.764 126 106 37 0
6.3248 47.2477 -53.4985 0.341 -0.681 0.648 137 119 39 0
6.3987 45.8530 -53.0219 -0.036 -0.935 0.352 146 128 38 0
6.2364 42.5580 -51.8036 -0.444 -0.551 0.707 158 139 43 0
10.7047 44.3971 -53.6820 0.115 -0.993 0.028 220 216 80 0
10.9535 44.4768 -53.7785 0.153 -0.988 -0.004 219 215 78 0
13.1118 44.6443 -54.4291 -0.221 -0.973 -0.066 217 217 71 0
13.2618 44.1512 -54.2945 -0.076 -0.994 0.081 218 216 73 0
13.4030 43.6194 -54.1436 -0.061 -0.972 0.228 219 216 75 0
17.4041 50.6912 -57.7583 0.562 -0.540 -0.627 206 199 61 0
18.6481 42.8334 -55.2996 -0.576 -0.603 0.552 173 165 57 0
20.6458 45.3508 -56.7432 -0.199 -0.338 0.920 157 146 62 0
20.9520 44.6226 -56.5676 0.092 -0.847 0.524 150 141 67 0
21.2068 44.6908 -56.6617 0.033 -0.930 0.366 150 137 70 0
22.3348 48.3705 -58.2814 -0.470 -0.848 -0.244 149 137 75 0
28.8172 42.2031 -57.8589 0.304 -0.842 0.446 183 174 161 0
42.0485 34.6791 -58.8006 -0.700 -0.645 -0.307 166 152 142 0
-63.9803 33.7214 -29.6687 0.138 -0.960 -0.242 255 255 255 0
-67.8859 42.1747 -31.6286 -0.249 -0.934 -0.255 255 255 255 0
-67.6549 42.1497 -31.6829 -0.174 -0.935 -0.310 135 136 136 0
-67.4258 42.1284 -31.7380 -0.174 -0.931 -0.322 66 66 64 0
-67.1540 42.0182 -31.7729 -0.233 -0.931 -0.281 226 221 215 0
-66.9442 42.0367 -31.8370 -0.196 -0.930 -0.311 230 224 216 0
-66.6872 41.9564 -31.8786 -0.283 -0.870 -0.403 229 224 218 0
-30.6648 40.0671 -41.0665 0.210 -0.463 0.861 229 220 218 0
-30.2889 40.4355 -41.3014 -0.417 -0.909 0.018 228 218 215 0
-29.3172 39.9504 -41.3937 -0.632 -0.773 0.051 223 212 211 0
-28.0351 34.9861 -39.9657 -0.484 -0.762 0.430 220 209 207 0
-27.5580 34.6664 -39.9818 -0.423 -0.707 0.567 217 206 202 0
-21.6404 29.4741 -39.7416 -0.649 -0.761 0.026 126 55 70 0
-19.8042 27.4319 -39.5125 0.344 -0.933 0.110 129 46 61 0
-19.6404 27.7776 -39.6813 0.121 -0.988 0.095 129 46 61 0
-19.3873 27.2496 -39.5614 0.392 -0.871 0.295 129 45 60 0
-19.2209 27.5795 -39.7252 0.522 -0.834 -0.177 130 42 59 0
-18.6492 23.7381 -38.5051 -0.323 -0.675 0.663 128 40 57 0
-15.0234 24.3533 -39.7185 0.365 -0.776 0.514 113 33 46 0
-14.8282 24.3370 -39.7662 0.381 -0.783 0.492 111 31 44 0
-14.6317 24.2993 -39.8064 0.370 -0.796 0.479 110 30 43 0
-14.4266 24.1047 -39.7929 -0.252 -0.952 0.175 109 27 41 0
-14.2301 24.0575 -39.8298 0.301 -0.921 -0.247 109 27 42 0
-12.1209 24.8159 -40.6792 -0.276 -0.919 -0.281 108 24 37 0
-11.9001 24.0176 -40.4535 -0.141 -0.878 -0.458 108 24 37 0
-8.3988 24.2970 -41.5125 -0.147 -0.987 -0.063 96 23 34 0
-7.8183 23.5839 -41.4159 -0.637 -0.771 -0.008 96 22 35 0
-3.6427 25.5450 -43.2622 -0.762 -0.626 0.166 71 21 29 0
0.8094 31.1365 -46.4853 0.817 -0.417 -0.398 64 40 34 0
1.4552 33.6819 -47.5744 0.762 -0.463 -0.453 66 41 34 0
6.0009 47.0008 -53.5924 0.257 -0.592 0.764 123 105 40 0
6.1874 46.5413 -53.4788 0.305 -0.754 0.582 135 117 41 0
6.3488 45.8853 -53.2879 -0.096 -0.907 0.409 145 127 41 0
6.8497 42.3144 -52.1454 -0.049 -0.750 0.660 174 157 50 0
10.4895 44.8659 -54.0565 0.209 -0.978 -0.004 217 213 77 0
10.6701 44.5023 -53.9757 0.110 -0.994 0.003 219 214 78 0
16.7381 50.0926 -57.6408 0.615 -0.457 -0.643 209 201 65 0
20.4385 45.6911 -57.0769 -0.180 -0.411 0.894 161 151 61 0
20.5311 45.0585 -56.8755 -0.199 -0.338 0.920 157 146 61 0
24.8982 30.9530 -53.0164 0.640 -0.711 -0.291 187 175 166 0
28.8200 42.3446 -58.1729 0.430 -0.834 0.347 184 174 163 0
22.8794 18.6455 -48.0529 0.523 -0.732 0.437 185 174 161 0
22.9694 18.3349 -47.9662 0.345 -0.887 0.307 185 174 160 0
28.4691 34.0378 -55.0998 0.939 -0.269 0.215 182 172 160 0
36.6059 44.2630 -60.9926 0.483 -0.824 0.296 180 167 159 0
36.8959 44.3978 -61.1203 0.882 -0.455 -0.126 180 167 159 0
32.3988 27.0482 -53.6711 -0.298 -0.552 0.779 179 166 157 0
37.5479 32.4932 -57.0326 -0.547 -0.268 0.793 168 158 148 0
41.7729 35.1382 -59.1375 -0.700 -0.645 -0.307 166 152 142 0
42.0702 34.7962 -59.0963 -0.700 -0.645 -0.307 167 152 142 0
46.0115 40.5138 -62.2247 0.283 -0.953 -0.104 255 255 255 0
-68.3006 42.3946 -31.8477 -0.291 -0.920 -0.262 255 255 255 0
-68.0451 42.3202 -31.8908 -0.290 -0.923 -0.254 255 255 255 0
-67.8022 42.2713 -31.9397 -0.176 -0.933 -0.315 135 136 136 0
-67.5682 42.2406 -31.9928 -0.185 -0.926 -0.328 67 67 64 0
-67.3217 42.1837 -32.0398 -0.183 -0.928 -0.323 225 221 215 0
-67.0930 42.1636 -32.0952 -0.167 -0.933 -0.320 228 224 215 0
-66.8709 42.1572 -32.1538 -0.277 -0.875 -0.398 228 224 217 0
-29.9070 40.3944 -41.6446 -0.451 -0.893 0.005 226 216 216 0
-29.6712 42.9024 -42.6133 0.248 -0.627 0.739 222 211 210 0
-28.3103 40.1396 -41.9901 0.270 -0.932 0.240 216 205 201 0
-28.1106 40.2754 -42.0938 0.261 -0.956 0.132 215 204 198 0
-21.2209 28.8401 -39.8588 -0.244 -0.340 0.909 129 55 72 0
-21.1981 30.4079 -40.4303 -0.824 -0.545 0.153 129 53 70 0
-17.6509 27.2376 -40.2591 0.534 -0.659 -0.529 116 34 50 0
-15.4338 23.8614 -39.6494 -0.145 -0.933 0.328 112 34 47 0
-14.6754 24.1252 -39.9523 0.243 -0.941 0.236 111 30 45 0
-8.8405 24.3987 -41.6493 0.155 -0.965 -0.209 99 23 35 0
-5.0972 25.0581 -42.9125 0.602 -0.498 0.624 78 21 31 0
-3.7850 27.8827 -44.2903 -0.674 -0.355 0.648 70 22 30 0
-3.4240 26.9614 -44.0570 -0.565 -0.815 0.124 68 20 29 0
-3.2227 26.9612 -44.1121 -0.052 -0.998 0.030 68 21 31 0
-3.0659 26.1150 -43.8500 -0.321 -0.929 0.183 68 21 31 0
-2.2839 25.8277 -43.9607 -0.500 -0.574 0.649 63 20 30 0
2.3523 36.9017 -49.2229 0.696 -0.462 -0.550 76 54 41 0
2.6165 37.3515 -49.4575 0.458 -0.643 -0.614 75 57 42 0
5.1871 44.4982 -52.7381 -0.128 -0.843 0.522 81 83 41 0
5.4034 44.3267 -52.7355 -0.236 -0.845 0.480 107 97 46 0
6.1458 46.6492 -53.7761 0.385 -0.796 0.466 135 119 45 0
6.2879 45.8258 -53.5182 -0.076 -0.910 0.408 145 129 45 0
7.3137 40.9529 -52.0426 0.238 -0.804 0.545 186 175 52 0
14.5421 46.5126 -56.0271 0.160 -0.898 -0.411 219 212 82 0
26.6827 44.0757 -58.4745 -0.244 -0.846 -0.474 187 176 166 0
31.9823 26.5834 -53.6204 -0.227 -0.405 0.886 177 167 157 0
31.3520 21.8307 -51.7343 -0.134 -0.770 0.623 176 163 154 0
31.4169 21.4952 -51.6312 -0.070 -0.907 0.416 175 162 154 0
37.8055 27.5945 -55.5801 -0.284 -0.938 0.199 168 154 145 0
41.8329 35.3446 -59.4774 -0.737 -0.620 -0.269 167 153 144 0
42.3984 34.5958 -59.3624 -0.614 -0.719 -0.324 50 51 50 0
-68.4461 42.5105 -32.1039 -0.292 -0.925 -0.245 255 255 255 0
-68.1715 42.3978 -32.1383 -0.291 -0.922 -0.255 255 255 255 0
-67.9457 42.3845 -32.1954 -0.176 -0.933 -0.315 135 136 135 0
-67.7105 42.3521 -32.2480 -0.196 -0.930 -0.310 66 66 63 0
-67.4628 42.2934 -32.2947 -0.179 -0.930 -0.322 225 220 214 0
-67.2355 42.2770 -32.3510 -0.167 -0.933 -0.320 228 223 214 0
-67.0374 42.3213 -32.4214 -0.268 -0.892 -0.365 228 224 217 0
-28.2063 40.4438 -42.3821 -0.121 -0.975 0.187 215 203 199 0
-24.6956 37.5802 -42.3058 -0.894 -0.389 -0.224 142 82 94 0
-20.8246 28.3806 -40.0306 -0.368 -0.739 -0.564 131 54 69 0
-19.0917 27.1223 -40.0492 0.115 -0.993 -0.021 127 42 58 0
-14.6012 25.2897 -40.6152 -0.436 -0.877 0.201 113 33 46 0
-14.4052 25.2957 -40.6711 -0.459 -0.869 0.185 112 31 45 0
-14.1977 25.0861 -40.6520 -0.457 -0.865 0.208 111 29 44 0
-13.9922 24.9007 -40.6411 -0.441 -0.874 0.204 111 28 43 0
-13.7951 24.8724 -40.6849 -0.456 -0.857 0.239 111 30 44 0
-8.8914 24.3497 -41.8392 0.194 -0.980 0.031 97 21 33 0
-8.6958 24.3863 -41.9060 0.194 -0.980 0.031 96 22 34 0
-8.3038 24.5977 -42.0901 0.351 -0.819 -0.454 99 26 37 0
-7.1361 23.9420 -42.1724 -0.113 -0.812 -0.572 87 21 33 0
-6.1354 24.9897 -42.8265 0.280 -0.941 -0.190 85 23 35 0
-5.9342 25.1422 -42.9369 0.435 -0.892 -0.124 84 22 35 0
-5.5658 24.2375 -42.7098 0.091 -0.846 0.525 83 23 35 0
-5.3737 24.1150 -42.7181 0.195 -0.776 0.599 82 23 35 0
-5.1823 23.9842 -42.7231 0.125 -0.786 0.605 79 22 34 0
-4.1721 29.5770 -45.0281 -0.615 -0.769 -0.174 74 23 32 0
-3.1208 26.0001 -44.0190 -0.526 -0.655 0.542 67 21 30 0
-2.7404 25.6621 -44.0007 -0.565 -0.613 0.553 65 21 29 0
-2.0863 29.9519 -45.7356 0.401 -0.785 0.473 64 23 30 0
2.5892 37.6056 -49.7924 0.475 -0.681 -0.557 72 62 45 0
5.3645 46.5853 -53.8092 -0.104 -0.995 -0.000 77 78 38 0
5.5920 46.4767 -53.8322 -0.151 -0.988 -0.039 106 96 47 0
5.8086 46.2753 -53.8185 -0.091 -0.996 -0.019 123 108 44 0
6.2259 45.7575 -53.7451 -0.115 -0.911 0.395 144 129 46 0
6.9259 43.7435 -53.2066 -0.506 -0.678 0.533 173 159 50 0
6.8948 41.6649 -52.4443 0.103 -0.752 0.651 177 165 50 0
7.0191 40.8441 -52.1807 0.187 -0.765 0.617 183 172 52 0
7.2489 40.8482 -52.2452 0.187 -0.765 0.617 187 177 54 0
13.4401 47.3970 -56.3167 0.069 -0.997 -0.032 215 215 68 0
21.2091 44.2781 -57.3147 -0.108 -0.878 0.467 148 139 79 0
21.4688 44.3669 -57.4181 0.020 -0.918 0.396 146 138 85 0
20.7976 20.8433 -48.7038 -0.643 -0.571 0.509 188 176 167 0
31.5689 43.7888 -59.9764 -0.113 -0.913 -0.393 184 173 163 0
29.0224 28.2510 -53.6441 0.383 -0.702 0.600 181 171 159 0
24.3793 12.8745 -46.7957 0.135 -0.749 0.648 179 169 160 0
31.7657 25.0302 -53.2280 -0.471 -0.487 0.736 178 166 158 0
30.4074 19.9977 -51.0308 -0.098 -0.995 -0.023 177 166 156 0
24.3736 2.5367 -43.0454 0.911 -0.408 -0.062 176 163 154 0
41.7072 39.3745 -61.1540 0.257 -0.269 0.928 169 155 146 0
42.0169 35.3208 -59.7689 -0.743 -0.618 -0.257 166 152 143 0
42.1292 35.0661 -59.7073 -0.731 -0.618 -0.289 165 150 141 0
-68.5907 42.6240 -32.3603 -0.292 -0.925 -0.245 255 255 255 0
-68.3176 42.5150 -32.3954 -0.291 -0.922 -0.255 255 255 255 0
-68.0896 42.4981 -32.4517 -0.176 -0.933 -0.315 135 135 135 0
-67.8575 42.4727 -32.5061 -0.176 -0.933 -0.315 66 65 63 0
-67.6048 42.4045 -32.5505 -0.160 -0.932 -0.324 224 220 214 0
-67.3477 42.3267 -32.5926 -0.232 -0.928 -0.293 228 224 215 0
-67.2076 42.4925 -32.6915 -0.171 -0.928 -0.330 228 225 217 0
-31.1810 39.3540 -41.4232 0.119 -0.697 0.707 230 222 220 0
-30.9704 39.4045 -41.4994 0.103 -0.704 0.702 230 222 219 0
-30.7822 39.5768 -41.6138 0.125 -0.682 0.720 229 222 219 0
-28.3877 41.1343 -42.8383 -0.013 -0.816 0.578 216 204 200 0
-24.0227 33.7437 -41.3392 -0.896 -0.422 0.143 143 83 95 0
-23.7288 33.1221 -41.1931 -0.896 -0.399 0.193 142 81 94 0
-20.9141 28.6499 -40.3334 -0.354 -0.740 -0.572 132 55 69 0
-20.7838 29.2909 -40.6029 -0.876 -0.230 0.423 136 58 72 0
-20.5104 28.6476 -40.4432 -0.875 -0.233 0.424 142 64 78 0
-19.1842 25.4872 -39.6540 -0.054 -0.533 0.844 127 44 59 0
-19.1536 27.1673 -40.2752 0.239 -0.910 0.340 126 43 59 0
-17.9681 25.0456 -39.8263 0.627 -0.772 -0.106 121 38 54 0
-17.7945 25.2948 -39.9648 0.524 -0.851 -0.041 120 37 53 0
-17.6059 25.3810 -40.0480 0.427 -0.904 0.001 120 36 52 0
-17.4193 25.4945 -40.1405 0.676 -0.733 -0.075 119 36 52 0
-17.2228 25.4930 -40.1938 0.577 -0.779 -0.245 115 35 50 0
-10.5076 24.4177 -41.6426 -0.305 -0.737 -0.603 104 26 40 0
-8.5510 24.4575 -42.1935 0.116 -0.993 0.032 97 24 35 0
-8.3550 24.4765 -42.2542 0.108 -0.994 0.022 98 25 36 0
-8.1614 23.9521 -42.1159 -0.612 -0.782 0.115 96 23 33 0
-6.5818 24.8917 -42.8917 -0.016 -0.872 0.490 87 23 34 0
-6.3859 24.8366 -42.9253 0.042 -0.883 0.468 86 24 35 0
-6.1893 24.8205 -42.9733 0.042 -0.883 0.468 85 23 36 0
-5.9927 24.8043 -43.0213 0.042 -0.883 0.468 85 23 37 0
-5.7961 24.7881 -43.0693 0.042 -0.883 0.468 85 23 37 0
-3.1636 26.1195 -44.2766 -0.258 -0.889 0.379 69 24 31 0
-2.9686 26.0267 -44.2962 -0.281 -0.904 0.323 67 24 30 0
-2.5048 27.1454 -44.8314 -0.088 -0.904 0.419 65 24 28 0
0.8617 33.5330 -48.0843 0.742 -0.620 0.257 67 47 40 0
5.7712 48.5593 -54.9112 -0.420 -0.292 0.859 107 99 49 0
6.6539 49.8433 -55.6215 -0.063 -0.576 0.815 145 130 47 0
6.9475 40.6860 -52.3618 0.436 -0.812 0.387 182 172 53 0
7.1864 40.7609 -52.4546 0.507 -0.809 0.297 186 177 54 0
7.3806 40.4973 -52.4117 0.403 -0.907 0.121 189 181 54 0
13.7288 47.9505 -56.8706 0.436 -0.767 0.471 214 213 70 0
14.1123 47.3676 -56.7632 -0.522 -0.834 -0.182 219 214 75 0
14.2473 46.7707 -56.5824 -0.153 -0.952 -0.266 217 213 76 0
15.6627 41.7478 -55.1383 0.045 -0.934 0.354 197 192 56 0
15.9017 41.7800 -55.2156 -0.071 -0.942 0.329 194 190 55 0
16.3324 42.7514 -55.6880 -0.134 -0.975 0.177 191 187 53 0
22.8729 48.3199 -59.5122 -0.807 -0.456 -0.375 175 168 129 0
26.9700 34.5269 -55.6043 -0.376 -0.558 0.740 185 173 164 0
31.7341 45.1638 -60.7902 -0.652 -0.577 0.491 185 173 162 0
31.9148 44.9758 -60.7712 -0.652 -0.577 0.491 183 172 163 0
32.1079 44.8280 -60.7702 -0.412 -0.591 0.693 183 173 164 0
31.5314 27.2019 -54.1829 0.612 -0.781 -0.124 176 167 158 0
43.1795 42.9378 -63.1160 0.890 -0.455 0.021 169 155 146 0
42.0281 35.4156 -60.0566 -0.740 -0.640 -0.207 167 153 144 0
42.3069 35.0285 -59.9918 -0.740 -0.621 -0.257 105 97 91 0
-68.4785 42.6623 -32.6602 -0.286 -0.924 -0.252 255 255 255 0
-68.2339 42.6121 -32.7088 -0.158 -0.927 -0.341 135 136 135 0
-68.0020 42.5876 -32.7635 -0.174 -0.931 -0.321 66 65 63 0
-67.7572 42.5365 -32.8118 -0.166 -0.929 -0.331 224 221 215 0
-67.4928 42.4445 -32.8506 -0.232 -0.928 -0.293 228 225 218 0
-67.3620 42.6300 -32.9545 -0.178 -0.925 -0.336 229 228 221 0
-31.2295 39.2436 -41.6212 0.291 -0.548 0.784 230 222 220 0
-31.0511 39.4645 -41.7511 0.149 -0.720 0.678 230 222 220 0
-29.0761 43.5181 -43.7800 0.331 -0.577 0.746 219 208 204 0
-26.9285 42.9098 -44.1458 -0.905 -0.325 -0.274 189 151 156 0
-23.8052 33.2241 -41.4487 -0.934 -0.345 0.090 143 81 94 0
-23.5021 32.5209 -41.2738 -0.905 -0.397 0.153 141 78 89 0
-22.6895 31.0509 -40.9573 -0.901 -0.404 0.156 134 71 82 0
-22.4704 30.9464 -40.9791 -0.886 -0.457 0.079 134 69 81 0
-22.2185 30.5728 -40.9111 -0.855 -0.517 -0.040 132 65 78 0
-21.5699 30.2929 -40.9863 -0.871 -0.478 0.115 134 60 77 0
-21.3787 30.4102 -41.0818 -0.814 -0.557 0.165 134 58 74 0
-21.0795 29.5833 -40.8604 -0.840 -0.533 -0.100 134 57 73 0
-20.8327 29.1970 -40.7864 -0.860 -0.224 0.458 139 61 75 0
-20.5616 28.5775 -40.6334 -0.821 -0.186 0.539 155 77 90 0
-19.1988 27.0427 -40.4441 0.012 -0.852 0.523 126 43 59 0
-18.0354 25.1720 -40.0768 0.523 -0.852 -0.015 120 37 53 0
-17.8537 25.3316 -40.1852 0.525 -0.851 -0.025 121 38 55 0
-17.6613 25.3746 -40.2537 0.389 -0.920 0.053 120 36 55 0
-17.4714 25.4498 -40.3334 0.672 -0.736 -0.089 119 38 54 0
-16.4904 25.4649 -40.6080 0.193 -0.961 -0.200 112 35 50 0
-16.1954 24.1149 -40.1935 -0.380 -0.815 0.438 112 36 49 0
-9.5798 24.2748 -42.0665 0.128 -0.882 0.453 103 27 40 0
-9.3843 24.2755 -42.1204 0.128 -0.882 0.453 103 27 40 0
-9.1888 24.2762 -42.1743 0.128 -0.882 0.453 101 25 37 0
-8.7978 24.4095 -42.3304 -0.083 -0.753 0.653 98 22 34 0
-8.6020 24.1681 -42.2955 -0.050 -0.870 0.491 96 23 34 0
-7.2597 22.1789 -41.9338 -0.405 -0.711 0.575 88 21 35 0
-6.6316 24.9117 -43.1087 -0.054 -0.907 0.417 86 23 34 0
-6.4359 24.8410 -43.1364 0.006 -0.897 0.442 87 24 36 0
-6.0422 24.8188 -43.2362 0.022 -0.885 0.466 85 24 37 0
-5.8473 24.7346 -43.2588 0.289 -0.950 0.119 85 23 37 0
-0.0008 31.3701 -47.2967 0.069 -0.980 0.187 65 39 35 0
0.3813 33.5272 -48.1929 0.542 -0.593 -0.596 66 43 38 0
0.6548 34.2504 -48.5332 0.522 -0.602 -0.604 66 46 40 0
0.8918 34.5025 -48.6907 0.497 -0.640 -0.586 67 47 41 0
5.3979 50.1307 -55.6603 -0.483 -0.311 0.819 67 72 46 0
6.7208 41.1080 -52.7128 -0.174 -0.978 0.115 176 165 52 0
6.8420 40.2644 -52.4365 0.129 -0.990 -0.066 182 172 54 0
13.3913 47.7060 -56.9628 0.437 -0.758 0.485 214 211 70 0
14.0691 47.4095 -57.0399 -0.379 -0.920 -0.101 217 212 76 0
15.1043 41.5133 -55.1606 -0.244 -0.969 0.030 199 197 62 0
15.3174 41.4171 -55.1837 -0.211 -0.977 0.033 196 194 59 0
20.9996 43.7854 -57.6109 -0.076 -0.906 0.416 144 136 78 0
22.9758 29.9920 -53.0922 -0.210 -0.920 0.332 188 178 168 0
21.2477 20.6278 -49.1826 -0.456 -0.403 0.794 189 177 168 0
27.0656 34.2474 -55.7751 -0.152 -0.634 0.758 185 172 163 0
27.5502 33.6914 -55.7040 -0.412 -0.452 0.791 185 172 163 0
31.8567 44.9215 -61.0052 -0.654 -0.546 0.523 185 172 165 0
31.9580 44.4924 -60.8756 -0.503 -0.530 0.683 182 170 164 0
31.5489 27.3336 -54.4680 0.560 -0.826 -0.060 176 167 158 0
42.9980 42.5874 -63.2043 0.885 -0.466 -0.007 169 155 146 0
42.4766 34.9728 -60.2676 -0.631 -0.713 -0.306 50 50 50 0
46.0170 41.3224 -63.5681 -0.290 -0.950 -0.118 254 255 255 0
-68.6111 42.7509 -32.9120 -0.158 -0.927 -0.341 255 255 255 0
-68.3817 42.7325 -32.9681 -0.158 -0.927 -0.341 135 135 136 0
-68.1473 42.7038 -33.0218 -0.174 -0.931 -0.321 67 65 64 0
-67.9032 42.6547 -33.0707 -0.166 -0.929 -0.331 226 222 217 0
-67.6384 42.5626 -33.1093 -0.232 -0.928 -0.293 230 225 221 0
-67.5221 42.7787 -33.2210 -0.177 -0.924 -0.339 230 226 222 0
-29.1077 43.2848 -43.9463 0.331 -0.577 0.746 219 208 206 0
-27.2016 44.2718 -44.8335 -0.915 -0.324 -0.240 208 174 177 0
-23.9202 33.6108 -41.7995 -0.869 -0.469 -0.156 144 82 95 0
-23.6287 33.0035 -41.6554 -0.919 -0.382 -0.097 141 78 90 0
-22.5596 31.1702 -41.2721 -0.896 -0.429 0.112 139 73 85 0
-21.4477 30.4848 -41.3243 -0.815 -0.560 0.149 135 61 76 0
-19.2183 26.6600 -40.5244 0.002 -0.852 0.524 128 45 61 0
-18.9635 26.0836 -40.3816 0.440 -0.873 0.208 129 46 62 0
-17.5294 25.4740 -40.5501 0.205 -0.913 -0.354 119 36 52 0
-16.5636 25.7013 -40.8989 -0.071 -0.983 -0.169 112 35 49 0
-16.3612 25.6298 -40.9281 -0.094 -0.978 -0.186 112 36 49 0
-9.2399 24.2632 -42.3774 0.272 -0.712 0.648 102 25 38 0
-9.0444 24.2826 -42.4382 0.272 -0.712 0.648 101 25 37 0
-8.8485 24.2078 -42.4644 -0.085 -0.758 0.646 100 24 37 0
-8.6528 24.0735 -42.4684 -0.050 -0.870 0.491 97 23 36 0
-7.6865 22.8800 -42.2931 -0.095 -0.967 0.237 92 23 34 0
-7.5164 20.7877 -41.5677 -0.439 -0.739 0.511 89 22 33 0
-6.0943 24.7255 -43.4110 0.022 -0.885 0.466 96 35 47 0
-5.8981 24.6948 -43.4535 0.289 -0.950 0.119 91 30 43 0
-3.2522 26.3091 -44.7751 -0.755 -0.655 -0.020 75 31 38 0
-1.3821 30.3329 -46.7730 -0.329 -0.397 0.857 62 33 35 0
4.6559 48.2818 -55.0531 -0.866 -0.466 0.178 66 74 53 0
5.3503 50.2138 -55.9565 -0.488 -0.326 0.810 70 73 50 0
5.6111 48.1201 -55.2554 -0.428 -0.310 0.849 103 96 51 0
5.8210 47.8263 -55.2046 -0.427 -0.306 0.851 124 113 52 0
6.9081 42.9931 -53.7192 -0.426 -0.903 -0.060 176 164 55 0
7.0400 40.4207 -52.8062 -0.112 -0.974 -0.199 188 178 57 0
7.2624 40.3721 -52.8492 0.245 -0.970 -0.003 190 182 58 0
15.5117 41.4643 -55.5154 -0.315 -0.949 0.029 192 190 57 0
22.4677 50.1049 -60.6123 -0.855 -0.479 -0.197 145 138 83 0
22.5310 49.3324 -60.3446 -0.882 -0.468 -0.052 151 143 94 0
22.0104 29.7062 -52.9592 0.380 -0.469 0.797 187 180 164 0
22.2085 29.6592 -52.9962 0.110 -0.457 0.883 187 180 164 0
26.9433 33.9768 -55.8885 -0.174 -0.611 0.772 184 173 163 0
27.1343 33.8843 -55.9067 -0.170 -0.619 0.767 184 173 163 0
31.3320 42.6980 -60.3108 0.909 -0.181 0.376 181 171 163 0
31.6340 24.4002 -53.6413 -0.354 -0.725 0.591 174 163 155 0
29.7705 18.5893 -50.9857 -0.459 -0.790 0.407 174 164 154 0
42.0578 35.6222 -60.6422 -0.711 -0.659 -0.246 165 151 142 0
42.5126 35.1213 -60.5821 -0.634 -0.712 -0.302 50 51 50 0
45.9312 41.2018 -63.7638 -0.305 -0.940 -0.153 254 255 255 0
45.8922 40.5924 -63.5282 0.322 -0.942 -0.091 255 255 255 0
-68.7330 42.8176 -33.1592 -0.245 -0.926 -0.289 255 255 255 0
-68.5277 42.8488 -33.2271 -0.168 -0.931 -0.325 136 135 136 0
-68.2955 42.8252 -33.2821 -0.170 -0.934 -0.315 69 65 66 0
-68.0361 42.7455 -33.3237 -0.175 -0.925 -0.336 229 221 220 0
-67.8302 42.7759 -33.3915 -0.172 -0.930 -0.325 233 224 222 0
-67.6487 42.8573 -33.4715 -0.181 -0.927 -0.329 232 224 222 0
-62.6524 32.9014 -31.1474 -0.562 -0.818 0.120 233 223 222 0
-41.5689 10.8378 -28.7443 -0.590 -0.256 0.766 232 227 221 0
-27.4036 45.1500 -45.3672 -0.917 -0.330 -0.224 210 182 181 0
-23.7720 33.6071 -42.0796 -0.948 -0.317 -0.011 143 80 91 0
-23.5258 33.3391 -42.0477 -0.939 -0.345 0.001 142 77 88 0
-23.2365 32.7314 -41.9015 -0.942 -0.334 0.022 141 75 87 0
-22.6174 31.1429 -41.4818 -0.885 -0.460 0.065 148 81 93 0
-21.5221 30.6049 -41.5827 -0.850 -0.514 0.120 146 73 87 0
-19.2616 26.5195 -40.6867 0.164 -0.900 0.403 130 46 61 0
-19.0051 25.9270 -40.5372 0.453 -0.880 0.145 129 45 60 0
-18.5420 25.2006 -40.3947 -0.570 -0.724 -0.389 124 40 55 0
-17.1838 25.3720 -40.8310 0.376 -0.919 -0.119 119 37 51 0
-9.6812 24.1280 -42.4283 0.224 -0.671 0.707 105 27 40 0
-7.7327 23.2964 -42.6544 -0.121 -0.876 -0.467 91 23 34 0
-7.5693 20.3862 -41.6191 -0.402 -0.783 0.475 88 23 33 0
-6.1465 24.6323 -43.5856 0.022 -0.885 0.466 101 41 53 0
-5.9491 24.6456 -43.6446 0.165 -0.986 0.035 96 36 48 0
-1.5879 31.1670 -47.2620 -0.701 -0.452 0.552 63 33 35 0
-1.4243 30.4565 -47.0432 -0.683 -0.475 0.555 63 35 37 0
4.6861 49.1162 -55.6459 -0.888 -0.424 0.179 71 76 57 0
6.3448 42.6379 -53.6966 -0.388 -0.921 -0.042 169 153 56 0
6.8931 43.2895 -54.0890 -0.369 -0.901 -0.227 177 163 58 0
9.8243 40.9767 -54.0350 0.583 -0.769 0.262 212 210 68 0
16.8731 42.6452 -56.5887 -0.401 -0.916 0.012 176 176 53 0
17.1039 42.6261 -56.6449 -0.400 -0.916 0.022 172 173 53 0
17.3391 42.6274 -56.7099 -0.101 -0.921 0.377 171 172 54 0
21.1235 45.6932 -58.8865 -0.002 -0.844 -0.537 145 139 81 0
22.3247 49.7070 -60.7059 -0.337 -0.869 0.362 146 139 88 0
22.4690 49.2724 -60.5842 -0.569 -0.741 0.356 154 146 102 0
22.6585 49.0300 -60.5462 -0.566 -0.745 0.352 173 163 128 0
22.8695 48.8795 -60.5482 -0.541 -0.793 0.279 180 170 140 0
21.4391 29.3053 -52.8905 0.398 -0.468 0.789 188 179 166 0
21.6988 29.4824 -53.0275 0.422 -0.437 0.794 188 181 165 0
20.8440 21.4747 -49.8208 -0.369 -0.785 0.497 187 179 166 0
42.0720 35.7243 -60.9354 -0.704 -0.644 -0.300 163 149 138 0
42.5310 35.2304 -60.8781 -0.634 -0.712 -0.302 50 50 50 0
-64.6983 34.0044 -31.2332 0.095 -0.975 -0.200 255 255 255 0
-68.8796 42.9338 -33.4187 -0.234 -0.920 -0.313 255 255 255 0
-68.6744 42.9660 -33.4870 -0.168 -0.931 -0.325 136 135 136 0
-68.4393 42.9371 -33.5408 -0.174 -0.931 -0.321 69 65 66 0
-68.1850 42.8686 -33.5850 -0.175 -0.925 -0.336 228 219 218 0
-67.9524 42.8445 -33.6399 -0.175 -0.925 -0.336 233 222 221 0
-67.7964 42.9790 -33.7329 -0.181 -0.927 -0.329 234 223 224 0
-26.9465 41.6538 -44.4529 0.815 -0.578 0.044 209 185 183 0
-27.0948 44.1620 -45.3485 -0.894 -0.363 -0.262 210 180 180 0
-22.6895 31.2277 -41.7295 -0.884 -0.464 0.061 147 80 91 0
-21.4728 29.6700 -41.4821 -0.781 -0.587 0.212 145 74 86 0
-21.3576 30.4383 -41.8005 -0.948 -0.293 0.127 146 73 85 0
-18.1655 24.7538 -40.5548 0.500 -0.771 0.395 122 38 53 0
-18.2074 27.4055 -41.5332 -0.178 -0.953 -0.244 122 38 53 0
-17.4502 25.5403 -41.0447 -0.005 -0.947 -0.322 122 39 54 0
-16.0966 25.8959 -41.5491 -0.560 -0.795 -0.232 112 36 48 0
-15.8309 27.8350 -42.3459 -0.175 -0.778 -0.603 113 34 47 0
-13.8804 25.1175 -41.8670 0.371 -0.813 0.449 114 33 45 0
-11.6205 28.8324 -43.8742 -0.707 -0.385 0.593 103 26 43 0
-11.4086 28.5288 -43.8190 -0.707 -0.385 0.593 102 25 42 0
-9.7308 23.9585 -42.5735 0.224 -0.671 0.707 112 34 47 0
-9.5357 23.9648 -42.6294 0.224 -0.671 0.707 134 56 69 0
-8.9495 23.8583 -42.7506 -0.082 -0.757 0.649 98 23 36 0
-8.1348 31.4908 -45.8235 -0.885 -0.378 0.270 92 22 33 0
-7.7334 29.3091 -45.1193 -0.818 -0.481 0.316 88 23 33 0
-7.5342 28.6741 -44.9369 -0.929 -0.233 0.287 86 24 32 0
-7.1958 23.5870 -43.1308 -0.459 -0.871 0.176 87 25 34 0
-6.1978 24.5719 -43.7724 0.038 -0.880 0.473 87 27 39 0
-5.9995 24.6257 -43.8470 0.312 -0.944 0.109 84 25 37 0
-1.7353 29.6340 -46.8872 -0.597 -0.528 0.604 64 35 37 0
-1.4832 30.3246 -47.2142 -0.680 -0.477 0.557 63 37 38 0
0.9813 37.4675 -50.5573 0.368 -0.922 0.121 72 52 50 0
1.2329 37.8137 -50.7556 0.470 -0.744 -0.475 76 59 56 0
5.0273 48.2488 -55.6927 -0.165 -0.986 -0.024 80 77 63 0
5.2268 47.8442 -55.5965 -0.642 -0.451 0.620 83 78 57 0
6.2395 42.2043 -53.7691 -0.127 -0.991 0.052 170 154 60 0
12.1640 48.6056 -57.7852 0.273 -0.953 0.132 217 211 71 0
21.1417 45.9661 -59.2646 0.148 -0.805 -0.575 146 139 86 0
22.2596 49.6344 -60.9409 -0.337 -0.869 0.362 148 140 93 0
22.3729 49.0702 -60.7613 -0.307 -0.700 0.644 162 153 113 0
22.6044 49.0020 -60.7995 -0.297 -0.705 0.644 177 166 134 0
22.8088 48.8241 -60.7891 -0.294 -0.702 0.648 181 170 143 0
23.0670 48.8665 -60.8758 -0.289 -0.679 0.674 182 171 147 0
23.1517 48.2099 -60.6540 0.089 -0.680 0.727 184 173 151 0
21.1962 29.3267 -53.0680 0.036 -0.430 0.902 188 178 166 0
21.5697 29.1543 -53.1062 0.431 -0.437 0.789 190 183 167 0
24.0003 24.1462 -51.9039 0.755 -0.153 0.637 183 175 163 0
25.4268 24.1952 -52.3138 0.794 -0.190 0.578 181 173 160 0
25.9300 14.5442 -48.8493 -0.892 -0.398 0.215 177 166 162 0
42.1097 35.8801 -61.2559 -0.703 -0.644 -0.303 163 149 138 0
42.5494 35.3398 -61.1749 -0.634 -0.712 -0.302 50 50 50 0
-69.0722 43.1433 -33.7013 -0.296 -0.924 -0.243 255 255 255 0
-68.8215 43.0835 -33.7477 -0.168 -0.931 -0.325 135 135 135 0
-68.5888 43.0603 -33.8029 -0.178 -0.927 -0.329 68 65 64 0
-68.3455 43.0151 -33.8527 -0.151 -0.930 -0.334 228 219 217 0
-68.0733 42.9100 -33.8880 -0.194 -0.934 -0.301 233 221 220 0
-67.7474 42.6932 -33.8961 -0.487 -0.825 -0.287 235 223 224 0
-62.8004 32.8696 -31.5665 -0.516 -0.787 0.339 232 220 220 0
-27.0072 41.6010 -44.6746 0.811 -0.583 0.047 210 188 186 0
-25.4506 38.5899 -43.9716 -0.894 -0.332 -0.301 162 113 119 0
-21.7942 30.1484 -41.8065 -0.734 -0.592 -0.332 134 69 81 0
-21.5855 30.1160 -41.8516 -0.709 -0.614 -0.348 135 67 80 0
-19.0727 25.4592 -40.7934 0.386 -0.921 -0.056 127 47 60 0
-17.5136 25.6275 -41.2847 0.000 -0.947 -0.323 125 44 58 0
-16.9521 26.0082 -41.5818 0.256 -0.889 -0.379 118 39 52 0
-15.9674 26.0849 -41.8811 -0.405 -0.812 0.420 111 35 47 0
-14.1127 24.7660 -41.8952 0.548 -0.537 0.642 114 34 47 0
-13.9305 25.0402 -42.0482 0.390 -0.800 0.457 115 34 47 0
-13.3588 25.4459 -42.3576 -0.277 -0.944 -0.181 112 31 44 0
-12.9326 24.6901 -42.1908 -0.256 -0.965 0.063 109 28 43 0
-12.5361 24.5786 -42.2579 -0.214 -0.973 0.080 109 28 43 0
-12.3401 24.5765 -42.3109 0.218 -0.974 0.057 107 28 42 0
-9.7818 23.9180 -42.7663 -0.085 -0.774 0.627 113 37 50 0
-9.1952 23.7708 -42.8721 -0.080 -0.765 0.640 110 37 48 0
-9.0000 23.7212 -42.9071 -0.080 -0.765 0.640 99 26 39 0
-8.4017 30.1090 -45.4697 -0.195 -0.419 0.887 92 24 34 0
-7.2462 23.5498 -43.3244 -0.440 -0.897 -0.042 87 25 36 0
-1.8004 29.3956 -47.0147 -0.063 -0.840 0.538 65 36 38 0
-1.5430 30.1793 -47.3797 0.257 -0.739 0.623 64 36 38 0
-1.3763 29.5503 -47.1893 -0.657 -0.700 0.280 64 38 40 0
-0.5222 32.7712 -48.6331 0.645 -0.576 -0.502 66 43 46 0
-0.2712 33.2779 -48.8923 0.645 -0.576 -0.502 67 46 45 0
-0.0180 33.7892 -49.1538 0.645 -0.576 -0.502 69 49 48 0
0.9056 37.1848 -50.6823 0.206 -0.952 -0.228 74 55 53 0
1.1874 37.9006 -51.0285 0.446 -0.738 -0.506 77 63 59 0
1.2499 36.0142 -50.3374 0.195 -0.976 0.093 81 71 64 0
4.9730 48.2642 -55.9591 -0.165 -0.986 -0.024 82 78 67 0
5.1746 47.8751 -55.8684 -0.657 -0.507 0.557 84 80 63 0
5.3818 47.5507 -55.8035 -0.752 -0.643 0.144 86 82 54 0
11.9516 49.1411 -58.2049 0.437 -0.857 0.272 214 209 71 0
12.3540 48.5868 -58.1073 0.359 -0.914 0.192 216 210 70 0
12.5397 48.2246 -58.0222 0.527 -0.755 0.391 214 211 69 0
22.0753 49.0623 -60.9555 -0.161 -0.673 0.722 153 144 99 0
22.2670 48.8272 -60.9199 -0.126 -0.729 0.673 169 159 122 0
22.4989 48.7620 -60.9591 0.006 -0.719 0.695 178 167 136 0
22.7227 48.6645 -60.9840 -0.017 -0.734 0.679 182 170 145 0
20.8689 21.7990 -50.3884 0.600 -0.799 0.041 190 182 166 0
21.1609 22.1256 -50.5912 0.668 -0.636 0.386 189 182 166 0
21.4097 22.3009 -50.7253 0.664 -0.639 0.388 188 181 165 0
25.1445 23.4358 -52.1771 0.793 -0.188 0.580 181 173 160 0
25.4309 23.6971 -52.3539 0.753 -0.161 0.638 181 173 160 0
42.2756 35.8119 -61.5284 -0.731 -0.612 -0.302 163 148 137 0
42.5636 35.4398 -61.4678 -0.712 -0.633 -0.304 49 50 49 0
-69.2266 43.2743 -33.9659 -0.273 -0.932 -0.237 255 255 255 0
-68.9674 43.1980 -34.0083 -0.136 -0.932 -0.336 135 136 136 0
-68.7380 43.1821 -34.0653 -0.178 -0.927 -0.329 68 66 64 0
-68.4962 43.1408 -34.1162 -0.162 -0.938 -0.305 229 220 218 0
-68.2289 43.0467 -34.1541 -0.193 -0.933 -0.302 233 221 220 0
-62.8587 32.8208 -31.7682 -0.516 -0.787 0.339 233 222 221 0
-60.8521 29.4745 -31.0560 -0.816 -0.501 0.290 233 225 219 0
-30.3823 30.9216 -39.9733 0.663 -0.682 -0.309 231 224 223 0
-26.1948 41.7539 -45.2139 -0.912 -0.348 -0.215 172 130 134 0
-25.7631 40.3139 -44.7888 -0.922 -0.340 -0.185 163 116 122 0
-25.3291 38.8197 -44.3438 -0.922 -0.339 -0.185 160 108 116 0
-22.9692 32.4544 -42.5887 -0.820 -0.527 -0.224 141 75 85 0
-21.4382 30.0936 -42.1179 -0.720 -0.599 -0.351 135 64 77 0
-18.4718 24.7405 -40.9116 0.045 -0.998 -0.035 125 45 59 0
-18.4224 26.3220 -41.5223 -0.050 -0.950 -0.309 123 42 56 0
-18.3661 27.8927 -42.1308 -0.136 -0.917 -0.374 122 41 55 0
-17.5799 25.7471 -41.5367 -0.018 -0.935 -0.353 126 45 59 0
-17.0149 26.0928 -41.8225 0.256 -0.889 -0.379 121 41 54 0
-15.3828 25.3839 -42.0032 0.582 -0.810 0.074 113 33 46 0
-15.1611 24.9894 -41.9151 0.412 -0.901 0.138 113 34 47 0
-12.9874 24.7230 -42.4117 -0.328 -0.940 0.094 109 27 43 0
-12.7858 24.5889 -42.4165 -0.234 -0.969 0.075 109 27 43 0
-12.5891 24.5732 -42.4646 -0.214 -0.973 0.080 109 28 43 0
-12.1978 24.5993 -42.5819 0.267 -0.948 -0.172 107 28 42 0
-9.8318 23.7929 -42.9274 -0.085 -0.774 0.627 107 33 44 0
-9.6361 23.7289 -42.9571 -0.085 -0.769 0.634 112 36 50 0
-9.4407 23.6787 -42.9918 -0.085 -0.769 0.634 110 36 49 0
-9.2454 23.6286 -43.0265 -0.085 -0.769 0.634 102 29 42 0
-9.0504 23.5930 -43.0666 -0.080 -0.765 0.640 98 26 39 0
-8.4561 29.7578 -45.5577 -0.237 -0.470 0.850 92 25 35 0
-7.2922 23.8570 -43.6493 -0.407 -0.908 -0.102 86 24 36 0
-1.5361 31.0747 -47.9561 -0.508 -0.716 0.478 66 37 41 0
-1.3793 30.2634 -47.6928 -0.218 -0.456 0.863 66 37 41 0
-0.5307 33.3675 -49.0980 0.580 -0.564 -0.588 68 45 47 0
-0.2942 33.6626 -49.2744 0.638 -0.567 -0.520 68 48 48 0
0.9150 37.9486 -51.2249 0.472 -0.727 -0.499 79 63 60 0
1.1512 38.1002 -51.3471 0.462 -0.742 -0.486 82 68 64 0
1.1953 35.9822 -50.5595 0.195 -0.976 0.093 85 76 70 0
1.5704 35.2506 -50.3863 -0.488 -0.696 -0.526 93 93 84 0
3.3938 47.6145 -55.5557 -0.356 -0.925 0.130 94 98 88 0
3.6090 47.3331 -55.5086 -0.398 -0.861 0.315 92 97 87 0
3.8505 47.3299 -55.5737 -0.433 -0.567 0.700 92 95 86 0
4.1515 47.9203 -55.8793 -0.456 -0.364 0.812 90 92 81 0
5.1228 47.9113 -56.1427 -0.360 -0.483 0.798 84 81 66 0
5.3770 48.0122 -56.2507 -0.678 -0.670 0.303 85 82 58 0
5.5642 47.5085 -56.1119 -0.660 -0.683 0.313 92 88 51 0
11.9474 49.4467 -58.5974 0.484 -0.818 -0.311 212 208 69 0
12.0894 48.7940 -58.3900 0.147 -0.963 -0.228 214 209 69 0
10.9782 39.0790 -54.4164 0.140 -0.760 0.634 213 211 68 0
12.4523 45.1138 -57.1001 0.753 -0.657 -0.037 211 209 70 0
14.9605 26.2318 -50.6595 -0.122 -0.757 0.641 156 151 58 0
20.1047 45.0228 -59.1680 -0.548 -0.828 -0.123 148 140 73 0
20.2853 44.7656 -59.1205 -0.569 -0.813 -0.122 146 137 76 0
21.9862 48.8877 -61.1443 -0.182 -0.673 0.717 158 150 108 0
22.1696 48.6190 -61.0932 -0.053 -0.671 0.739 174 164 129 0
22.3912 48.5124 -61.1139 0.296 -0.679 0.672 179 168 138 0
22.6352 48.4986 -61.1757 -0.021 -0.792 0.610 182 171 145 0
24.7371 32.9915 -55.8978 0.484 -0.823 -0.297 188 180 163 0
