ply
format ascii 1.0
element vertex 849
property float x
property float y
property float z
property float nx
property float ny
property float nz
property uchar diffuse_red
property uchar diffuse_green
property uchar diffuse_blue
property uchar class
end_header
-5.3480 33.3115 -25.2344 0.797 0.203 0.568 130 59 57 0
-1.5365 36.1712 -22.5912 0.982 0.161 0.101 165 100 79 0
-1.5813 36.3789 -22.4869 0.982 0.161 0.101 170 105 82 0
-1.6261 36.5865 -22.3827 0.982 0.161 0.101 171 105 80 0
-1.6709 36.7942 -22.2785 0.982 0.161 0.101 173 105 80 0
-1.7158 37.0018 -22.1743 0.982 0.161 0.101 170 102 78 0
-4.6532 40.6811 -20.9121 0.640 -0.701 0.314 143 66 56 0
-2.3534 43.4459 -18.7344 0.293 0.299 0.908 141 62 56 0
-2.6604 43.6512 -18.7030 0.293 0.299 0.908 140 61 54 0
-5.2561 40.5635 -21.4227 0.495 -0.358 0.792 143 69 57 0
-4.8821 40.0463 -21.8904 0.495 -0.358 0.792 146 68 58 0
69.3744 56.5881 7.9743 0.373 -0.689 0.622 206 186 153 0
-4.4568 39.1047 -22.5818 0.495 -0.358 0.792 155 79 62 0
-4.5608 39.9555 -22.1325 0.495 -0.358 0.792 149 71 59 0
-4.5868 40.1681 -22.0203 0.495 -0.358 0.792 149 72 60 0
-4.1922 40.8180 -21.5447 0.640 -0.701 0.314 150 74 62 0
-3.8809 41.2495 -21.2152 0.640 -0.701 0.314 148 74 61 0
-1.8850 47.8837 -16.9285 0.931 0.323 0.172 110 55 50 0
-1.8853 33.3877 -25.3554 0.987 0.153 0.046 126 52 47 0
-1.3683 36.8208 -23.2784 0.831 -0.513 0.214 177 121 84 0
-4.1624 39.2278 -22.7104 0.495 -0.358 0.792 156 81 61 0
-4.1884 39.4403 -22.5982 0.495 -0.358 0.792 156 82 63 0
-4.2404 39.8650 -22.3739 0.495 -0.358 0.792 151 76 59 0
-4.4560 40.2844 -22.1986 0.640 -0.701 0.314 150 73 59 0
-3.3680 41.7946 -21.0428 0.640 -0.701 0.314 138 65 51 0
-1.8862 47.9980 -17.1357 0.931 0.323 0.172 111 54 50 0
-1.9668 33.9146 -25.3602 0.987 0.153 0.046 132 59 53 0
-3.8689 39.3506 -22.8387 0.495 -0.358 0.792 154 81 59 0
-3.9468 39.9867 -22.5026 0.495 -0.358 0.792 151 78 57 0
-3.9372 40.8371 -22.0211 0.640 -0.701 0.314 153 77 59 0
-2.7753 41.2884 -21.4375 0.497 -0.360 0.790 150 72 59 0
-2.7999 41.4978 -21.3266 0.497 -0.360 0.790 137 61 47 0
-0.8427 41.7469 -20.6313 0.432 -0.801 0.413 135 60 47 0
60.0522 62.5477 8.3487 0.853 -0.339 0.397 185 162 120 0
-1.9730 34.0206 -25.5811 0.987 0.153 0.046 132 57 52 0
-2.0107 34.2315 -25.4730 0.987 0.153 0.046 133 57 51 0
-2.7882 34.3847 -25.6088 0.493 -0.504 0.709 137 60 52 0
-4.6178 36.4160 -24.9869 0.981 0.171 0.094 175 117 83 0
-2.4124 40.7789 -21.8981 0.497 -0.360 0.790 155 80 61 0
-2.4371 40.9881 -21.7873 0.497 -0.360 0.790 154 79 61 0
-2.4618 41.1973 -21.6764 0.497 -0.360 0.790 149 73 57 0
-2.4865 41.4064 -21.5656 0.497 -0.360 0.790 140 64 50 0
-2.5112 41.6155 -21.4549 0.497 -0.360 0.790 138 63 50 0
-1.9774 48.4340 -17.4599 0.931 0.323 0.172 112 54 51 0
-1.9416 33.9157 -25.9105 0.987 0.153 0.046 136 59 54 0
-2.5475 34.0810 -25.9917 0.493 -0.504 0.709 135 57 53 0
-2.5151 34.2985 -25.8597 0.493 -0.504 0.709 135 58 52 0
-4.6159 36.5265 -25.2080 0.981 0.171 0.094 174 117 79 0
-3.9939 40.4221 -22.8318 0.640 -0.701 0.314 154 83 58 0
-3.8379 40.6394 -22.6643 0.640 -0.701 0.314 154 82 60 0
-2.3280 40.8922 -22.0871 0.891 -0.455 -0.010 155 83 62 0
-2.1985 41.5241 -21.6934 0.497 -0.360 0.790 139 64 50 0
-2.2232 41.7328 -21.5828 0.497 -0.360 0.790 140 65 52 0
-1.9478 34.0218 -26.1322 0.987 0.153 0.046 135 57 53 0
-3.5544 34.1082 -26.5495 0.988 0.140 0.063 135 56 51 0
-3.5916 34.3221 -26.4396 0.988 0.140 0.063 135 58 51 0
-3.6288 34.5360 -26.3296 0.988 0.140 0.063 136 59 51 0
-3.6252 35.6180 -25.7179 0.987 0.148 0.061 152 79 59 0
-4.6140 36.6372 -25.4294 0.981 0.171 0.094 173 116 77 0
-4.2698 40.3128 -23.2549 0.490 -0.360 0.794 158 89 63 0
-3.7880 40.5404 -22.9867 0.640 -0.701 0.314 157 88 61 0
-3.6325 40.7574 -22.8191 0.640 -0.701 0.314 156 86 60 0
-2.2728 41.0047 -22.2850 0.891 -0.455 -0.010 155 84 62 0
-1.6258 47.8363 -18.2412 0.931 0.323 0.172 105 44 40 0
-1.8029 48.2500 -18.0591 0.931 0.323 0.172 107 46 45 0
0.2089 33.2464 -26.2201 0.984 0.163 0.069 146 72 59 0
0.1670 33.4542 -26.1150 0.984 0.163 0.069 144 70 59 0
-1.9541 34.1281 -26.3543 0.987 0.153 0.046 141 62 57 0
-3.5554 34.2164 -26.7725 0.988 0.140 0.063 136 57 52 0
-3.5927 34.4305 -26.6624 0.988 0.140 0.063 136 59 51 0
-3.7382 40.4413 -23.3094 0.640 -0.701 0.314 157 90 61 0
-2.1074 41.3298 -22.3308 0.891 -0.455 -0.010 142 72 51 0
-1.9974 41.5417 -22.1790 0.891 -0.455 -0.010 139 68 49 0
-1.8041 48.3650 -18.2679 0.931 0.323 0.172 108 46 45 0
-1.9603 34.2346 -26.5767 0.987 0.153 0.046 149 70 63 0
-3.6532 40.3430 -23.6218 0.490 -0.360 0.794 157 91 61 0
-3.6793 40.5553 -23.5094 0.490 -0.360 0.794 157 93 62 0
-2.1623 41.2300 -22.6812 0.891 -0.455 -0.010 144 79 52 0
-2.0521 41.4424 -22.5287 0.891 -0.455 -0.010 138 71 48 0
-1.7167 48.2728 -18.5682 0.931 0.323 0.172 108 42 43 0
-2.7414 48.5116 -18.7350 0.918 0.365 0.153 110 45 45 0
-1.9287 34.1295 -26.9081 0.987 0.153 0.046 152 74 62 0
-1.9666 34.3413 -26.7995 0.987 0.153 0.046 152 73 63 0
-3.3593 40.4641 -23.7483 0.490 -0.360 0.794 156 94 61 0
-3.3853 40.6760 -23.6361 0.490 -0.360 0.794 155 93 62 0
-2.2174 41.1299 -23.0327 0.891 -0.455 -0.010 153 90 57 0
-2.1069 41.3427 -22.8795 0.891 -0.455 -0.010 142 77 49 0
-1.9968 41.5551 -22.7267 0.891 -0.455 -0.010 137 71 47 0
61.6742 63.1054 8.3581 0.441 -0.336 0.832 188 166 139 0
0.1190 33.9765 -26.6645 0.984 0.163 0.069 153 76 60 0
-1.9350 34.2362 -27.1314 0.987 0.153 0.046 153 75 60 0
-3.0663 40.5847 -23.8744 0.490 -0.360 0.794 154 95 60 0
-3.0923 40.7963 -23.7624 0.490 -0.360 0.794 154 94 60 0
-2.2726 41.0294 -23.3853 0.891 -0.455 -0.010 153 91 58 0
-2.1620 41.2428 -23.2315 0.891 -0.455 -0.010 151 87 55 0
-2.0516 41.4555 -23.0780 0.891 -0.455 -0.010 143 78 51 0
-1.7190 48.5033 -18.9875 0.931 0.323 0.172 108 41 42 0
-1.8078 48.7110 -18.8964 0.931 0.323 0.172 106 41 41 0
-6.1934 51.3976 -18.6859 0.878 0.447 0.170 97 51 51 0
-2.7221 40.2824 -24.2240 0.490 -0.360 0.794 154 98 60 0
-2.3280 40.9287 -23.7390 0.891 -0.455 -0.010 153 94 60 0
-2.2171 41.1425 -23.5845 0.891 -0.455 -0.010 151 91 57 0
-2.1065 41.3557 -23.4303 0.891 -0.455 -0.010 147 86 53 0
-1.9962 41.5684 -23.2765 0.891 -0.455 -0.010 143 78 51 0
-6.3399 51.7372 -18.8212 0.878 0.447 0.170 96 51 51 0
-1.3505 40.6459 -23.8836 0.890 -0.457 -0.006 154 100 60 0
-2.3836 40.8277 -24.0938 0.891 -0.455 -0.010 155 99 62 0
-2.2725 41.0419 -23.9386 0.891 -0.455 -0.010 153 97 62 0
-2.1616 41.2556 -23.7838 0.891 -0.455 -0.010 149 92 57 0
-2.0511 41.4688 -23.6293 0.891 -0.455 -0.010 142 84 51 0
-1.9408 41.6814 -23.4752 0.891 -0.455 -0.010 139 77 50 0
-0.6690 35.2952 -26.9920 0.582 -0.562 0.588 150 80 55 0
-1.2941 40.7583 -24.0817 0.890 -0.457 -0.006 154 101 61 0
-1.1838 40.9710 -23.9272 0.890 -0.457 -0.006 155 101 62 0
-2.2169 41.1552 -24.1383 0.891 -0.455 -0.010 152 97 61 0
-2.1061 41.3688 -23.9832 0.891 -0.455 -0.010 147 92 56 0
-1.9956 41.5819 -23.8284 0.891 -0.455 -0.010 141 85 51 0
-0.4805 35.2031 -27.2669 0.582 -0.562 0.588 154 84 58 0
-0.4156 35.4203 -27.1236 0.582 -0.562 0.588 154 85 57 0
-0.3509 35.6372 -26.9805 0.582 -0.562 0.588 153 84 55 0
105.1070 43.7127 10.0628 0.870 -0.492 0.019 155 104 60 0
-1.1274 41.0834 -24.1251 0.890 -0.457 -0.006 152 101 61 0
-1.0174 41.2956 -23.9707 0.890 -0.457 -0.006 148 96 58 0
-0.7981 41.7183 -23.6631 0.890 -0.457 -0.006 141 87 52 0
0.4901 34.5341 -27.6273 0.565 -0.579 0.587 153 83 58 0
-0.1629 35.5452 -27.2548 0.582 -0.562 0.588 153 86 57 0
-1.0710 41.1959 -24.3232 0.890 -0.457 -0.006 150 101 59 0
-0.1672 42.0493 -23.5577 0.904 -0.426 -0.043 133 79 48 0
-0.0616 42.2585 -23.4060 0.904 -0.426 -0.043 131 73 49 0
0.0438 42.4671 -23.2547 0.904 -0.426 -0.043 126 65 46 0
0.1489 42.6753 -23.1038 0.904 -0.426 -0.043 120 58 42 0
1.5934 33.0413 -28.4119 0.400 -0.801 0.447 144 67 49 0
0.6796 34.4431 -27.8994 0.565 -0.579 0.587 154 84 58 0
0.7507 34.6603 -27.7536 0.565 -0.579 0.587 154 85 58 0
0.8217 34.8770 -27.6081 0.565 -0.579 0.587 155 87 58 0
0.8926 35.0934 -27.4628 0.565 -0.579 0.587 154 86 56 0
0.9633 35.3094 -27.3179 0.565 -0.579 0.587 154 86 57 0
-1.0146 41.3084 -24.5213 0.890 -0.457 -0.006 146 99 56 0
-0.9046 41.5204 -24.3664 0.890 -0.457 -0.006 142 95 54 0
-0.5763 42.1533 -23.9037 0.890 -0.457 -0.006 130 79 49 0
-0.4674 42.3632 -23.7502 0.890 -0.457 -0.006 121 65 41 0
0.1920 42.7868 -23.3033 0.904 -0.426 -0.043 114 54 37 0
-0.7385 41.8444 -24.4095 0.890 -0.457 -0.006 135 90 54 0
-0.5200 42.2656 -24.1008 0.890 -0.457 -0.006 127 75 46 0
0.2352 42.8984 -23.5030 0.904 -0.426 -0.043 114 54 37 0
3.6498 34.6792 -27.3841 0.392 -0.792 0.468 152 87 59 0
-0.7917 41.7456 -24.7625 0.890 -0.457 -0.006 135 91 56 0
-0.6821 41.9569 -24.6073 0.890 -0.457 -0.006 133 88 55 0
-0.5728 42.1678 -24.4525 0.890 -0.457 -0.006 129 81 49 0
-14.1029 86.7987 -3.2961 0.925 -0.257 -0.281 188 171 145 0
4.0695 34.8156 -27.4463 0.400 -0.801 0.447 150 86 58 0
0.4313 42.0881 -24.4577 0.776 -0.150 0.612 131 86 55 0
21.5883 75.0052 1.0690 0.863 -0.453 -0.226 189 171 148 0
1.4267 42.8321 -23.9914 0.778 -0.136 0.614 128 68 45 0
1.3816 43.0369 -23.8889 0.778 -0.136 0.614 129 68 48 0
1.6207 42.7394 -24.2577 0.778 -0.136 0.614 126 74 47 0
1.5757 42.9441 -24.1553 0.778 -0.136 0.614 131 74 49 0
1.8146 42.6468 -24.5238 0.778 -0.136 0.614 126 80 49 0
1.7696 42.8514 -24.4215 0.778 -0.136 0.614 130 79 50 0
6.9877 32.2007 -29.0832 0.863 -0.505 -0.002 126 63 58 0
0.2327 40.6504 -26.4618 0.501 0.197 0.843 133 99 51 0
7.0492 32.3063 -29.2726 0.863 -0.505 -0.002 124 59 57 0
7.6819 33.3847 -28.4459 0.863 -0.505 -0.002 125 57 48 0
7.8074 33.5985 -28.2820 0.863 -0.505 -0.002 125 57 46 0
0.7909 40.3591 -26.7258 0.501 0.197 0.843 135 98 51 0
0.6134 40.5627 -26.6678 0.501 0.197 0.843 133 99 53 0
0.4355 40.7667 -26.6097 0.501 0.197 0.843 133 100 54 0
-3.9372 54.6157 -20.1198 0.913 -0.088 -0.399 91 39 41 0
6.5980 31.5383 -30.1335 0.863 -0.505 -0.002 120 65 60 0
6.7267 31.7577 -29.9649 0.863 -0.505 -0.002 117 61 56 0
6.8551 31.9764 -29.7969 0.863 -0.505 -0.002 121 63 59 0
6.9830 32.1945 -29.6293 0.863 -0.505 -0.002 119 58 57 0
7.1106 32.4120 -29.4622 0.863 -0.505 -0.002 118 55 53 0
7.8686 33.7036 -28.4696 0.863 -0.505 -0.002 132 66 55 0
7.9936 33.9167 -28.3059 0.863 -0.505 -0.002 135 69 57 0
0.6380 40.8828 -26.7573 0.501 0.197 0.843 132 99 52 0
-3.8673 55.1459 -20.0774 0.913 -0.088 -0.399 88 42 43 0
-3.7862 55.3453 -19.9360 0.913 -0.088 -0.399 88 43 43 0
6.6597 31.6444 -30.3244 0.863 -0.505 -0.002 120 63 59 0
6.7884 31.8637 -30.1555 0.863 -0.505 -0.002 119 62 58 0
6.9167 32.0823 -29.9871 0.863 -0.505 -0.002 117 59 55 0
7.0446 32.3003 -29.8192 0.863 -0.505 -0.002 113 52 49 0
7.8576 32.5866 -29.3828 0.862 -0.507 -0.002 114 53 49 0
8.5512 34.8677 -27.8417 0.863 -0.505 -0.002 148 81 65 0
8.6744 35.0776 -27.6800 0.863 -0.505 -0.002 142 75 57 0
8.7972 35.2870 -27.5187 0.863 -0.505 -0.002 139 72 53 0
0.8402 40.9986 -26.9047 0.501 0.197 0.843 129 93 47 0
0.6627 41.2030 -26.8468 0.501 0.197 0.843 130 93 48 0
0.4848 41.4078 -26.7889 0.501 0.197 0.843 132 94 50 0
0.3065 41.6130 -26.7308 0.501 0.197 0.843 128 91 47 0
-3.9601 55.2767 -20.3183 0.913 -0.088 -0.399 88 42 42 0
-3.8787 55.4763 -20.1765 0.913 -0.088 -0.399 89 44 43 0
6.7100 31.5435 -30.6382 0.858 -0.513 0.004 119 64 61 0
6.8407 31.7633 -30.4680 0.858 -0.513 0.004 120 62 60 0
7.9191 32.6918 -29.5713 0.862 -0.507 -0.002 110 49 44 0
8.4886 34.7619 -28.1905 0.863 -0.505 -0.002 137 70 54 0
8.6121 34.9724 -28.0280 0.863 -0.505 -0.002 136 69 52 0
1.0420 41.1143 -27.0518 0.501 0.197 0.843 129 89 46 0
0.8648 41.3186 -26.9942 0.501 0.197 0.843 131 91 47 0
-3.8902 55.8071 -20.2758 0.913 -0.088 -0.399 88 42 42 0
-4.7101 56.0891 -20.3902 0.873 -0.372 0.315 89 46 44 0
12.4273 82.2912 0.4332 0.457 -0.201 0.866 188 167 146 0
6.6437 31.4296 -30.9995 0.858 -0.513 0.004 117 65 62 0
6.7747 31.6500 -30.8284 0.858 -0.513 0.004 117 62 60 0
6.9119 32.0758 -30.5370 0.863 -0.505 -0.002 117 58 56 0
7.0401 32.2943 -30.3680 0.863 -0.505 -0.002 110 50 49 0
7.2953 32.7292 -30.0314 0.863 -0.505 -0.002 110 49 47 0
1.2434 41.2298 -27.1987 0.501 0.197 0.843 134 90 51 0
1.0666 41.4341 -27.1413 0.501 0.197 0.843 134 89 50 0
-4.5956 56.2028 -20.5735 0.873 -0.372 0.315 88 45 44 0
-4.5559 56.4067 -20.4429 0.873 -0.372 0.315 89 49 48 0
33.1571 4.5602 -37.6744 0.875 -0.379 0.301 239 221 192 0
6.8452 31.9630 -30.8978 0.863 -0.505 -0.002 112 56 54 0
6.9737 32.1820 -30.7279 0.863 -0.505 -0.002 109 51 50 0
7.1018 32.4003 -30.5586 0.863 -0.505 -0.002 104 45 45 0
-4.4414 56.5202 -20.6260 0.873 -0.372 0.315 88 47 47 0
8.4846 32.4366 -30.3352 0.500 0.413 0.761 107 50 49 0
8.2810 32.6189 -30.3003 0.500 0.413 0.761 103 45 44 0
-3.5834 56.3558 -20.7135 0.913 -0.088 -0.399 85 42 42 0
-4.6858 56.6685 -20.9126 0.913 -0.095 -0.398 85 45 45 0
21.6093 80.8234 2.0364 0.891 -0.433 -0.139 186 161 141 0
-4.8617 56.6023 -21.3005 0.913 -0.095 -0.398 84 39 40 0
-4.7779 56.8025 -21.1561 0.913 -0.095 -0.398 84 42 43 0
16.0837 84.9305 2.2735 0.891 0.453 -0.011 254 255 255 0
16.0055 85.0805 2.1046 0.891 0.453 -0.011 254 255 255 0
-4.3693 56.8048 -21.5912 0.913 -0.088 -0.399 85 40 42 0
-4.2869 57.0044 -21.4471 0.913 -0.088 -0.399 83 40 41 0
18.1672 71.6366 -5.1256 0.708 0.342 0.618 208 197 178 0
15.8309 85.4219 2.0118 0.891 0.453 -0.011 255 255 255 0
-4.3810 57.1391 -21.6920 0.913 -0.088 -0.399 84 39 40 0
18.0196 82.1177 0.6465 0.799 -0.553 0.238 187 166 147 0
109.2285 41.3934 9.2880 0.678 0.729 0.094 235 224 207 0
107.9347 42.5194 9.4792 0.257 -0.595 0.761 101 56 59 0
18.1191 82.1995 0.5029 0.799 -0.553 0.238 186 165 146 0
18.1805 82.3304 0.6004 0.799 -0.553 0.238 184 163 144 0
18.2419 82.4610 0.6977 0.799 -0.553 0.238 184 163 144 0
18.3031 82.5914 0.7948 0.799 -0.553 0.238 184 163 144 0
18.3643 82.7215 0.8918 0.799 -0.553 0.238 183 162 143 0
15.9763 84.3698 0.9961 0.920 -0.249 -0.301 180 159 136 0
16.0439 84.4997 1.0953 0.920 -0.249 -0.301 180 160 136 0
16.1113 84.6294 1.1943 0.920 -0.249 -0.301 179 159 135 0
82.8866 53.7501 6.9808 0.696 -0.610 0.379 206 195 177 0
18.2048 81.3664 -0.1750 0.857 -0.490 -0.160 185 166 148 0
18.2936 81.4886 -0.0725 0.857 -0.490 -0.160 184 165 147 0
18.2798 82.4121 0.4569 0.799 -0.553 0.238 183 163 144 0
15.9574 84.4974 0.8329 0.920 -0.249 -0.301 179 161 136 0
16.0250 84.6274 0.9323 0.920 -0.249 -0.301 179 159 135 0
16.0926 84.7571 1.0315 0.920 -0.249 -0.301 178 157 134 0
15.9152 84.9789 1.0964 0.883 -0.462 -0.087 115 103 89 0
14.3800 86.3433 1.3368 0.990 0.001 -0.142 255 255 255 0
15.2612 85.0350 0.6628 0.892 -0.444 -0.088 180 159 134 0
14.3431 86.3237 1.0786 0.990 0.001 -0.142 254 255 255 0
14.3561 86.4756 1.1713 0.990 0.001 -0.142 255 255 255 0
14.3191 86.4563 0.9127 0.990 0.001 -0.142 254 255 255 0
14.3322 86.6083 1.0055 0.990 0.001 -0.142 255 255 255 0
14.2952 86.5890 0.7464 0.990 0.001 -0.142 254 254 255 0
14.3083 86.7411 0.8394 0.990 0.001 -0.142 255 255 255 0
-2.5241 26.3010 -40.6653 0.876 0.453 0.167 233 224 207 0
-2.6477 26.5117 -40.5884 0.876 0.453 0.167 231 222 205 0
14.2711 86.7221 0.5798 0.990 0.001 -0.142 254 254 255 0
14.2843 86.8743 0.6730 0.990 0.001 -0.142 255 254 255 0
-2.5316 26.4060 -40.9115 0.876 0.453 0.167 231 222 205 0
-2.6553 26.6169 -40.8347 0.876 0.453 0.167 231 222 205 0
-10.2377 86.7797 -8.6742 0.519 0.268 0.812 189 177 153 0
14.2471 86.8554 0.4129 0.990 0.001 -0.142 254 254 255 0
14.2602 87.0076 0.5063 0.990 0.001 -0.142 255 254 255 0
-0.5956 57.7382 -22.2742 0.903 -0.194 -0.383 86 39 39 0
16.9740 85.6092 0.4658 0.890 0.456 -0.014 246 246 246 0
22.9876 -2.2850 -48.6780 0.948 0.057 -0.312 235 214 199 0
5.7826 45.1739 -27.4878 0.730 0.655 0.194 133 60 69 0
3.3321 55.8568 -22.1859 0.838 0.522 0.160 88 27 32 0
3.1871 56.0684 -22.1170 0.838 0.522 0.160 88 27 32 0
3.0418 56.2803 -22.0480 0.838 0.522 0.160 92 33 38 0
13.9043 86.1288 -0.6105 0.869 -0.466 -0.163 177 159 139 0
15.2471 86.5567 0.1408 0.867 -0.465 -0.176 254 255 255 0
3.2980 55.9788 -22.4055 0.838 0.522 0.160 87 28 33 0
3.1528 56.1907 -22.3367 0.838 0.522 0.160 87 28 33 0
3.0073 56.4030 -22.2678 0.838 0.522 0.160 90 31 37 0
15.2752 86.6690 -0.0178 0.867 -0.465 -0.176 254 255 255 0
8.7732 46.8428 -26.2079 0.749 0.635 0.190 159 98 103 0
15.3315 86.8940 -0.3355 0.867 -0.465 -0.176 254 255 255 0
0.3863 58.0881 -23.6994 0.848 0.502 0.173 86 35 38 0
0.2424 58.3065 -23.6275 0.848 0.502 0.173 84 35 38 0
8.2698 42.3366 -30.1309 0.545 -0.654 0.525 146 69 75 0
0.3570 58.2149 -23.9237 0.848 0.502 0.173 84 34 37 0
0.2130 58.4336 -23.8519 0.848 0.502 0.173 85 36 39 0
3.6867 71.8451 -14.6416 0.856 -0.133 0.500 207 195 181 0
14.0132 87.9139 -1.1986 0.868 -0.463 -0.176 254 255 255 0
8.3281 42.0441 -30.5562 0.545 -0.654 0.525 142 67 74 0
0.1835 58.5609 -24.0768 0.848 0.502 0.173 84 34 37 0
35.5785 74.2761 -0.9567 0.993 -0.043 -0.114 187 173 159 0
13.4363 88.2699 -1.4569 0.873 -0.456 -0.175 254 255 255 0
13.5229 88.3946 -1.3497 0.873 -0.456 -0.175 254 255 254 0
8.7584 42.5580 -30.3619 0.545 -0.654 0.525 140 63 71 0
3.4406 53.7299 -25.9112 0.449 -0.723 0.525 91 16 27 0
13.4642 88.3856 -1.6198 0.873 -0.456 -0.175 254 255 255 0
9.1855 43.0681 -30.1691 0.545 -0.654 0.525 146 70 77 0
18.9813 -4.7172 -54.6030 0.694 -0.328 0.641 255 255 255 0
4.1429 72.2511 -15.3152 0.856 -0.133 0.500 204 192 180 0
8.7429 42.8790 -31.0106 0.558 -0.612 0.561 128 51 61 0
19.3278 -4.2074 -54.7170 0.694 -0.328 0.641 255 255 255 0
19.2953 -3.5700 -54.3550 0.694 -0.328 0.641 230 217 208 0
18.0483 -4.7342 -55.8256 0.928 -0.257 0.268 255 255 255 0
19.4734 -3.4227 -54.4724 0.694 -0.328 0.641 228 216 207 0
111.7314 39.1860 8.2146 0.604 -0.296 0.740 233 221 209 0
-15.3643 82.0101 -18.3362 0.513 -0.518 0.685 202 191 179 0
13.5678 87.3779 -3.3870 0.335 -0.022 0.942 175 158 143 0
18.1309 -4.6295 -56.0109 0.928 -0.257 0.268 255 255 255 0
10.1895 34.1721 -36.3874 0.965 -0.217 -0.148 106 59 62 0
-14.3365 65.0553 -28.2294 0.701 -0.489 0.519 203 190 175 0
-14.9913 82.7014 -18.0933 0.513 -0.518 0.685 201 189 177 0
-14.9619 82.9064 -17.9604 0.513 -0.518 0.685 201 189 177 0
-14.0870 65.3839 -28.2570 0.701 -0.489 0.519 205 191 178 0
16.9667 -5.2565 -57.4269 0.944 -0.179 -0.278 255 255 255 0
-13.8814 65.4947 -28.4306 0.701 -0.489 0.519 203 191 174 0
19.1369 -3.0255 -55.7680 0.651 -0.720 0.242 230 217 204 0
16.4595 46.8388 -27.3885 0.579 0.463 0.672 121 43 61 0
19.3528 -2.8612 -55.8598 0.651 -0.720 0.242 231 218 205 0
2.3523 57.8988 -27.3437 0.923 -0.374 0.086 83 23 34 0
-1.5983 29.5769 -46.1219 0.871 -0.421 -0.252 234 225 208 0
14.2154 86.5305 -5.5861 0.998 0.053 -0.042 188 174 163 0
14.2107 86.6937 -5.4912 0.998 0.053 -0.042 188 172 162 0
-1.6224 29.6841 -46.3846 0.871 -0.421 -0.252 235 226 209 0
10.1367 89.5721 -5.7791 0.977 -0.080 -0.197 176 160 147 0
11.6206 88.7821 -5.8644 0.977 -0.068 -0.200 184 169 158 0
10.0777 89.5613 -6.0676 0.977 -0.080 -0.197 182 168 157 0
36.5278 43.0541 -22.4987 0.353 -0.059 0.934 104 36 47 0
-14.8344 87.8095 -18.1856 0.965 0.037 -0.260 198 186 172 0
85.9444 46.3341 0.8199 0.311 0.043 0.950 98 30 43 0
5.6361 59.1515 -29.5032 0.570 0.413 0.710 77 28 38 0
5.7668 59.2576 -29.6698 0.570 0.413 0.710 76 29 39 0
17.3654 81.3887 -11.2325 0.307 -0.008 0.952 189 180 165 0
11.7132 40.7116 -38.9164 0.897 -0.323 -0.302 102 41 40 0
6.1582 59.5756 -30.1690 0.570 0.413 0.710 77 30 39 0
4.4787 81.9415 -17.4823 0.479 0.318 0.818 192 183 168 0
11.6681 40.8165 -39.1624 0.897 -0.323 -0.302 98 39 37 0
-0.4732 31.4616 -50.8903 0.311 -0.189 0.931 232 223 206 0
10.5554 40.8900 -39.9372 0.824 -0.244 0.512 99 41 37 0
6.8344 59.3383 -30.5741 0.570 0.413 0.710 76 31 37 0
10.6883 41.0015 -40.0980 0.824 -0.244 0.512 94 38 31 0
10.6758 41.2052 -39.9809 0.824 -0.244 0.512 96 37 34 0
11.8542 41.4387 -39.2747 0.897 -0.323 -0.302 99 39 38 0
20.9457 86.6296 -7.6066 0.968 -0.190 -0.162 182 169 160 0
10.8211 41.1130 -40.2586 0.824 -0.244 0.512 95 40 33 0
20.9858 86.8891 -7.6715 0.968 -0.190 -0.162 180 167 159 0
10.9538 41.2244 -40.4191 0.824 -0.244 0.512 94 40 34 0
13.3540 41.4882 -39.0960 0.896 -0.321 -0.305 95 39 35 0
17.7653 88.6663 -8.3980 0.952 -0.233 0.197 179 167 157 0
11.0864 41.3357 -40.5795 0.824 -0.244 0.512 91 36 32 0
13.3080 41.5928 -39.3412 0.896 -0.321 -0.305 93 37 34 0
17.8233 88.7695 -8.5565 0.952 -0.233 0.197 177 166 158 0
11.2190 41.4470 -40.7398 0.824 -0.244 0.512 90 37 32 0
13.2619 41.6977 -39.5870 0.896 -0.321 -0.305 93 38 35 0
13.3993 41.9004 -39.3968 0.896 -0.321 -0.305 96 39 38 0
13.5363 42.1024 -39.2072 0.896 -0.321 -0.305 102 44 45 0
17.8813 88.8727 -8.7151 0.952 -0.233 0.197 176 165 158 0
-0.0664 33.5622 -51.3762 0.259 -0.217 0.941 223 211 181 0
8.9746 41.5013 -42.1050 0.907 -0.015 0.420 88 37 32 0
13.2156 41.8029 -39.8334 0.896 -0.321 -0.305 90 36 33 0
13.3533 42.0056 -39.6425 0.896 -0.321 -0.305 91 36 34 0
13.4906 42.2077 -39.4523 0.896 -0.321 -0.305 93 37 36 0
13.6274 42.4092 -39.2627 0.896 -0.321 -0.305 95 40 38 0
17.9393 88.9759 -8.8737 0.952 -0.233 0.197 175 164 158 0
14.6655 90.5206 -9.5483 0.988 -0.132 0.085 176 164 155 0
0.2874 33.7065 -51.4404 0.259 -0.217 0.941 225 211 175 0
9.1077 41.4068 -42.3958 0.907 -0.015 0.420 87 38 34 0
9.0631 41.6136 -42.2922 0.907 -0.015 0.420 88 38 34 0
9.0186 41.8204 -42.1886 0.907 -0.015 0.420 87 36 32 0
13.3072 42.1111 -39.8889 0.896 -0.321 -0.305 88 36 33 0
13.4447 42.3133 -39.6980 0.896 -0.321 -0.305 90 37 34 0
9.9528 34.4244 -46.5207 0.251 0.124 0.960 225 209 163 0
0.6398 33.8502 -51.5044 0.259 -0.217 0.941 221 208 163 0
9.1962 41.5192 -42.5830 0.907 -0.015 0.420 86 38 33 0
9.1516 41.7260 -42.4794 0.907 -0.015 0.420 85 37 32 0
9.1071 41.9328 -42.3758 0.907 -0.015 0.420 86 37 33 0
9.2402 41.8384 -42.6667 0.907 -0.015 0.420 84 37 32 0
9.1956 42.0452 -42.5631 0.907 -0.015 0.420 85 37 33 0
10.5781 35.0034 -46.7590 0.251 0.124 0.960 213 192 105 0
83.7952 54.7115 2.2661 0.907 -0.333 -0.258 199 189 179 0
10.9686 33.2349 -48.5470 0.275 0.066 0.959 230 214 98 0
8.7897 36.4641 -47.6912 0.417 -0.519 0.746 206 184 75 0
5.8798 32.1800 -52.1218 0.745 -0.598 0.296 230 214 100 0
11.4026 33.1691 -48.6669 0.275 0.066 0.959 232 217 97 0
11.2367 33.3648 -48.6328 0.275 0.066 0.959 231 218 95 0
10.2368 36.8800 -46.9976 0.416 -0.518 0.748 208 187 76 0
10.2527 37.0920 -46.8597 0.416 -0.518 0.748 205 184 74 0
11.6694 33.2987 -48.7524 0.275 0.066 0.959 233 219 93 0
11.9353 33.4279 -48.8375 0.275 0.066 0.959 234 221 89 0
11.2570 34.1032 -49.0813 0.279 0.063 0.958 234 217 81 0
6.5254 34.9994 -51.0104 0.951 0.029 0.308 227 211 73 0
2.6949 36.9595 -51.8145 0.414 -0.534 0.737 210 192 67 0
-5.3633 36.7149 -56.1864 0.749 -0.576 0.327 207 188 64 0
12.0744 46.3177 -41.1582 0.825 -0.556 -0.098 70 25 26 0
12.4647 33.6851 -49.0070 0.275 0.066 0.959 235 221 83 0
-5.0857 37.0933 -56.1554 0.749 -0.576 0.327 207 187 63 0
4.8170 38.5264 -50.0607 0.646 -0.716 0.266 198 177 66 0
12.1253 46.4284 -41.3593 0.825 -0.556 -0.098 67 24 25 0
4.4654 59.1896 -37.5553 0.890 0.218 0.401 58 25 29 0
12.6468 47.1301 -40.9483 0.825 -0.556 -0.098 66 24 27 0
12.8026 47.3256 -40.7457 0.825 -0.556 -0.098 66 24 27 0
12.9578 47.5204 -40.5437 0.825 -0.556 -0.098 66 24 27 0
11.6976 47.9599 -40.9405 0.826 -0.556 -0.092 66 24 27 0
12.8283 34.1356 -49.1423 0.275 0.066 0.959 236 223 80 0
9.9530 40.2565 -46.9055 0.960 -0.075 0.270 174 154 60 0
9.9356 40.4662 -46.7857 0.960 -0.075 0.270 167 148 58 0
12.4747 47.0461 -41.3867 0.757 0.101 0.646 67 27 27 0
12.8534 47.4360 -40.9454 0.825 -0.556 -0.098 66 26 27 0
11.7503 48.0715 -41.1411 0.826 -0.556 -0.092 65 24 26 0
4.2175 58.6497 -38.6392 0.931 -0.267 -0.248 54 23 28 0
13.6736 34.3153 -48.8823 0.366 0.417 0.832 237 225 79 0
6.3279 38.2822 -50.3661 0.630 -0.721 0.290 210 192 63 0
9.9841 40.7883 -46.8682 0.960 -0.075 0.270 163 147 56 0
12.4354 46.9585 -41.7580 0.825 -0.556 -0.098 63 26 24 0
12.9042 47.5464 -41.1452 0.825 -0.556 -0.098 68 31 30 0
11.6486 47.9871 -41.5451 0.826 -0.556 -0.092 65 26 28 0
11.8030 48.1831 -41.3418 0.826 -0.556 -0.092 64 26 26 0
2.3645 59.0020 -39.7247 0.834 -0.498 0.237 52 23 26 0
6.7981 58.6661 -37.5614 0.902 -0.353 -0.249 54 25 28 0
7.3033 39.5263 -49.3935 0.630 -0.721 0.290 194 179 59 0
12.9551 47.6570 -41.3452 0.825 -0.556 -0.098 63 28 26 0
12.4476 47.8730 -41.4847 0.757 0.101 0.646 61 27 25 0
12.3555 48.0765 -41.4088 0.757 0.101 0.646 62 27 25 0
11.8558 48.2948 -41.5427 0.826 -0.556 -0.092 61 26 24 0
2.4847 59.1168 -39.9066 0.834 -0.498 0.237 53 24 27 0
11.5212 39.1798 -47.6455 0.600 -0.739 0.306 207 189 61 0
11.6759 39.3954 -47.4290 0.600 -0.739 0.306 203 187 62 0
11.8300 39.6102 -47.2133 0.600 -0.739 0.306 198 183 60 0
10.0983 41.2233 -47.1531 0.960 -0.075 0.270 158 146 53 0
12.4801 48.1852 -41.5718 0.757 0.101 0.646 61 27 24 0
11.9086 48.4066 -41.7437 0.826 -0.556 -0.092 60 27 22 0
2.3835 58.6271 -40.5809 0.834 -0.498 0.237 52 24 28 0
2.4574 58.8290 -40.4164 0.834 -0.498 0.237 52 23 28 0
2.5312 59.0304 -40.2523 0.834 -0.498 0.237 56 27 31 0
11.8815 39.5125 -47.5498 0.600 -0.739 0.306 203 189 59 0
12.0351 39.7268 -47.3341 0.600 -0.739 0.306 198 185 58 0
12.1882 39.9405 -47.1191 0.600 -0.739 0.306 196 184 60 0
2.4300 58.5402 -40.9280 0.834 -0.498 0.237 51 25 29 0
2.5040 58.7423 -40.7631 0.834 -0.498 0.237 51 24 28 0
2.5778 58.9440 -40.5985 0.834 -0.498 0.237 53 25 29 0
9.4783 31.3122 -54.2336 0.764 0.525 0.374 233 225 93 0
12.3713 32.2799 -52.0579 0.895 0.314 0.317 239 226 87 0
-0.9952 32.7489 -59.0570 0.449 0.437 0.779 238 231 76 0
12.0867 39.6293 -47.6703 0.600 -0.739 0.306 203 193 58 0
12.2399 39.8433 -47.4546 0.600 -0.739 0.306 198 188 57 0
12.3924 40.0565 -47.2396 0.600 -0.739 0.306 196 185 59 0
2.5506 58.6555 -41.1104 0.834 -0.498 0.237 49 24 28 0
2.6244 58.8574 -40.9453 0.834 -0.498 0.237 52 26 30 0
-1.9214 89.0662 -24.7520 0.865 0.427 0.261 187 177 167 0
-1.0553 33.0977 -59.2181 0.449 0.437 0.779 239 232 79 0
10.2260 37.9645 -50.0247 0.914 -0.074 -0.400 223 213 65 0
2.6712 58.7707 -41.2927 0.834 -0.498 0.237 51 26 31 0
4.4152 58.7695 -40.3377 0.836 -0.494 0.238 53 27 32 0
4.4864 58.9683 -40.1757 0.836 -0.494 0.238 54 28 32 0
-1.9298 89.2201 -24.9758 0.865 0.427 0.261 185 177 166 0
2.7180 58.6838 -41.6406 0.834 -0.498 0.237 47 26 28 0
2.7917 58.8859 -41.4749 0.834 -0.498 0.237 48 25 28 0
3.0850 59.6901 -40.8153 0.834 -0.498 0.237 52 31 33 0
2.9855 59.2025 -41.4916 0.834 -0.498 0.237 49 28 30 0
3.0588 59.4037 -41.3263 0.834 -0.498 0.237 50 29 31 0
3.1319 59.6044 -41.1615 0.834 -0.498 0.237 51 32 31 0
10.4066 42.9482 -47.7683 0.960 -0.075 0.270 128 120 49 0
-3.3620 60.3460 -44.6327 0.820 -0.443 0.363 51 31 34 0
9.5394 34.9075 -54.8304 0.885 0.077 0.460 243 239 88 0
11.1057 34.7114 -54.3762 0.782 -0.623 -0.021 244 238 86 0
9.6984 34.8108 -55.1200 0.885 0.077 0.460 245 240 88 0
29.1034 40.3694 -40.5408 0.430 0.379 0.819 221 213 63 0
11.2773 34.9402 -54.7681 0.782 -0.623 -0.021 245 239 89 0
15.7417 41.7651 -48.2227 0.759 -0.566 0.323 192 192 58 0
15.7301 41.4669 -48.7180 0.759 -0.566 0.323 200 198 57 0
15.8087 41.6716 -48.5439 0.759 -0.566 0.323 197 196 56 0
15.8871 41.8758 -48.3703 0.759 -0.566 0.323 192 192 58 0
13.3927 43.6771 -48.6983 0.570 -0.787 0.235 155 157 58 0
62.8870 66.6257 -5.4395 0.911 -0.306 -0.277 186 178 168 0
2.5855 100.7466 -19.2709 0.477 0.156 0.865 175 164 157 0
8.2095 36.1269 -56.7781 0.774 0.630 0.056 250 243 101 0
15.9542 41.7825 -48.6914 0.759 -0.566 0.323 197 195 57 0
16.0324 41.9865 -48.5177 0.759 -0.566 0.323 193 193 59 0
2.8223 100.7903 -19.4092 0.477 0.156 0.865 175 163 157 0
6.2107 35.4235 -58.7247 0.997 -0.051 -0.052 245 240 89 0
8.1438 36.2340 -57.0771 0.774 0.630 0.056 249 243 98 0
16.0996 41.8932 -48.8388 0.759 -0.566 0.323 197 195 59 0
16.1776 42.0970 -48.6650 0.759 -0.566 0.323 193 193 59 0
6.9134 49.1804 -50.0043 0.639 -0.713 0.288 27 98 56 0
4.7853 57.2160 -46.2184 0.796 0.600 0.083 30 48 34 0
8.8693 38.2653 -56.0260 0.471 -0.793 0.385 240 235 91 0
9.0488 38.4933 -55.7759 0.471 -0.793 0.385 239 234 89 0
9.2276 38.7204 -55.5268 0.471 -0.793 0.385 237 232 86 0
6.3077 55.9198 -46.4535 0.802 0.594 0.068 22 85 51 0
6.1359 56.1472 -46.4128 0.802 0.594 0.068 21 81 48 0
5.9637 56.3751 -46.3720 0.802 0.594 0.068 25 81 50 0
5.7911 56.6034 -46.3311 0.802 0.594 0.068 24 75 46 0
5.6182 56.8323 -46.2902 0.802 0.594 0.068 24 70 44 0
5.4449 57.0616 -46.2491 0.802 0.594 0.068 24 65 41 0
4.1011 57.4202 -46.8231 0.799 0.597 0.063 23 63 39 0
8.6081 37.7048 -56.8611 0.471 -0.793 0.385 241 236 83 0
8.9690 38.1641 -56.3565 0.471 -0.793 0.385 242 235 91 0
12.2425 43.1917 -51.2372 0.630 -0.716 0.301 175 181 58 0
12.3794 43.4018 -51.0232 0.630 -0.716 0.301 171 177 58 0
0.5033 66.3876 -43.6604 0.759 -0.625 0.180 167 168 168 0
12.4337 43.3060 -51.3650 0.630 -0.716 0.301 175 181 58 0
12.5702 43.5158 -51.1510 0.630 -0.716 0.301 172 177 59 0
21.4812 51.4996 -40.7727 0.135 0.051 0.990 19 99 52 0
20.8990 63.0216 -33.8668 0.984 0.111 -0.139 170 170 170 0
2.6767 57.1064 -48.8679 0.801 0.595 0.059 18 94 53 0
2.4984 57.3422 -48.8268 0.801 0.595 0.059 17 95 53 0
2.3197 57.5785 -48.7857 0.801 0.595 0.059 17 96 53 0
15.0904 60.7257 -39.3951 0.775 -0.502 0.384 61 105 81 0
13.8648 61.4199 -40.0013 0.944 -0.329 -0.003 45 101 74 0
13.9289 61.6025 -39.8469 0.944 -0.329 -0.003 49 101 77 0
13.9929 61.7849 -39.6928 0.944 -0.329 -0.003 51 103 80 0
14.0567 61.9668 -39.5390 0.944 -0.329 -0.003 57 107 84 0
13.5385 61.9809 -40.1483 0.945 -0.325 0.021 44 106 78 0
13.5982 62.1644 -39.9957 0.945 -0.325 0.021 46 108 79 0
14.2241 62.4462 -39.4347 0.944 -0.329 -0.003 47 108 81 0
14.2876 62.6271 -39.2815 0.944 -0.329 -0.003 48 109 83 0
16.2067 42.2594 -51.2889 0.993 -0.114 -0.019 207 202 61 0
10.9932 45.3490 -52.5386 0.367 0.414 0.833 117 131 51 0
13.7620 62.6468 -39.8928 0.945 -0.325 0.021 41 110 78 0
9.4559 91.7532 -24.1245 0.703 0.625 0.337 180 169 163 0
25.9950 42.1684 -45.6105 0.907 -0.281 -0.313 214 209 62 0
15.7224 42.3598 -51.8325 0.942 0.327 0.077 207 203 61 0
13.8065 62.7634 -40.0943 0.945 -0.325 0.021 35 112 74 0
16.1114 62.9407 -38.5589 0.775 -0.502 0.384 37 113 76 0
11.0337 71.5819 -36.2219 0.931 0.364 -0.018 187 186 182 0
12.1636 71.0602 -36.1576 0.934 0.356 -0.040 183 182 178 0
9.2791 71.9469 -37.3849 0.934 0.356 -0.028 184 183 179 0
69.6506 64.9092 -4.5376 0.771 0.498 0.397 187 178 171 0
4.4175 38.1853 -62.4937 0.759 -0.255 0.599 241 235 92 0
22.6410 50.9110 -43.0025 0.898 -0.292 -0.329 18 114 61 0
12.1538 71.5143 -36.4833 0.934 0.354 -0.052 173 185 174 0
4.6120 38.0836 -62.7831 0.759 -0.255 0.599 241 236 89 0
12.8779 45.4869 -52.8780 0.365 0.404 0.839 119 137 52 0
15.4006 44.9583 -51.9395 0.359 -0.118 0.926 137 155 51 0
5.8017 71.3282 -41.2254 0.574 -0.418 0.704 64 125 89 0
15.6516 45.0686 -52.0227 0.359 -0.118 0.926 136 154 53 0
13.6798 45.2913 -53.1325 0.365 0.404 0.839 125 147 51 0
16.0038 44.9739 -52.1713 0.359 -0.118 0.926 142 157 55 0
14.0779 45.1942 -53.2588 0.365 0.404 0.839 132 152 54 0
15.9843 45.2897 -52.2946 0.862 0.335 0.382 126 147 54 0
20.1516 47.5895 -48.1578 0.975 -0.185 0.121 37 117 62 0
-0.9868 57.9216 -55.1042 0.507 0.355 0.786 11 109 58 0
15.0663 63.9220 -40.9930 0.622 -0.470 0.626 25 109 65 0
21.1548 66.9315 -35.1727 0.946 -0.110 -0.304 48 114 78 0
6.4534 88.1786 -31.0310 0.809 0.574 0.126 190 180 175 0
16.2478 44.9918 -52.6283 0.862 0.335 0.382 144 157 57 0
16.1409 45.1965 -52.5664 0.862 0.335 0.382 133 150 54 0
16.0339 45.4013 -52.5044 0.862 0.335 0.382 121 141 53 0
13.8352 46.0480 -53.5060 0.917 -0.348 0.194 83 121 49 0
6.3655 88.3588 -31.2869 0.809 0.574 0.126 190 183 177 0
16.4043 44.8987 -52.8998 0.862 0.335 0.382 153 162 59 0
16.2975 45.1032 -52.8381 0.862 0.335 0.382 143 155 58 0
16.1906 45.3080 -52.7763 0.862 0.335 0.382 132 147 55 0
16.0835 45.5130 -52.7144 0.862 0.335 0.382 119 138 53 0
13.8744 45.9546 -53.8598 0.917 -0.348 0.194 94 124 50 0
13.9189 46.1615 -53.6988 0.917 -0.348 0.194 81 120 50 0
14.4568 58.4477 -45.4960 0.796 0.596 0.102 15 113 62 0
15.9184 43.9877 -54.1116 0.840 0.425 0.337 184 186 64 0
16.2403 45.4196 -52.9863 0.862 0.335 0.382 130 145 55 0
13.9138 45.8611 -54.2142 0.917 -0.348 0.194 106 131 53 0
15.8270 44.3051 -54.2840 0.840 0.425 0.337 177 181 63 0
16.5038 45.1214 -53.3197 0.862 0.335 0.382 147 153 58 0
16.3969 45.3263 -53.2581 0.862 0.335 0.382 136 147 58 0
13.9977 45.9748 -54.4074 0.917 -0.348 0.194 100 128 53 0
14.0421 46.1819 -54.2458 0.917 -0.348 0.194 88 124 53 0
14.6777 45.2501 -54.7477 0.836 0.420 0.353 147 152 62 0
13.9480 45.4655 -55.0876 0.917 -0.348 0.194 133 146 61 0
14.0371 45.8812 -54.7627 0.917 -0.348 0.194 108 132 57 0
14.0816 46.0885 -54.6007 0.917 -0.348 0.194 97 129 56 0
16.3518 44.3231 -54.5614 0.932 0.162 -0.325 176 179 64 0
15.6433 44.9425 -54.6300 0.840 0.425 0.337 158 162 63 0
15.5183 45.1495 -54.5794 0.840 0.425 0.337 151 155 63 0
14.7147 45.3638 -54.9707 0.836 0.420 0.353 144 150 64 0
14.0322 45.5795 -55.2814 0.917 -0.348 0.194 131 144 63 0
14.0767 45.7874 -55.1187 0.917 -0.348 0.194 118 138 63 0
13.3058 46.2176 -55.3499 0.888 -0.410 0.207 94 131 59 0
18.0146 44.2298 -53.8388 0.940 0.130 -0.316 180 183 69 0
15.6762 45.0553 -54.8541 0.840 0.425 0.337 155 160 65 0
14.8782 45.2688 -55.2445 0.836 0.420 0.353 147 152 64 0
14.7518 45.4776 -55.1939 0.836 0.420 0.353 141 148 67 0
14.6252 45.6868 -55.1432 0.836 0.420 0.353 130 144 70 0
13.2896 45.9144 -55.8798 0.888 -0.410 0.207 117 139 68 0
17.8905 44.3401 -54.1627 0.940 0.130 -0.316 179 181 72 0
17.9107 44.5427 -54.0191 0.940 0.130 -0.316 173 176 69 0
17.9308 44.7450 -53.8756 0.940 0.130 -0.316 168 171 70 0
15.7092 45.1681 -55.0786 0.840 0.425 0.337 154 158 69 0
15.5840 45.3756 -55.0283 0.840 0.425 0.337 146 152 69 0
14.7889 45.5915 -55.4173 0.836 0.420 0.353 139 149 72 0
12.0739 71.7262 -40.4140 0.659 -0.173 0.732 46 117 75 0
19.3417 44.0474 -53.6968 0.943 0.131 -0.307 189 188 79 0
17.7660 44.4508 -54.4880 0.940 0.130 -0.316 177 179 79 0
17.7862 44.6537 -54.3438 0.940 0.130 -0.316 170 173 78 0
17.8064 44.8564 -54.1999 0.940 0.130 -0.316 166 169 79 0
15.7422 45.2811 -55.3032 0.840 0.425 0.337 155 159 79 0
14.9525 45.4964 -55.6913 0.836 0.420 0.353 149 157 83 0
14.8260 45.7056 -55.6410 0.836 0.420 0.353 140 155 86 0
12.1973 72.0215 -40.4553 0.659 -0.173 0.732 47 119 76 0
17.6409 44.5620 -54.8146 0.940 0.130 -0.316 176 178 88 0
17.6613 44.7653 -54.6700 0.940 0.130 -0.316 170 172 88 0
17.6816 44.9683 -54.5255 0.940 0.130 -0.316 166 168 90 0
16.0974 45.1850 -55.4471 0.841 0.408 0.356 162 164 90 0
15.7752 45.3943 -55.5282 0.840 0.425 0.337 157 160 90 0
14.9897 45.6104 -55.9151 0.836 0.420 0.353 139 149 83 0
19.1205 44.4664 -54.1961 0.943 0.131 -0.307 182 181 93 0
19.1387 44.6672 -54.0544 0.943 0.131 -0.307 175 176 95 0
17.7972 44.8757 -54.8225 0.938 0.143 -0.316 170 171 95 0
17.5563 45.0807 -54.8525 0.940 0.130 -0.316 166 168 96 0
16.1362 45.2978 -55.6680 0.841 0.408 0.356 163 164 98 0
15.8083 45.5075 -55.7533 0.840 0.425 0.337 143 146 85 0
12.5504 72.2004 -40.7306 0.659 -0.173 0.732 45 118 75 0
20.5793 43.9761 -53.8386 0.444 -0.469 0.763 195 192 95 0
20.5744 44.1747 -53.7137 0.444 -0.469 0.763 192 189 96 0
20.5694 44.3732 -53.5889 0.444 -0.469 0.763 187 185 97 0
19.0002 44.5765 -54.5182 0.943 0.131 -0.307 183 181 99 0
17.6687 44.9879 -55.1524 0.938 0.143 -0.316 170 170 101 0
17.6858 45.1912 -55.0097 0.938 0.143 -0.316 162 163 99 0
16.1749 45.4107 -55.8890 0.841 0.408 0.356 145 147 87 0
16.0527 45.6182 -55.8377 0.841 0.408 0.356 128 133 78 0
9.8671 73.5999 -41.9546 0.433 0.145 0.890 59 121 85 0
7.3136 75.0577 -42.7393 0.724 -0.009 0.689 118 152 132 0
20.8162 44.2827 -53.7881 0.444 -0.469 0.763 190 188 103 0
18.8794 44.6869 -54.8416 0.943 0.131 -0.307 182 180 108 0
17.5396 45.1006 -55.4837 0.938 0.143 -0.316 155 155 95 0
17.5568 45.3043 -55.3405 0.938 0.143 -0.316 144 145 88 0
17.5740 45.5077 -55.1974 0.938 0.143 -0.316 133 138 84 0
36.5076 64.4269 -30.1199 0.596 -0.256 0.761 27 108 65 0
12.9025 72.3788 -41.0050 0.659 -0.173 0.732 44 116 74 0
10.0875 73.6804 -42.0748 0.433 0.145 0.890 57 119 84 0
9.9217 73.9192 -42.0330 0.433 0.145 0.890 60 121 87 0
7.4668 75.1581 -42.8989 0.724 -0.009 0.689 121 153 135 0
84.7874 56.6150 -2.3949 0.787 0.572 0.231 191 191 186 0
66.6660 67.6999 -7.5332 0.158 0.296 0.942 184 177 169 0
21.0574 44.3904 -53.8622 0.444 -0.469 0.763 185 183 109 0
21.0523 44.5882 -53.7377 0.444 -0.469 0.763 179 177 108 0
18.7951 45.2012 -54.8802 0.943 0.131 -0.307 143 144 92 0
18.8135 45.4026 -54.7374 0.943 0.131 -0.307 140 143 93 0
21.5028 46.7431 -52.0368 0.713 0.695 0.096 75 157 98 0
94.8472 48.8806 -0.6479 0.653 0.716 0.246 12 114 63 0
16.7167 70.9858 -39.6197 0.679 -0.675 0.287 38 113 70 0
13.0781 72.4679 -41.1419 0.659 -0.173 0.732 43 115 73 0
10.3074 73.7607 -42.1948 0.433 0.145 0.890 57 120 85 0
9.9763 74.2386 -42.1115 0.433 0.145 0.890 69 122 93 0
7.6199 75.2583 -43.0584 0.724 -0.009 0.689 124 154 138 0
7.5391 75.4795 -42.9705 0.724 -0.009 0.689 137 156 145 0
82.7983 58.0500 -2.9321 0.720 0.663 0.203 195 190 187 0
21.2927 44.6953 -53.8119 0.444 -0.469 0.763 159 158 98 0
22.3786 46.6362 -51.8116 0.720 0.688 0.093 91 168 112 0
22.1890 46.8347 -51.8129 0.720 0.688 0.093 79 166 108 0
13.2535 72.5567 -41.2786 0.659 -0.173 0.732 44 117 74 0
10.5268 73.8409 -42.3145 0.433 0.145 0.890 57 119 85 0
10.3619 74.0794 -42.2730 0.433 0.145 0.890 63 120 88 0
10.1965 74.3184 -42.2315 0.433 0.145 0.890 70 122 95 0
10.0309 74.5579 -42.1899 0.433 0.145 0.890 101 141 121 0
7.7729 75.3585 -43.2178 0.724 -0.009 0.689 129 155 141 0
7.6921 75.5796 -43.1300 0.724 -0.009 0.689 144 161 151 0
21.5271 44.9991 -53.7617 0.444 -0.469 0.763 155 156 105 0
25.5463 51.3159 -46.9035 0.957 0.123 -0.264 25 130 77 0
16.9437 70.8164 -40.1828 0.674 -0.677 0.297 38 114 68 0
12.5705 73.4422 -41.4890 0.418 0.101 0.903 58 120 86 0
11.3625 73.9529 -41.9889 0.419 0.098 0.903 64 120 90 0
10.4163 74.3980 -42.3513 0.433 0.145 0.890 73 122 98 0
10.2510 74.6374 -42.3098 0.433 0.145 0.890 105 143 125 0
7.9869 75.4421 -43.3456 0.730 0.004 0.683 132 156 144 0
7.8450 75.6796 -43.2893 0.724 -0.009 0.689 148 162 155 0
21.7607 45.3018 -53.7116 0.444 -0.469 0.763 161 168 123 0
24.1406 46.8075 -51.0907 0.922 -0.308 -0.234 88 169 114 0
12.7946 73.5183 -41.6015 0.418 0.101 0.903 58 121 86 0
11.5894 74.0295 -42.1025 0.419 0.098 0.903 65 122 92 0
11.4355 74.2639 -42.0567 0.419 0.098 0.903 77 125 102 0
10.4707 74.7166 -42.4295 0.433 0.145 0.890 112 146 130 0
7.9978 75.7795 -43.4484 0.724 -0.009 0.689 150 165 158 0
6.4522 76.4017 -44.1125 0.774 0.205 0.599 163 176 169 0
24.1136 46.9149 -51.3391 0.922 -0.308 -0.234 87 168 116 0
24.0860 52.9462 -47.4419 0.854 -0.127 0.505 19 135 75 0
24.0544 53.1350 -47.3412 0.854 -0.127 0.505 19 135 75 0
10.6900 74.7958 -42.5490 0.433 0.145 0.890 117 150 136 0
8.1504 75.8793 -43.6074 0.724 -0.009 0.689 154 168 161 0
6.5639 76.5144 -44.2957 0.774 0.205 0.599 163 175 170 0
76.6367 61.8431 -5.2034 0.571 0.541 0.618 190 186 182 0
64.0733 67.5021 -10.2457 0.575 0.545 0.610 188 179 174 0
23.9726 46.8344 -51.7897 0.922 -0.308 -0.234 122 176 135 0
24.0866 47.0226 -51.5880 0.922 -0.308 -0.234 89 169 120 0
24.2003 47.2101 -51.3869 0.922 -0.308 -0.234 77 167 116 0
24.3510 52.1035 -48.1013 0.854 -0.127 0.505 31 155 93 0
23.4178 56.0956 -46.1568 0.840 -0.123 0.529 17 124 70 0
23.9453 46.9423 -52.0399 0.922 -0.308 -0.234 131 181 142 0
24.0595 47.1305 -51.8375 0.922 -0.308 -0.234 91 168 120 0
24.1733 47.3181 -51.6357 0.922 -0.308 -0.234 78 166 115 0
24.4581 52.2051 -48.2569 0.854 -0.127 0.505 41 165 103 0
24.4266 52.3939 -48.1562 0.854 -0.127 0.505 40 164 101 0
24.3950 52.5827 -48.0554 0.854 -0.127 0.505 38 162 100 0
24.3634 52.7715 -47.9547 0.854 -0.127 0.505 35 160 97 0
24.3319 52.9603 -47.8540 0.854 -0.127 0.505 33 158 95 0
28.1933 52.8010 -45.2549 0.805 -0.340 0.487 26 152 89 0
28.1969 52.9793 -45.1365 0.805 -0.340 0.487 25 149 87 0
28.2005 53.1573 -45.0181 0.805 -0.340 0.487 23 147 85 0
28.2041 53.3352 -44.8999 0.805 -0.340 0.487 20 141 80 0
28.2077 53.5130 -44.7817 0.805 -0.340 0.487 17 138 79 0
28.2112 53.6906 -44.6637 0.805 -0.340 0.487 20 139 81 0
28.2148 53.8680 -44.5457 0.805 -0.340 0.487 19 138 79 0
23.7962 56.1642 -46.1443 0.854 -0.127 0.505 19 127 73 0
23.7648 56.3524 -46.0439 0.854 -0.127 0.505 19 126 72 0
23.7333 56.5406 -45.9435 0.854 -0.127 0.505 20 126 72 0
14.1265 72.9992 -41.9592 0.659 -0.173 0.732 43 115 75 0
36.0697 36.7051 -50.4860 0.431 -0.080 0.899 237 233 217 0
22.3452 46.8996 -53.4943 0.720 0.688 0.093 183 212 178 0
22.1543 47.0997 -53.4981 0.720 0.688 0.093 143 190 152 0
24.1463 47.4263 -51.8852 0.922 -0.308 -0.234 80 167 113 0
24.5652 52.3066 -48.4125 0.854 -0.127 0.505 38 165 101 0
24.5337 52.4954 -48.3117 0.854 -0.127 0.505 38 165 101 0
24.5021 52.6842 -48.2110 0.854 -0.127 0.505 39 166 102 0
24.4705 52.8729 -48.1102 0.854 -0.127 0.505 39 165 101 0
29.2025 52.6395 -44.9360 0.791 -0.367 0.489 40 166 103 0
29.2099 52.8157 -44.8160 0.791 -0.367 0.489 40 165 103 0
28.3198 53.0747 -45.2731 0.805 -0.340 0.487 41 164 103 0
28.3233 53.2526 -45.1547 0.805 -0.340 0.487 40 161 100 0
28.3269 53.4304 -45.0364 0.805 -0.340 0.487 35 157 96 0
28.3304 53.6081 -44.9183 0.805 -0.340 0.487 34 156 95 0
28.7319 53.7458 -44.5463 0.801 -0.357 0.481 31 153 92 0
28.3374 53.9629 -44.6822 0.805 -0.340 0.487 28 150 89 0
28.3409 54.1400 -44.5644 0.805 -0.340 0.487 26 149 87 0
22.4667 46.8105 -53.7740 0.720 0.688 0.093 195 212 184 0
22.2760 47.0105 -53.7783 0.720 0.688 0.093 186 211 180 0
22.0847 47.2112 -53.7825 0.720 0.688 0.093 152 193 158 0
24.6408 52.5968 -48.4672 0.854 -0.127 0.505 36 164 100 0
30.1210 52.6627 -44.5553 0.799 -0.357 0.484 36 162 100 0
30.1275 52.8374 -44.4369 0.799 -0.357 0.484 39 163 102 0
30.1339 53.0119 -44.3185 0.799 -0.357 0.484 41 163 102 0
30.1404 53.1863 -44.2003 0.799 -0.357 0.484 42 164 103 0
30.1468 53.3605 -44.0822 0.799 -0.357 0.484 41 164 104 0
30.1532 53.5346 -43.9642 0.799 -0.357 0.484 39 163 102 0
30.1596 53.7085 -43.8463 0.799 -0.357 0.484 38 163 101 0
30.1661 53.8823 -43.7285 0.799 -0.357 0.484 39 164 101 0
31.0521 56.8770 -41.1507 0.516 -0.055 0.855 15 127 71 0
20.7358 72.9452 -37.9592 0.628 -0.725 0.281 161 174 166 0
2.1878 81.4394 -45.5163 0.996 0.064 -0.059 182 184 183 0
22.2065 47.1219 -54.0631 0.720 0.688 0.093 189 213 183 0
22.0148 47.3230 -54.0678 0.720 0.688 0.093 159 196 163 0
24.7478 52.6982 -48.6226 0.854 -0.127 0.505 37 160 99 0
30.2498 52.9309 -44.5697 0.799 -0.357 0.484 38 162 102 0
30.2626 53.2796 -44.3331 0.799 -0.357 0.484 38 161 102 0
31.7692 53.3062 -43.2475 0.850 -0.464 0.249 38 160 101 0
31.8181 53.4731 -43.1039 0.850 -0.464 0.249 38 160 101 0
30.2817 53.8015 -43.9790 0.799 -0.357 0.484 38 162 102 0
30.2880 53.9751 -43.8612 0.799 -0.357 0.484 38 163 101 0
2.1676 81.3901 -45.9103 0.996 0.064 -0.059 180 182 181 0
2.1620 81.5991 -45.7779 0.996 0.064 -0.059 181 183 182 0
21.9447 47.4352 -54.3540 0.720 0.688 0.093 164 200 168 0
31.8147 53.2333 -43.5386 0.850 -0.464 0.249 37 159 104 0
31.8637 53.4004 -43.3946 0.850 -0.464 0.249 39 156 101 0
31.9613 53.7336 -43.1074 0.850 -0.464 0.249 38 159 101 0
32.0100 53.8997 -42.9643 0.850 -0.464 0.249 37 161 101 0
37.6441 59.1637 -35.5140 0.298 -0.015 0.954 15 122 70 0
17.2066 73.0838 -40.9750 0.335 0.001 0.942 57 119 85 0
2.1361 81.7591 -46.0401 0.996 0.064 -0.059 180 182 181 0
21.3146 47.3685 -55.1587 0.713 0.695 0.096 193 215 187 0
21.1170 47.5722 -55.1668 0.713 0.695 0.096 173 206 176 0
19.9242 54.3161 -51.6106 0.542 -0.206 0.814 41 156 105 0
41.4677 57.4021 -34.1860 0.935 -0.139 0.326 19 132 75 0
26.8120 62.2024 -41.5286 0.837 0.530 0.139 18 120 70 0
26.6798 62.4019 -41.4927 0.837 0.530 0.139 17 121 70 0
18.7162 95.3699 -25.6329 0.946 -0.035 0.323 159 146 140 0
17.3404 96.7075 -25.7422 0.926 0.378 -0.019 153 142 136 0
21.0453 47.6860 -55.4574 0.713 0.695 0.096 179 209 180 0
20.0640 54.6137 -51.6283 0.542 -0.206 0.814 46 158 106 0
20.0060 54.8137 -51.5390 0.542 -0.206 0.814 44 157 103 0
16.4351 46.7120 -59.7353 0.899 -0.382 -0.214 208 221 199 0
20.3193 54.5112 -51.8243 0.542 -0.206 0.814 46 160 105 0
20.2614 54.7110 -51.7351 0.542 -0.206 0.814 44 158 102 0
20.4584 54.8080 -51.8417 0.542 -0.206 0.814 46 159 105 0
7.4405 78.4577 -46.1012 0.823 -0.186 0.537 167 179 175 0
60.5909 72.2287 -11.5239 0.595 -0.432 0.678 168 158 152 0
20.3551 48.5590 -56.6500 0.713 0.695 0.096 102 175 137 0
27.8248 51.0071 -49.5842 0.424 -0.712 0.559 63 167 118 0
23.2899 69.0149 -41.0651 0.317 0.130 0.939 25 113 66 0
21.6682 72.2795 -40.1048 0.320 0.009 0.948 48 115 76 0
7.5757 78.5634 -46.2717 0.823 -0.186 0.537 167 177 176 0
19.0239 48.7293 -57.8334 0.708 0.699 0.102 107 178 141 0
28.0593 51.0974 -49.6467 0.424 -0.712 0.559 65 165 119 0
31.2668 59.3417 -41.8710 0.887 -0.376 0.266 36 155 98 0
7.1946 78.8219 -46.7202 0.832 -0.159 0.531 167 177 177 0
19.1570 48.6365 -58.1201 0.708 0.699 0.102 171 213 185 0
18.9503 48.8476 -58.1334 0.708 0.699 0.102 117 180 148 0
34.8654 58.5335 -40.0301 0.926 -0.067 0.370 40 156 101 0
34.8407 58.7007 -39.9382 0.926 -0.067 0.370 38 154 99 0
34.8160 58.8680 -39.8463 0.926 -0.067 0.370 37 154 99 0
34.7913 59.0352 -39.7544 0.926 -0.067 0.370 37 154 99 0
31.9615 85.9957 -24.0895 0.722 -0.655 0.223 164 153 150 0
19.2900 48.5436 -58.4068 0.708 0.699 0.102 201 223 203 0
19.0836 48.7547 -58.4205 0.708 0.699 0.102 183 218 195 0
18.8764 48.9663 -58.4343 0.708 0.699 0.102 144 196 170 0
53.0731 60.5604 -25.4904 0.273 -0.124 0.954 25 142 84 0
7.4569 79.0366 -47.0669 0.832 -0.159 0.531 165 175 176 0
8.4929 78.9263 -46.3730 0.452 0.516 0.728 165 175 176 0
19.0099 48.8732 -58.7219 0.708 0.699 0.102 198 225 207 0
18.8023 49.0854 -58.7361 0.708 0.699 0.102 188 225 207 0
14.4182 56.9941 -56.7766 0.618 -0.577 0.535 56 164 113 0
7.5879 79.1438 -47.2401 0.832 -0.159 0.531 163 175 174 0
14.7831 57.0770 -56.7843 0.625 -0.578 0.525 58 166 116 0
7.0405 87.4169 -42.5271 0.914 0.010 0.405 183 176 168 0
6.9917 87.6310 -42.4221 0.914 0.010 0.405 182 174 167 0
6.3252 97.9249 -36.1220 0.721 -0.658 0.216 166 154 145 0
11.8656 58.1791 -58.5764 0.336 -0.134 0.932 58 165 117 0
11.1045 58.6957 -58.8053 0.328 -0.156 0.932 58 165 116 0
12.1292 58.2756 -58.6577 0.336 -0.134 0.932 62 165 122 0
12.0257 58.4981 -58.5884 0.336 -0.134 0.932 60 165 121 0
11.3746 58.7916 -58.8842 0.328 -0.156 0.932 59 164 120 0
15.9924 96.3971 -30.5271 0.511 -0.334 0.792 156 146 137 0
19.4054 57.4835 -54.0277 0.623 -0.587 0.517 65 168 124 0
31.3276 63.9755 -40.7189 0.904 -0.113 -0.412 34 146 96 0
31.4231 64.1220 -40.5497 0.904 -0.113 -0.412 35 146 96 0
18.1688 76.6862 -42.2436 0.665 -0.325 0.672 165 176 170 0
18.1494 76.8752 -42.1331 0.665 -0.325 0.672 165 176 170 0
33.5161 76.6164 -30.6927 0.513 -0.489 0.706 179 176 171 0
39.5333 58.6371 -38.3114 0.883 -0.469 -0.032 50 162 111 0
18.3588 76.5791 -42.4833 0.665 -0.325 0.672 164 176 170 0
18.3394 76.7680 -42.3728 0.665 -0.325 0.672 165 176 169 0
18.3199 76.9568 -42.2624 0.665 -0.325 0.672 165 176 169 0
33.0634 57.8313 -44.0339 0.414 -0.703 0.579 65 168 124 0
18.5292 76.6609 -42.6123 0.665 -0.325 0.672 164 175 169 0
18.6993 76.7425 -42.7411 0.665 -0.325 0.672 163 174 169 0
25.5411 52.1188 -54.1723 0.951 0.292 0.103 201 223 218 0
18.8691 76.8240 -42.8697 0.665 -0.325 0.672 162 173 169 0
22.0843 57.9289 -53.2805 0.932 -0.219 -0.289 178 222 205 0
29.1827 58.2170 -47.6119 0.408 -0.726 0.554 139 202 176 0
29.2537 58.3833 -47.4465 0.408 -0.726 0.554 128 196 168 0
29.3245 58.5491 -47.2814 0.408 -0.726 0.554 116 186 157 0
32.7671 58.1984 -44.8588 0.417 -0.724 0.549 107 181 150 0
13.5658 68.6339 -52.7267 0.825 -0.449 -0.344 45 151 102 0
13.7564 68.7910 -52.4751 0.825 -0.449 -0.344 43 149 100 0
14.1352 69.1031 -51.9751 0.825 -0.449 -0.344 41 147 98 0
13.5942 92.5667 -36.7734 0.541 0.581 0.607 165 156 148 0
29.4810 58.4610 -47.5119 0.408 -0.726 0.554 175 222 202 0
13.1230 69.0682 -53.1170 0.575 -0.755 0.315 46 151 102 0
5.5526 76.4219 -54.4399 0.698 -0.598 0.395 42 133 89 0
25.9205 59.2294 -50.3673 0.439 -0.476 0.762 184 221 211 0
46.5828 61.7602 -32.5369 0.889 -0.457 -0.007 52 151 106 0
5.7270 76.5234 -54.5946 0.698 -0.598 0.395 43 134 90 0
59.9852 72.4991 -14.8971 0.343 0.207 0.916 163 153 146 0
35.7610 86.3697 -24.5588 0.666 0.649 0.369 157 144 135 0
51.8471 60.6564 -29.3826 0.932 -0.358 -0.051 54 153 107 0
12.1522 73.5170 -51.9230 0.698 -0.568 0.436 40 138 93 0
38.0731 84.2694 -24.4045 0.546 -0.768 0.334 158 146 138 0
18.1276 99.4941 -30.1777 0.871 -0.462 -0.168 145 132 124 0
38.6330 84.7963 -24.1093 0.546 -0.768 0.334 156 143 134 0
10.2419 75.4610 -53.1621 0.967 -0.120 -0.224 42 138 97 0
15.1026 98.2261 -34.3570 0.980 -0.197 0.013 148 136 124 0
15.1331 98.3861 -34.2253 0.980 -0.197 0.013 147 136 126 0
38.9646 55.5981 -44.2072 0.564 0.250 0.787 199 219 217 0
71.4286 65.0490 -12.0242 0.324 -0.129 0.937 163 156 148 0
