ply
format ascii 1.0
element vertex 826
property float x
property float y
property float z
property float nx
property float ny
property float nz
property uchar diffuse_red
property uchar diffuse_green
property uchar diffuse_blue
property uchar class
end_header
22.3521 45.6740 -48.8614 -0.260 -0.963 0.070 195 184 162 0
22.7342 46.1498 -49.1108 0.103 -0.867 0.488 195 184 163 0
24.5250 33.7974 -46.3164 -0.269 -0.933 0.239 189 179 166 0
30.4860 36.6449 -48.9637 -0.176 -0.904 0.389 187 175 163 0
32.1877 21.5752 -45.4027 0.053 -0.949 0.312 175 162 151 0
32.3845 21.5672 -45.4624 0.070 -0.946 0.316 174 162 150 0
44.3411 40.0835 -54.2526 -0.437 -0.657 0.614 167 153 141 0
-30.9253 54.2663 -34.7242 0.191 -0.968 0.161 233 225 214 0
-30.4937 52.6483 -34.4168 0.323 -0.901 0.290 233 225 214 0
-30.2651 52.6948 -34.5014 -0.329 -0.728 -0.601 233 224 213 0
-29.6875 49.7559 -33.8783 0.192 -0.821 -0.538 231 222 212 0
-27.8742 45.6347 -33.3199 -0.062 -0.555 0.829 216 198 188 0
-26.6071 44.0399 -33.2817 -0.327 -0.493 0.806 151 101 108 0
-26.2491 42.5931 -32.9981 -0.345 -0.656 0.672 146 93 99 0
-24.8446 34.2476 -31.1544 -0.466 -0.840 0.279 133 75 85 0
-24.5480 33.1845 -30.9565 0.115 -0.988 -0.104 132 70 82 0
-19.1802 25.7030 -30.5958 -0.411 -0.838 0.358 125 37 51 0
-16.3687 27.7010 -32.0271 -0.877 -0.386 0.286 124 42 52 0
-16.1688 27.2852 -31.9761 -0.877 -0.386 0.286 125 42 50 0
-15.9658 26.5112 -31.8280 -0.835 -0.447 0.319 125 40 50 0
-15.7687 26.0328 -31.7590 -0.418 -0.712 -0.564 121 34 46 0
-14.8107 24.7822 -31.7178 0.555 -0.832 0.003 118 32 46 0
-14.6217 24.7979 -31.7816 0.392 -0.861 0.324 118 29 47 0
-13.8676 24.3886 -31.9066 0.690 -0.322 0.648 119 30 47 0
-12.7466 23.7228 -32.0768 -0.524 -0.837 -0.157 120 32 49 0
-12.5619 23.5614 -32.0907 -0.403 -0.913 -0.064 119 32 49 0
-10.9010 22.7271 -32.3846 -0.183 -0.833 0.523 112 28 48 0
-10.5370 22.4885 -32.4337 0.189 -0.834 0.518 110 27 45 0
-3.1344 24.9465 -35.4348 0.929 -0.352 0.111 89 19 30 0
-2.8040 22.7796 -34.9453 -0.496 -0.676 0.545 84 17 28 0
-1.2423 26.1083 -36.3480 -0.619 -0.709 0.338 73 19 28 0
-0.8798 25.8758 -36.3983 0.225 -0.914 0.337 68 16 23 0
1.6997 31.3878 -38.7189 -0.395 -0.883 -0.252 57 16 20 0
3.5012 32.2685 -39.5267 0.847 -0.380 -0.372 63 23 26 0
3.8844 33.3276 -39.9372 0.833 -0.539 -0.126 61 24 26 0
4.2061 33.9920 -40.2203 0.876 -0.480 -0.047 61 26 26 0
12.2763 51.4359 -47.5352 0.172 -0.960 -0.223 181 156 54 0
12.8550 51.8367 -47.8269 -0.175 -0.882 0.438 194 170 63 0
12.7369 50.1028 -47.3150 0.003 -0.812 0.583 199 173 64 0
12.9538 49.9704 -47.3469 0.036 -0.854 0.519 201 177 65 0
13.2283 50.1080 -47.4709 -0.115 -0.904 0.412 202 181 65 0
13.2817 49.2237 -47.2455 -0.550 -0.835 0.004 206 186 67 0
13.5464 49.3194 -47.3550 -0.366 -0.862 -0.349 209 189 68 0
9.5197 24.6117 -39.3226 -0.747 -0.660 0.080 208 189 60 0
17.4365 47.2831 -48.0207 -0.244 -0.844 0.477 207 185 67 0
18.7301 47.6033 -48.5152 -0.247 -0.820 -0.516 199 179 67 0
21.9742 45.3838 -48.9276 -0.407 -0.539 0.737 194 185 158 0
22.2031 45.3464 -48.9894 -0.280 -0.756 0.592 194 186 159 0
22.6679 46.1028 -49.3427 0.115 -0.880 0.460 194 185 162 0
29.0224 51.3438 -52.7763 0.934 -0.325 0.147 192 179 168 0
33.5898 22.9187 -46.4285 0.845 -0.534 0.005 170 157 145 0
43.9992 39.9520 -54.3666 -0.338 -0.510 0.791 166 152 141 0
43.6537 38.7687 -53.9339 -0.283 -0.489 0.825 167 153 142 0
-29.7945 50.0047 -34.1758 0.164 -0.844 -0.511 230 221 210 0
-27.7076 45.4542 -33.5770 -0.090 -0.574 0.814 189 165 158 0
-26.6542 43.7737 -33.4448 -0.281 -0.475 0.834 153 101 106 0
-26.2991 42.3619 -33.1671 -0.366 -0.655 0.661 147 93 99 0
-24.6119 33.1571 -31.1583 -0.079 -0.977 -0.199 132 71 82 0
-21.2647 31.0844 -31.6398 0.559 -0.554 0.617 115 36 49 0
-17.3512 25.9513 -31.4551 -0.699 -0.392 0.598 118 38 49 0
-16.6353 28.3923 -32.3539 -0.771 -0.496 -0.399 126 43 52 0
-16.4372 28.2140 -32.3670 -0.808 -0.530 0.256 127 45 53 0
-16.2291 27.3338 -32.1897 -0.836 -0.527 0.155 127 45 53 0
-16.0307 26.9572 -32.1482 -0.829 -0.539 0.149 125 40 49 0
-15.8316 26.3953 -32.0558 -0.538 -0.657 -0.528 120 33 45 0
-15.4385 25.1964 -31.8487 -0.728 -0.598 -0.336 126 37 51 0
-14.8680 24.7042 -31.8925 0.393 -0.910 0.130 117 30 42 0
-14.6791 24.8160 -31.9827 -0.156 -0.758 0.633 116 27 44 0
-13.5442 24.6503 -32.2942 0.546 -0.616 0.568 119 30 48 0
-12.9899 23.7582 -32.2225 -0.648 -0.750 0.132 118 32 49 0
-12.8048 23.5958 -32.2359 -0.648 -0.750 0.132 120 33 50 0
-12.6206 23.4162 -32.2443 -0.616 -0.764 0.193 119 33 50 0
-6.8387 20.2039 -33.1775 -0.610 -0.601 0.517 112 23 38 0
-4.2404 24.0858 -35.0662 -0.857 -0.377 0.350 98 21 33 0
-1.0887 26.1807 -36.6360 -0.580 -0.773 0.256 68 15 23 0
-0.9294 25.8937 -36.6069 0.036 -0.999 -0.031 67 14 23 0
0.1484 25.1808 -36.7494 -0.500 -0.764 -0.409 59 14 19 0
1.6052 31.1104 -38.8438 -0.461 -0.881 0.108 57 16 22 0
3.8227 33.2798 -40.1402 0.833 -0.539 -0.126 60 23 24 0
4.1606 34.0437 -40.4573 0.824 -0.541 -0.170 62 26 26 0
4.6013 35.4044 -40.9714 0.599 -0.772 -0.213 61 28 26 0
11.8263 50.7348 -47.4747 -0.377 -0.682 -0.627 175 151 50 0
12.4164 52.4119 -48.1231 -0.036 -0.818 -0.574 181 156 51 0
12.2180 49.0754 -47.1401 0.163 -0.953 -0.257 191 168 57 0
12.0635 44.9553 -45.9548 0.009 -0.963 0.269 199 179 59 0
12.4215 45.5204 -46.2233 0.052 -0.955 -0.291 202 182 59 0
12.8756 46.5154 -46.6408 0.514 -0.711 -0.480 204 184 59 0
17.5927 47.1646 -48.3043 -0.231 -0.818 0.527 205 186 65 0
17.7439 46.8117 -48.2545 0.324 -0.944 -0.059 205 186 65 0
18.2285 46.8206 -48.4095 0.288 -0.958 0.008 204 184 68 0
18.5713 47.2076 -48.6241 0.310 -0.951 0.013 201 181 68 0
22.5010 46.5334 -49.6747 -0.092 -0.830 0.550 193 186 157 0
22.7254 46.4728 -49.7286 -0.092 -0.830 0.550 193 185 161 0
22.9253 46.3308 -49.7524 0.241 -0.971 -0.002 192 184 163 0
22.8963 45.4287 -49.4943 -0.013 -0.932 0.363 193 185 164 0
22.5583 43.5169 -48.8605 -0.432 -0.902 0.022 193 184 166 0
22.7648 43.4171 -48.8979 -0.432 -0.902 0.022 194 184 165 0
23.0978 42.9607 -48.8768 -0.162 -0.981 0.108 194 183 166 0
32.1700 21.2524 -45.7423 -0.137 -0.496 -0.857 175 161 149 0
44.9186 42.8977 -55.7261 -0.510 -0.724 -0.465 167 153 144 0
-61.3036 44.9382 -23.1089 -0.346 -0.923 0.171 236 225 215 0
-27.7652 45.2942 -33.7688 0.248 -0.765 0.594 193 170 165 0
-27.2248 44.3486 -33.6761 -0.068 -0.540 0.839 161 121 124 0
-26.7161 43.6594 -33.6447 -0.321 -0.522 0.791 153 102 107 0
-26.3795 42.4463 -33.4135 -0.290 -0.735 0.613 147 94 100 0
-18.7349 25.7786 -31.1877 -0.051 -0.814 0.578 121 33 49 0
-15.4992 25.5091 -32.1317 -0.751 -0.561 -0.349 122 31 46 0
-14.7365 24.7007 -32.1472 -0.260 -0.679 0.687 114 25 42 0
-13.0558 23.1160 -32.2359 0.169 -0.850 0.498 116 33 48 0
-12.8666 23.2566 -32.3346 -0.301 -0.719 0.626 119 35 51 0
-12.6808 23.1827 -32.3725 -0.316 -0.719 0.620 117 33 49 0
-3.5875 23.5046 -35.3254 0.132 -0.839 0.528 91 19 28 0
-3.4260 23.2339 -35.3010 -0.119 -0.991 0.065 90 20 28 0
-2.5801 23.9481 -35.7659 -0.553 -0.831 0.051 80 14 26 0
-2.4033 23.8183 -35.7855 0.345 -0.887 0.308 78 15 26 0
-0.8280 25.5671 -36.7677 0.341 -0.934 -0.105 65 14 21 0
-0.0889 25.2472 -36.9115 0.024 -0.968 -0.249 61 16 21 0
0.1393 25.4796 -37.0479 0.349 -0.808 -0.475 59 15 20 0
12.1296 51.3071 -48.0027 -0.207 -0.857 -0.472 181 157 49 0
15.2368 43.6557 -46.8543 -0.405 -0.915 0.004 207 189 62 0
15.4752 43.6716 -46.9338 -0.737 -0.447 0.507 207 189 64 0
17.4890 46.9744 -48.4860 -0.243 -0.814 0.528 206 187 66 0
17.6744 46.7556 -48.4835 0.312 -0.950 -0.014 205 186 65 0
22.0331 46.7725 -49.8607 0.678 -0.585 0.445 186 175 133 0
22.3452 47.0095 -50.0249 0.678 -0.585 0.445 192 183 146 0
22.4160 46.4237 -49.8844 -0.113 -0.916 0.384 193 184 152 0
22.6430 46.3719 -49.9414 -0.113 -0.916 0.384 195 184 158 0
22.8561 46.2742 -49.9814 0.263 -0.964 -0.034 194 184 160 0
23.0864 46.2347 -50.0429 0.236 -0.969 0.066 194 183 161 0
23.0422 42.1819 -48.9025 0.271 -0.950 0.156 195 183 167 0
44.3218 40.2799 -55.0745 -0.144 -0.788 -0.599 167 152 142 0
-60.4850 36.3298 -21.2030 0.529 -0.569 -0.630 230 221 212 0
-62.2011 43.2509 -22.6003 0.525 -0.538 0.659 231 221 212 0
-53.3169 37.1074 -23.6794 0.255 -0.817 -0.517 235 226 219 0
-53.2151 37.3986 -23.7930 0.087 -0.760 -0.645 235 226 219 0
-53.4309 38.6579 -24.0776 0.119 -0.843 -0.525 234 225 218 0
-27.8123 45.0368 -33.9362 0.136 -0.800 0.585 200 178 173 0
-26.7681 43.4461 -33.8198 -0.096 -0.963 0.251 155 104 111 0
-26.4720 42.6535 -33.6911 -0.297 -0.955 0.001 147 94 100 0
-25.5027 39.2154 -33.0338 -0.132 -0.691 -0.711 135 77 84 0
-22.1439 30.4790 -31.6457 -0.420 -0.746 0.516 122 47 58 0
-21.9347 30.2970 -31.6607 -0.346 -0.817 0.462 122 46 58 0
-21.7396 30.3246 -31.7298 -0.411 -0.757 0.507 118 41 54 0
-21.5376 30.2436 -31.7709 -0.334 -0.719 0.610 117 39 52 0
-18.7902 25.6639 -31.3541 -0.051 -0.814 0.578 122 34 50 0
-17.8257 25.1388 -31.5110 0.228 -0.538 0.811 119 41 52 0
-16.3648 28.3483 -32.8700 -0.804 -0.341 -0.488 122 37 47 0
-16.1555 27.3862 -32.6666 -0.814 -0.356 -0.458 122 35 46 0
-14.7932 24.2617 -32.2209 0.020 -0.846 0.533 116 27 44 0
-13.6597 24.4705 -32.6365 0.578 -0.408 0.707 115 29 46 0
-13.4690 24.6066 -32.7347 0.592 -0.417 0.690 115 31 47 0
-10.4066 25.1488 -33.8515 -0.423 -0.331 0.844 109 25 41 0
-10.2246 24.9189 -33.8445 -0.405 -0.326 0.854 109 25 41 0
-9.8955 23.7494 -33.6207 -0.739 -0.429 0.520 110 26 41 0
-1.0303 25.9175 -37.0212 -0.269 -0.866 -0.422 65 14 21 0
-0.8832 25.5406 -36.9620 0.342 -0.929 -0.139 65 14 21 0
1.3136 29.8487 -38.8606 0.050 -0.299 0.953 56 15 19 0
1.3585 28.7685 -38.5722 -0.299 -0.170 0.939 56 15 19 0
3.9634 44.8269 -43.8898 -0.223 -0.951 -0.215 56 15 19 0
4.1904 44.7893 -43.9508 -0.233 -0.952 -0.198 56 16 19 0
3.6295 32.7559 -40.4044 0.889 -0.443 0.111 62 24 24 0
4.0478 34.0175 -40.8895 0.841 -0.419 0.342 61 26 24 0
10.6291 52.8213 -48.2288 0.695 -0.098 0.712 148 126 48 0
11.5058 43.9707 -46.0266 0.404 -0.845 0.350 192 172 51 0
10.9236 40.1521 -44.7738 0.485 -0.473 0.736 194 175 51 0
11.5975 40.1222 -44.9778 0.586 -0.742 -0.326 202 184 56 0
17.2859 47.3463 -48.7931 -0.176 -0.823 0.540 207 189 63 0
17.2209 46.1356 -48.4337 -0.291 -0.947 -0.137 206 188 64 0
21.8542 46.3388 -49.9505 0.735 -0.605 0.306 176 163 115 0
22.2000 46.6938 -50.1588 0.695 -0.618 0.368 185 173 131 0
22.5081 46.9159 -50.3181 0.693 -0.624 0.362 195 183 147 0
22.8075 47.1056 -50.4656 0.739 -0.645 0.195 195 183 153 0
23.7540 48.6356 -51.1923 0.847 -0.420 0.326 194 183 160 0
34.1712 25.2588 -47.9286 -0.003 -0.506 -0.863 176 164 150 0
-60.5961 36.4003 -21.4172 0.529 -0.569 -0.629 230 222 212 0
-62.5086 42.7605 -22.6084 0.690 -0.629 0.359 232 221 215 0
-62.3360 42.8442 -22.6864 0.681 -0.616 0.396 233 222 216 0
-53.4814 37.3592 -23.9310 0.211 -0.803 -0.557 235 226 219 0
-30.8067 47.1167 -33.8328 -0.694 -0.544 0.472 233 226 216 0
-27.4566 45.1648 -34.3385 0.227 -0.883 0.411 164 126 129 0
-27.2467 45.2842 -34.4384 -0.161 -0.926 0.341 164 119 124 0
-26.8416 43.4502 -34.0487 -0.095 -0.964 0.250 156 107 113 0
-26.5981 43.2011 -34.0553 -0.063 -0.992 -0.113 148 95 101 0
-22.2024 30.4005 -31.8303 -0.340 -0.851 0.399 121 45 57 0
-21.9987 30.3021 -31.8667 -0.340 -0.851 0.399 120 44 56 0
-21.2353 30.7117 -32.2230 0.116 -0.686 0.718 117 37 50 0
-21.0045 30.1487 -32.1370 -0.120 -0.636 0.763 119 38 50 0
-20.8149 30.2811 -32.2341 -0.813 -0.427 0.396 119 38 47 0
-18.0572 24.6408 -31.5125 0.294 -0.395 0.870 120 43 53 0
-17.6776 24.5228 -31.5989 0.311 -0.520 0.795 123 45 57 0
-16.2216 27.8162 -32.9870 -0.809 -0.359 -0.466 120 32 44 0
-16.0105 26.5556 -32.6980 -0.821 -0.412 -0.396 121 30 45 0
-10.7996 26.4265 -34.3045 -0.378 -0.754 0.537 109 28 43 0
-10.4796 24.7157 -33.9228 -0.414 -0.331 0.848 107 24 40 0
-10.2882 24.7273 -33.9865 -0.408 -0.327 0.852 107 23 39 0
-3.7336 23.1073 -35.5962 -0.070 -0.671 0.738 87 14 29 0
-2.3549 23.4769 -36.1351 -0.259 -0.839 0.478 76 12 23 0
-1.9885 23.3400 -36.2120 -0.034 -0.912 0.408 72 12 23 0
0.9255 28.9399 -38.7105 -0.202 -0.294 0.934 54 12 16 0
1.1657 29.1971 -38.8588 -0.227 -0.273 0.935 55 14 18 0
1.2271 28.2331 -38.6062 -0.285 -0.200 0.938 56 15 19 0
4.1384 44.8439 -44.2099 -0.245 -0.951 -0.190 58 18 20 0
4.3681 44.8224 -44.2763 -0.514 -0.810 0.282 58 17 21 0
6.4933 36.0114 -42.4608 -0.086 -0.885 0.457 93 76 34 0
6.6539 35.7029 -42.4245 0.039 -0.944 0.328 103 87 37 0
6.8544 35.6133 -42.4624 -0.181 -0.980 0.082 129 110 49 0
11.4203 49.6158 -47.8520 -0.041 -0.952 0.304 176 153 47 0
15.0424 43.3027 -47.2132 -0.673 -0.675 0.302 208 189 58 0
17.2841 47.5605 -49.1211 -0.027 -0.872 0.488 207 189 61 0
17.1670 46.1399 -48.6834 -0.251 -0.963 -0.098 207 189 62 0
19.2738 44.1759 -48.7937 -0.030 -0.963 -0.266 189 167 66 0
19.6359 44.6275 -49.0352 0.168 -0.984 0.067 188 166 66 0
22.1211 46.6052 -50.3767 0.707 -0.708 0.006 171 155 109 0
22.4688 46.9625 -50.5871 0.700 -0.714 0.003 184 169 129 0
22.7489 47.0862 -50.7103 0.694 -0.720 -0.001 194 180 148 0
23.6822 48.5741 -51.4244 0.794 -0.583 -0.171 194 182 159 0
26.2236 23.5810 -45.1753 -0.188 -0.980 0.061 185 173 159 0
-60.6993 36.4505 -21.6287 0.657 -0.521 -0.545 229 220 211 0
-62.6711 42.9511 -22.8538 0.638 -0.486 0.598 233 224 216 0
-62.3791 42.7307 -22.8832 0.525 -0.538 0.659 235 224 217 0
-62.3943 44.3651 -23.3429 0.587 -0.600 0.543 234 225 217 0
-30.8852 47.1291 -34.0696 -0.637 -0.604 0.479 234 227 217 0
-27.7523 45.1584 -34.4981 -0.710 -0.508 0.488 180 153 152 0
-27.5177 45.0366 -34.5375 0.238 -0.879 0.413 166 130 132 0
-27.3069 45.1452 -34.6349 -0.345 -0.924 0.166 163 120 124 0
-26.9255 43.5575 -34.3040 -0.038 -0.996 0.079 155 108 112 0
-26.7003 43.4990 -34.3584 0.010 -0.984 -0.175 149 96 102 0
-26.2258 43.1226 -34.4012 0.496 -0.586 -0.641 137 80 87 0
-18.6949 25.0193 -31.6330 0.140 -0.729 0.671 120 33 47 0
-18.2900 24.2412 -31.5397 -0.009 -0.329 0.944 120 38 51 0
-18.1152 24.6124 -31.7003 0.720 -0.673 0.171 122 43 53 0
-17.9415 25.0630 -31.8831 0.663 -0.715 0.223 122 42 55 0
-17.8184 27.2469 -32.5426 -0.043 -0.877 0.478 120 39 53 0
-17.4244 26.9442 -32.5809 -0.292 -0.152 0.944 120 37 52 0
-13.3727 26.3656 -33.6948 -0.446 -0.124 0.886 114 30 48 0
-2.9050 24.1486 -36.3674 -0.396 -0.889 -0.229 85 18 28 0
-2.7759 23.5951 -36.2509 0.238 -0.796 0.557 81 16 25 0
-2.4158 23.3971 -36.3082 -0.259 -0.839 0.478 76 13 23 0
0.8292 28.6366 -38.8209 -0.219 -0.312 0.925 54 13 17 0
1.0542 28.7932 -38.9364 -0.218 -0.297 0.930 56 15 19 0
1.1439 28.0234 -38.7459 -0.239 -0.264 0.934 55 15 18 0
1.3688 28.1820 -38.8619 -0.436 -0.216 0.874 56 16 17 0
4.6867 32.1717 -41.0425 0.915 -0.399 -0.065 67 39 30 0
5.5694 33.5820 -41.7218 -0.174 -0.936 0.305 80 58 32 0
13.8900 42.6102 -46.9124 -0.207 -0.971 0.117 209 192 53 0
14.0081 42.1243 -46.8116 -0.216 -0.972 0.096 209 193 54 0
14.6266 41.8059 -46.9162 -0.303 -0.909 0.288 208 191 58 0
17.1217 46.1784 -48.9460 -0.251 -0.963 -0.098 207 189 60 0
18.9943 44.2154 -48.9789 -0.041 -0.956 -0.291 192 171 64 0
19.1978 44.0916 -49.0080 -0.116 -0.946 -0.302 191 170 66 0
19.5951 44.6719 -49.2982 0.016 -0.739 0.674 188 167 64 0
19.7882 44.5089 -49.3128 0.137 -0.688 0.713 186 164 64 0
19.9340 44.1785 -49.2649 0.220 -0.645 0.732 184 161 65 0
21.6343 45.9450 -50.3034 0.689 -0.703 0.174 167 148 89 0
22.6762 47.0193 -50.9374 0.776 -0.631 -0.012 188 172 134 0
27.7399 28.5723 -47.2931 -0.063 -0.370 0.927 185 173 160 0
-62.7141 42.8375 -23.0508 0.562 -0.605 0.564 234 226 215 0
-63.3919 46.7138 -23.9463 0.122 -0.899 0.420 233 226 215 0
-30.9236 46.8307 -34.2304 -0.651 -0.627 0.428 235 226 217 0
-30.0160 44.9348 -33.9743 -0.617 -0.786 0.038 233 224 214 0
-29.8023 44.9937 -34.0586 -0.769 -0.624 -0.136 231 223 212 0
-27.5713 44.8376 -34.7183 -0.551 -0.582 0.598 168 132 134 0
-27.3843 45.1750 -34.8739 -0.334 -0.928 0.165 160 118 121 0
-27.0136 43.7046 -34.5700 -0.021 -0.998 0.059 153 107 110 0
-26.7873 43.6377 -34.6224 0.024 -0.984 -0.178 150 97 103 0
-20.1329 26.1571 -31.7198 -0.532 -0.831 0.166 118 32 45 0
-18.1724 24.5583 -31.8811 0.689 -0.719 0.092 122 38 51 0
-17.8894 27.5949 -32.8396 0.003 -0.889 0.457 124 39 54 0
-16.1315 26.7461 -33.1516 -0.662 -0.144 0.736 121 29 44 0
-9.9191 22.6974 -33.9541 -0.382 -0.620 0.686 109 18 39 0
-8.5935 22.8784 -34.4245 0.377 -0.777 0.504 109 22 37 0
-6.0267 24.2230 -35.6197 0.859 -0.352 0.372 103 20 33 0
-4.6421 26.6959 -36.7646 0.969 -0.237 0.061 96 16 29 0
-3.1255 24.3686 -36.5773 -0.575 -0.781 -0.244 85 19 27 0
-2.9496 24.2150 -36.5889 -0.561 -0.781 -0.275 83 18 25 0
-2.7642 24.1485 -36.6284 -0.438 -0.892 0.111 80 16 24 0
-2.6415 23.5452 -36.4944 0.350 -0.863 0.365 79 16 24 0
-2.4556 23.4948 -36.5387 0.414 -0.840 0.352 76 14 23 0
-2.2551 23.5672 -36.6227 0.421 -0.834 0.356 75 13 24 0
-0.8184 24.2509 -37.2720 -0.017 -0.976 0.219 65 14 22 0
0.7468 28.4291 -38.9621 -0.224 -0.310 0.924 53 12 16 0
1.3040 28.0982 -39.0433 -0.550 -0.349 0.759 58 18 19 0
1.4641 27.8212 -39.0145 -0.125 -0.731 0.670 59 18 18 0
1.6809 27.9246 -39.1126 -0.126 -0.720 0.682 61 21 19 0
1.8778 27.8950 -39.1662 -0.119 -0.729 0.675 63 23 22 0
10.6043 51.0654 -48.5533 0.142 -0.228 0.963 157 133 37 0
13.7425 42.2120 -47.0100 -0.391 -0.902 0.186 209 195 55 0
13.9264 42.0078 -47.0096 -0.359 -0.909 0.213 209 197 57 0
14.1670 42.0460 -47.0965 -0.406 -0.897 0.175 208 197 58 0
14.3673 41.9144 -47.1221 -0.309 -0.900 0.308 209 196 59 0
14.5621 41.7617 -47.1399 -0.292 -0.908 0.301 210 195 60 0
18.4403 45.0093 -49.2938 0.470 -0.804 -0.364 199 180 59 0
19.8915 45.0722 -49.7700 0.131 -0.938 0.321 186 165 61 0
19.8785 44.1686 -49.5072 0.283 -0.928 0.243 184 162 63 0
20.5867 45.8412 -50.2096 0.307 -0.940 0.151 182 159 65 0
23.9784 49.0926 -52.2110 0.873 -0.469 0.138 193 181 157 0
20.1024 18.4883 -42.2275 -0.314 -0.674 -0.669 187 177 166 0
27.5686 28.2383 -47.3754 -0.063 -0.375 0.925 183 171 160 0
27.5954 27.7693 -47.2496 0.113 -0.377 0.919 183 171 159 0
38.3102 33.4120 -52.2475 0.350 -0.732 0.585 173 161 148 0
38.2445 31.8531 -51.7806 -0.040 -0.495 -0.868 170 157 145 0
36.5492 26.9466 -49.8410 0.821 -0.561 -0.105 169 155 145 0
38.8936 29.9973 -51.4543 0.753 -0.618 -0.225 165 151 140 0
-60.8400 36.8743 -22.1668 0.687 -0.511 -0.516 230 221 213 0
-31.1743 46.4493 -34.2992 0.188 -0.682 0.707 235 226 217 0
-27.6134 44.5312 -34.8712 -0.713 -0.431 0.553 169 136 138 0
-27.3428 44.0523 -34.8186 -0.769 -0.411 0.490 160 120 123 0
-27.0877 43.7106 -34.8007 -0.036 -0.998 0.054 155 110 113 0
-26.8650 43.6820 -34.8628 0.045 -0.999 0.010 151 99 104 0
-26.5923 43.1428 -34.7935 0.332 -0.912 -0.242 142 88 94 0
-25.8217 39.6166 -34.0203 0.016 -0.495 0.869 137 77 86 0
-24.2581 33.7752 -32.8302 -0.424 -0.612 0.668 133 66 76 0
-23.9329 32.3097 -32.5104 -0.726 -0.676 0.128 132 64 75 0
-23.7857 32.9581 -32.7439 -0.814 -0.542 0.208 130 60 74 0
-23.1100 32.0258 -32.6886 -0.503 -0.628 -0.595 121 49 63 0
-20.7779 29.7599 -32.7720 -0.831 -0.268 0.487 120 38 50 0
-18.2290 24.4895 -32.0578 -0.378 -0.415 0.827 118 34 47 0
-18.0321 24.2213 -32.0427 -0.371 -0.440 0.817 126 42 55 0
-17.7325 26.7875 -32.8772 -0.340 -0.216 0.915 126 38 52 0
-14.8332 23.8859 -32.9566 0.535 -0.741 0.406 115 27 41 0
-12.3933 23.3669 -33.5778 0.431 -0.508 0.746 115 30 51 0
-11.0147 25.1319 -34.5222 -0.525 -0.448 0.723 109 25 43 0
-9.8053 22.2829 -34.0829 0.263 -0.752 0.605 108 19 38 0
-9.6090 22.4713 -34.1992 -0.201 -0.980 -0.013 110 21 39 0
-6.8989 23.5326 -35.3613 -0.472 -0.768 0.433 106 17 33 0
-4.7296 26.3400 -36.8560 0.969 -0.238 0.060 95 16 29 0
-3.9396 24.4708 -36.5667 0.533 -0.659 0.531 88 15 26 0
-2.7043 23.4487 -36.6623 0.350 -0.863 0.365 78 16 25 0
9.6090 47.4661 -47.4765 0.491 -0.552 0.674 154 127 36 0
15.0660 45.0694 -48.5095 0.257 -0.905 -0.340 209 197 59 0
14.5528 41.9470 -47.4472 -0.326 -0.908 0.262 209 196 61 0
16.3361 45.3941 -49.0044 0.568 -0.796 0.208 209 193 63 0
20.3074 45.0367 -50.1559 0.054 -0.859 0.510 181 161 66 0
24.3969 49.8331 -52.8307 0.850 -0.367 0.378 195 180 156 0
25.2410 50.9585 -53.4218 0.874 -0.385 0.298 191 180 160 0
38.2552 32.4239 -52.1897 -0.087 -0.500 -0.862 174 160 148 0
39.0285 32.6386 -52.4959 -0.108 -0.512 -0.852 170 156 147 0
-31.2193 46.2092 -34.4727 0.267 -0.715 0.646 235 227 216 0
-30.7118 45.7337 -34.4950 -0.398 -0.832 0.387 233 224 215 0
-28.9535 45.9347 -35.1092 -0.596 -0.497 0.630 222 216 203 0
-28.2196 45.3521 -35.1721 -0.834 -0.325 0.446 220 205 197 0
-27.6658 44.3246 -35.0488 -0.759 -0.408 0.508 173 141 141 0
-27.3928 43.8229 -34.9894 -0.774 -0.403 0.488 163 123 125 0
-27.1464 43.5657 -34.9926 -0.017 -0.997 0.075 155 111 113 0
-26.9605 43.9025 -35.1492 0.284 -0.948 0.145 151 100 105 0
-26.3613 40.0553 -34.2215 -0.339 -0.936 0.096 144 90 96 0
-26.2083 40.6821 -34.4518 0.611 -0.584 0.535 139 82 89 0
-24.8796 35.4412 -33.3501 -0.459 -0.543 0.703 131 70 78 0
-24.6201 34.8281 -33.2541 -0.068 -0.994 -0.086 130 67 76 0
-23.8643 33.1086 -32.9937 -0.456 -0.618 0.640 124 56 69 0
-23.5956 32.2788 -32.8377 -0.354 -0.877 0.325 120 52 65 0
-23.3941 32.2647 -32.8973 -0.481 -0.785 0.390 121 53 66 0
-23.1764 32.0405 -32.9010 -0.256 -0.908 0.331 122 51 65 0
-22.9751 32.0246 -32.9600 -0.328 -0.896 0.298 121 48 62 0
-20.6490 29.8458 -33.0627 -0.543 -0.400 0.738 117 36 49 0
-19.4342 29.1346 -33.2402 -0.784 -0.277 0.555 119 31 45 0
-14.8906 23.9672 -33.1761 0.496 -0.777 0.387 116 28 42 0
-13.7579 24.1507 -33.5874 0.722 -0.512 0.466 114 25 44 0
-13.5630 24.7302 -33.8173 -0.409 -0.113 0.906 112 24 43 0
-12.0719 23.4035 -33.9034 0.484 -0.849 0.214 115 32 52 0
-11.8900 23.1597 -33.8901 -0.043 -0.980 0.196 116 33 53 0
-11.7069 22.9892 -33.8985 0.066 -0.942 0.329 114 30 51 0
-11.5214 22.9131 -33.9351 -0.179 -0.899 0.399 111 27 47 0
-11.3256 23.1681 -34.0710 -0.333 -0.828 0.450 110 24 45 0
-9.8365 22.7736 -34.4272 0.015 -0.996 -0.093 106 17 35 0
-9.6617 22.5021 -34.4036 -0.184 -0.983 -0.027 108 20 37 0
-6.7779 23.3250 -35.5542 -0.481 -0.831 0.277 105 16 32 0
-4.6036 26.1684 -37.0672 0.947 -0.293 0.133 93 15 29 0
-4.6331 23.8352 -36.3804 0.377 -0.872 0.311 91 13 27 0
-4.2169 24.1583 -36.6058 0.025 -0.896 0.444 91 14 27 0
-3.8546 23.9373 -36.6561 -0.106 -0.917 0.385 86 15 25 0
9.5846 46.3995 -47.4270 0.460 -0.718 0.523 159 134 35 0
13.3714 42.0819 -47.3704 -0.666 -0.745 -0.029 207 194 53 0
13.8109 41.9785 -47.4793 -0.703 -0.708 0.065 209 196 55 0
14.4888 41.9050 -47.6723 -0.326 -0.908 0.262 210 198 62 0
24.1833 49.3035 -52.8853 0.850 -0.364 0.380 194 181 155 0
24.7594 48.7469 -52.9057 0.762 -0.608 0.222 191 180 162 0
31.7749 28.8173 -49.3365 0.768 -0.382 0.515 184 171 155 0
38.6005 33.2334 -52.7765 -0.214 -0.486 -0.847 170 157 146 0
-31.2431 45.8115 -34.6060 0.282 -0.724 0.630 233 225 213 0
-27.7259 44.1926 -35.2452 -0.785 -0.359 0.506 175 145 143 0
-27.4375 43.5445 -35.1469 -0.782 -0.368 0.503 163 124 125 0
-27.1532 42.9153 -35.0528 -0.785 -0.362 0.503 158 113 116 0
-27.0168 43.7302 -35.3343 0.263 -0.953 0.154 152 102 106 0
-26.2405 38.1168 -33.9382 -0.259 -0.946 0.198 146 93 99 0
-26.2349 40.2200 -34.5551 -0.175 -0.976 0.130 141 86 92 0
-25.9287 39.2555 -34.3698 -0.099 -0.494 0.864 140 81 90 0
-24.9193 35.1273 -33.4818 0.386 -0.909 0.155 131 70 81 0
-24.6950 34.9113 -33.4896 -0.060 -0.995 -0.083 129 67 77 0
-24.1957 33.8554 -33.3388 -0.796 -0.412 0.444 126 60 72 0
-23.6840 32.5574 -33.1210 -0.639 -0.363 0.678 119 51 64 0
-23.4550 32.2049 -33.0904 -0.440 -0.203 0.875 119 51 66 0
-23.2214 31.7772 -33.0392 -0.411 -0.186 0.893 121 49 64 0
-22.1784 31.1387 -33.1824 -0.820 -0.175 0.545 124 44 55 0
-21.1118 29.9425 -33.1699 -0.704 -0.197 0.682 118 36 50 0
-20.9185 30.0090 -33.2506 -0.732 -0.239 0.638 121 38 53 0
-20.7192 29.9732 -33.3031 -0.571 -0.212 0.793 119 36 51 0
-17.9836 24.8867 -32.6809 -0.111 -0.991 0.079 124 37 50 0
-16.2573 23.4758 -32.8144 0.305 -0.656 0.691 118 27 42 0
-13.2490 24.0060 -33.9211 -0.004 -0.609 0.793 114 27 46 0
-12.3131 23.5381 -34.0803 0.348 -0.842 0.412 117 34 52 0
-12.1295 23.3269 -34.0766 0.484 -0.849 0.214 120 37 55 0
-11.9450 23.1826 -34.0928 0.013 -0.775 0.632 117 34 52 0
-11.7606 23.0485 -34.1119 0.079 -0.923 0.376 115 30 49 0
-11.5763 22.9274 -34.1348 -0.181 -0.832 0.525 112 26 45 0
-9.8863 22.8753 -34.6541 -0.228 -0.858 0.461 105 18 35 0
-9.7147 22.5263 -34.6063 -0.095 -0.995 -0.010 107 21 37 0
-4.2867 23.9865 -36.7504 0.361 -0.747 0.558 90 13 26 0
-4.1193 23.7414 -36.7317 0.304 -0.931 0.201 89 16 27 0
-3.9318 23.6980 -36.7783 -0.048 -0.749 0.661 86 16 26 0
-2.9857 23.5705 -37.0403 0.620 -0.774 0.129 80 16 27 0
-2.8588 23.0028 -36.9144 0.624 -0.605 0.495 78 15 26 0
9.6816 31.8087 -43.4566 -0.025 -0.860 0.510 205 189 53 0
14.1968 41.8798 -47.8302 -0.664 -0.745 0.060 211 199 61 0
14.4854 42.1166 -47.9907 -0.645 -0.764 0.019 210 198 64 0
17.9142 47.3109 -50.5945 0.724 -0.556 0.409 206 189 59 0
19.1637 47.4342 -51.0258 0.362 -0.856 -0.368 196 183 58 0
20.2687 44.4252 -50.4953 0.540 -0.807 0.239 175 159 62 0
24.6573 48.5871 -53.1007 0.781 -0.546 0.303 190 179 159 0
20.5014 21.0508 -43.7331 -0.763 -0.502 -0.407 186 176 164 0
24.8315 16.7012 -43.8308 0.387 -0.743 0.546 184 172 159 0
39.2772 33.3139 -53.2588 -0.170 -0.531 -0.830 169 155 147 0
-27.0849 43.6768 -35.5501 0.321 -0.940 0.115 153 104 108 0
-26.3394 38.4057 -34.2336 -0.303 -0.945 0.124 147 96 101 0
-26.1298 38.4175 -34.3035 -0.302 -0.945 0.122 144 89 95 0
-25.9924 41.4349 -35.2357 0.763 -0.299 0.574 139 79 89 0
-24.9405 34.6124 -33.5592 0.352 -0.936 -0.019 130 69 81 0
-21.7997 30.4498 -33.3274 -0.489 -0.124 0.863 124 44 57 0
-20.9834 30.0352 -33.4636 -0.739 -0.201 0.643 121 35 52 0
-20.7712 29.7749 -33.4541 -0.604 -0.208 0.769 119 32 49 0
-19.8187 26.4491 -32.7761 -0.442 -0.897 0.014 122 35 50 0
-19.6280 26.4618 -32.8402 -0.424 -0.904 0.046 123 35 49 0
-19.5516 28.9815 -33.6065 -0.326 -0.280 0.903 121 33 47 0
-16.3108 23.2246 -32.9368 0.264 -0.734 0.626 118 27 42 0
-14.2517 23.7257 -33.7362 -0.196 -0.803 0.563 117 29 42 0
-12.1867 23.2675 -34.2548 0.463 -0.863 0.202 116 33 51 0
-11.4467 22.8331 -34.3611 -0.364 -0.693 0.622 111 24 43 0
-11.1949 24.7872 -35.0164 -0.668 -0.713 0.214 111 22 42 0
-4.9952 25.2193 -37.1061 0.958 -0.283 0.054 95 15 30 0
-4.5579 21.7889 -36.2342 0.221 -0.902 0.370 89 12 25 0
-4.2996 22.4790 -36.5191 0.528 -0.798 0.290 87 15 26 0
-3.0234 23.6964 -37.2817 0.269 -0.958 0.103 80 16 27 0
-0.3560 24.8701 -38.4717 0.226 -0.958 -0.173 60 14 16 0
4.4852 33.7999 -42.6342 0.915 -0.398 -0.069 68 41 27 0
5.1982 32.9944 -42.6227 0.628 -0.721 0.293 97 71 37 0
11.1526 51.3181 -49.9043 0.288 -0.220 0.932 179 157 37 0
13.9973 42.2475 -48.1332 -0.705 -0.703 0.095 213 201 59 0
14.4289 42.1068 -48.2284 -0.677 -0.733 0.070 210 200 64 0
14.7750 42.5783 -48.4768 -0.519 -0.812 0.266 209 200 63 0
18.0076 46.9458 -50.7864 0.687 -0.545 0.482 204 189 60 0
19.9382 43.4382 -50.3644 0.458 -0.886 0.077 177 162 62 0
23.7184 48.1149 -52.9384 0.842 -0.430 0.324 193 179 151 0
-61.1512 36.3281 -22.8335 0.664 -0.509 -0.547 232 221 219 0
-31.2193 51.4310 -36.7939 -0.666 -0.597 0.447 229 221 213 0
-30.3420 49.9681 -36.6379 -0.146 -0.855 -0.498 229 219 209 0
-29.1350 43.6564 -35.1481 -0.676 -0.737 -0.010 223 216 204 0
-27.3145 43.0577 -35.5471 -0.773 -0.489 0.403 163 120 124 0
-26.9627 43.9199 -35.9143 -0.013 -0.811 0.585 148 97 102 0
-26.3877 40.3232 -35.0296 -0.011 -0.975 -0.222 143 89 95 0
-26.3245 41.8877 -35.5137 0.727 -0.384 0.570 141 84 92 0
-25.1369 33.7996 -33.4908 -0.554 -0.709 0.436 136 75 86 0
-24.7998 32.3293 -33.1615 0.679 -0.727 -0.105 133 71 84 0
-24.5132 33.6314 -33.6385 -0.637 -0.501 0.586 129 65 76 0
-23.8081 32.4615 -33.5149 -0.603 -0.227 0.765 124 56 69 0
-21.8291 29.9263 -33.3897 0.175 -0.715 0.677 125 45 58 0
-21.6500 30.2067 -33.5296 0.146 -0.706 0.693 120 39 53 0
-21.4560 30.2644 -33.6081 -0.595 -0.236 0.769 121 38 53 0
-21.2228 29.6810 -33.5090 -0.585 -0.237 0.776 123 37 54 0
-17.8924 24.2392 -32.9497 0.588 -0.726 0.357 123 35 49 0
-16.3703 23.3348 -33.1636 0.019 -1.000 0.003 124 32 49 0
-11.0656 24.6107 -35.2223 0.049 -0.529 0.847 110 22 42 0
-4.3744 22.2515 -36.6419 0.113 -0.945 0.307 85 12 24 0
-4.1090 22.9927 -36.9459 -0.232 -0.969 0.091 83 13 24 0
-3.1557 22.9783 -37.2435 0.350 -0.898 0.266 80 15 27 0
-2.7146 23.4863 -37.5339 0.718 -0.665 0.207 77 15 27 0
-0.4111 24.8428 -38.6659 0.082 -0.995 -0.059 61 15 17 0
4.2003 24.2802 -39.9597 0.076 -0.997 -0.016 123 99 28 0
10.9633 50.6651 -49.9278 0.607 -0.322 0.726 178 157 40 0
14.1127 44.9958 -49.2438 -0.276 -0.952 -0.130 211 200 60 0
14.4539 42.4386 -48.5933 -0.667 -0.739 0.099 211 202 65 0
14.7218 42.5829 -48.7210 -0.504 -0.829 0.245 211 202 64 0
24.4708 49.1386 -53.7534 0.843 -0.382 0.378 190 179 156 0
24.9532 49.9002 -54.1321 0.855 -0.425 0.298 190 179 159 0
24.4277 16.3494 -44.0142 -0.136 -0.857 0.497 184 172 160 0
24.1670 14.7977 -43.4714 0.718 -0.647 0.255 182 170 158 0
-29.2262 43.7967 -35.4142 -0.681 -0.732 -0.011 223 216 205 0
-29.5555 48.4916 -36.7122 -0.721 -0.693 0.030 222 214 203 0
-27.6553 43.5124 -35.8272 -0.873 -0.452 0.182 168 135 134 0
-27.3651 42.8397 -35.7183 -0.874 -0.466 0.136 163 122 125 0
-26.9573 43.1358 -35.9360 0.243 -0.902 0.356 149 98 103 0
-26.5147 40.8832 -35.4034 -0.206 -0.976 -0.070 144 90 95 0
-25.2372 34.1510 -33.7974 -0.511 -0.682 0.523 136 76 87 0
-24.8181 31.8063 -33.2299 0.229 -0.849 0.476 135 73 85 0
-24.6114 31.7267 -33.2717 0.206 -0.848 0.488 133 71 83 0
-23.3945 31.4860 -33.5855 -0.523 -0.220 0.824 123 52 66 0
-22.0723 29.6698 -33.4621 -0.603 -0.188 0.775 126 48 60 0
-21.8831 29.7803 -33.5550 0.201 -0.735 0.647 126 47 60 0
-21.7029 30.0380 -33.6891 0.133 -0.843 0.522 120 40 53 0
-21.5051 30.0316 -33.7499 0.133 -0.843 0.522 120 38 53 0
-21.2955 29.8334 -33.7571 0.070 -0.742 0.667 121 38 54 0
-21.1172 30.1508 -33.9085 -0.934 -0.338 0.118 121 37 53 0
-20.8859 29.5701 -33.8083 -0.926 -0.376 -0.034 119 34 51 0
-16.4251 23.1660 -33.3093 0.017 -0.839 0.544 124 30 48 0
-16.0489 22.9846 -33.3744 0.348 -0.936 -0.051 118 25 43 0
-15.3019 22.9239 -33.5930 0.251 -0.819 0.517 129 36 51 0
-14.3666 23.3237 -34.0088 0.226 -0.690 0.688 114 23 38 0
-8.3844 22.3256 -35.6068 -0.198 -0.937 0.288 111 23 37 0
-4.1190 23.4046 -37.2810 -0.075 -0.741 0.667 82 11 23 0
-0.5088 25.9577 -39.1878 0.507 -0.802 -0.314 61 15 18 0
-0.4658 24.8193 -38.8614 0.044 -0.998 -0.039 61 15 17 0
2.2097 29.4500 -41.0926 0.399 -0.374 0.837 62 26 23 0
2.9256 28.8036 -41.1264 -0.245 -0.593 0.767 65 34 25 0
3.0881 28.5502 -41.1023 -0.161 -0.980 -0.121 66 36 26 0
3.2273 28.1612 -41.0302 -0.333 -0.942 -0.047 67 40 26 0
3.3049 27.4137 -40.8315 -0.188 -0.965 0.180 69 43 25 0
14.6138 45.3425 -49.7711 -0.393 -0.874 -0.286 215 204 62 0
14.7661 44.9771 -49.7102 -0.493 -0.852 -0.176 214 204 64 0
17.8461 46.7480 -51.2154 0.565 -0.812 0.145 203 191 61 0
18.7575 47.4457 -51.7126 0.331 -0.871 -0.362 197 186 61 0
19.8341 46.0288 -51.6306 -0.263 -0.964 0.038 188 172 62 0
21.7650 46.8456 -52.4866 0.249 -0.880 0.405 171 154 69 0
26.4329 49.9842 -54.9036 0.447 -0.504 -0.739 190 179 164 0
20.3289 19.7841 -43.9483 -0.005 -0.887 -0.461 186 176 163 0
41.7269 34.8377 -55.2268 0.643 -0.765 -0.044 167 152 140 0
-56.8527 28.4230 -22.2819 -0.250 -0.967 0.041 235 228 222 0
-29.7106 45.3641 -35.9857 -0.591 -0.780 -0.207 226 218 207 0
-29.0198 45.1690 -36.1462 -0.546 -0.834 0.081 220 210 200 0
-27.7217 43.4425 -36.0386 -0.873 -0.469 0.137 172 140 138 0
-27.4479 42.9295 -35.9711 -0.871 -0.471 0.140 166 126 127 0
-25.4246 35.4209 -34.3544 -0.431 -0.627 0.649 137 76 87 0
-25.2026 35.2489 -34.3731 -0.431 -0.627 0.649 134 72 83 0
-24.5006 31.9820 -33.6131 -0.390 -0.724 0.569 131 68 78 0
-22.1160 29.3796 -33.5866 -0.515 -0.252 0.819 124 48 58 0
-21.9543 29.8910 -33.7917 0.047 -0.983 0.177 124 45 58 0
-21.6327 31.0354 -34.2379 -0.118 -0.775 -0.621 120 39 53 0
-21.4043 30.5651 -34.1689 0.055 -0.817 -0.573 120 37 53 0
-21.1963 30.4084 -34.1878 -0.931 -0.352 -0.093 119 36 52 0
-20.9628 29.8049 -34.0803 -0.928 -0.367 -0.069 120 35 51 0
-16.4805 23.0452 -33.4687 0.017 -0.831 0.555 121 27 45 0
-16.1030 22.7593 -33.5024 0.296 -0.898 -0.326 118 24 42 0
-15.3585 22.8714 -33.7723 -0.363 -0.785 0.503 145 53 66 0
-15.1713 22.7668 -33.8002 -0.363 -0.785 0.503 145 52 65 0
-14.0422 24.3305 -34.6286 -0.872 -0.482 0.088 112 23 40 0
-13.1206 22.3945 -34.3387 -0.378 -0.737 0.560 113 28 47 0
-12.6978 25.0959 -35.2853 -0.676 -0.407 0.615 111 28 43 0
-8.4499 22.1302 -35.7405 0.099 -0.830 0.549 109 21 35 0
-1.4450 23.6798 -38.4282 -0.266 -0.774 0.575 67 17 24 0
-0.5862 27.2691 -39.7802 0.601 -0.558 -0.573 62 15 21 0
-0.5157 24.8312 -39.0693 0.049 -0.998 -0.048 60 15 18 0
-0.2986 24.9867 -39.1849 0.117 -0.989 -0.085 60 15 18 0
2.5560 30.6936 -41.8068 0.219 -0.305 0.927 63 30 25 0
2.9925 28.2830 -41.2201 -0.179 -0.768 0.615 67 38 27 0
2.8098 25.9506 -40.4607 -0.000 -0.551 0.834 69 42 27 0
8.0726 31.1536 -43.6948 0.547 -0.837 0.034 195 178 48 0
8.4732 28.1166 -42.9083 -0.176 -0.937 -0.300 204 190 50 0
14.6160 45.5914 -50.1126 -0.060 -0.909 -0.413 216 205 65 0
14.7290 45.0559 -49.9874 -0.493 -0.852 -0.176 217 205 66 0
16.9237 51.1779 -52.5248 -0.207 -0.060 0.976 215 204 65 0
23.0718 45.6802 -52.8211 -0.355 -0.934 0.022 187 177 146 0
23.9422 46.1432 -53.2365 0.172 -0.961 -0.218 189 177 160 0
22.1006 19.4211 -44.6150 -0.050 -0.929 -0.366 185 176 161 0
21.6034 10.4612 -41.7623 0.341 -0.919 -0.197 184 172 158 0
-62.8609 40.4310 -24.2281 0.173 -0.722 -0.670 233 226 218 0
-63.0151 41.3185 -24.4480 -0.344 -0.867 0.360 234 226 218 0
-31.1306 50.6851 -37.4038 -0.173 -0.774 0.609 229 222 212 0
-30.9125 50.7959 -37.5066 -0.511 -0.630 0.585 228 220 211 0
-30.3584 48.1912 -36.8935 0.180 -0.926 0.331 228 219 209 0
-29.4367 44.3052 -36.0091 -0.746 -0.665 0.035 224 216 205 0
-28.8190 44.7019 -36.3253 -0.635 -0.765 -0.108 218 208 196 0
-28.1193 44.3932 -36.4539 -0.854 -0.510 0.101 214 191 185 0
-27.8318 43.7798 -36.3593 -0.836 -0.536 0.117 181 149 147 0
-27.3049 42.9547 -36.2767 -0.754 -0.650 0.091 162 115 121 0
-24.3785 32.1182 -33.9234 -0.473 -0.613 0.632 130 65 75 0
-24.1552 31.8526 -33.9138 -0.308 -0.591 0.746 127 61 71 0
-22.1861 29.4715 -33.8176 0.237 -0.709 0.664 123 46 57 0
-21.6738 30.6731 -34.3441 0.067 -0.813 -0.578 120 39 53 0
-21.4792 30.7406 -34.4263 0.055 -0.817 -0.573 120 38 53 0
-20.9955 29.2848 -34.1389 -0.920 -0.356 0.166 119 36 52 0
-20.7907 29.1380 -34.1594 -0.873 -0.486 0.047 119 36 52 0
-16.5364 22.9503 -33.6355 0.327 -0.662 0.675 120 26 44 0
-15.4146 22.7405 -33.9280 -0.358 -0.773 0.524 155 63 77 0
-15.2275 22.6580 -33.9624 -0.445 -0.721 0.531 147 55 69 0
-14.2896 24.2630 -34.7462 0.440 -0.804 0.401 112 24 40 0
-13.1299 25.7016 -35.5499 0.165 -0.890 -0.426 111 26 43 0
-12.9254 26.4317 -35.8359 0.822 -0.270 0.502 110 26 42 0
-12.6959 28.4203 -36.5110 0.909 -0.369 0.192 109 27 41 0
-6.8539 24.0505 -37.0416 -0.509 -0.860 -0.024 100 16 32 0
-5.0942 24.3617 -37.6944 0.368 -0.915 0.168 95 18 34 0
-1.8713 23.7733 -38.5390 -0.279 -0.778 0.564 69 17 25 0
-1.6932 23.6515 -38.5586 -0.277 -0.770 0.574 68 17 25 0
4.0531 31.2577 -42.6860 0.584 -0.668 0.461 79 53 27 0
3.6022 22.8531 -39.9974 -0.438 -0.896 -0.071 124 96 32 0
12.2762 43.8891 -49.1213 -0.279 -0.351 0.894 205 193 54 0
12.5770 44.1858 -49.3066 -0.164 -0.387 0.908 207 198 57 0
12.5793 43.1329 -48.9885 -0.385 -0.522 0.761 208 199 58 0
14.1812 48.1511 -51.0167 0.772 -0.602 -0.204 213 204 64 0
14.9852 50.6100 -52.0166 0.713 -0.701 0.011 214 206 67 0
14.9511 49.3783 -51.6327 -0.388 -0.853 0.349 215 207 67 0
15.0188 47.5571 -51.1026 -0.091 -0.680 0.728 217 206 71 0
15.4426 48.3240 -51.4694 -0.165 -0.770 0.616 218 207 72 0
15.7867 48.7426 -51.7054 0.071 -0.917 0.392 218 206 71 0
15.8432 47.9524 -51.4840 -0.615 -0.782 -0.096 217 206 71 0
16.2752 48.7309 -51.8569 -0.087 -0.991 -0.104 216 204 70 0
18.2542 47.8157 -52.2077 0.861 -0.470 0.193 203 190 61 0
23.0424 45.7562 -53.1036 -0.392 -0.920 0.024 182 173 139 0
23.2279 45.5668 -53.1051 -0.297 -0.929 0.220 186 176 151 0
23.9073 46.1994 -53.5123 0.172 -0.961 -0.218 189 177 158 0
21.6826 22.7166 -45.6941 -0.358 -0.737 -0.573 185 175 162 0
40.4829 32.0098 -54.4753 0.634 -0.763 0.128 166 149 139 0
-63.1575 41.4555 -24.6865 -0.359 -0.860 0.361 235 227 218 0
-31.0107 49.1242 -37.2341 -0.841 -0.516 -0.161 229 222 212 0
-30.4323 50.0220 -37.6916 -0.816 -0.494 0.301 227 219 206 0
-28.2039 44.4838 -36.7104 -0.854 -0.510 0.101 217 196 190 0
-27.9139 43.8533 -36.6102 -0.836 -0.536 0.117 195 165 163 0
-27.6000 42.9773 -36.4427 -0.853 -0.486 0.190 170 132 133 0
-27.2955 42.1616 -36.2907 -0.032 -0.761 0.648 162 117 122 0
-26.7675 41.2484 -36.1799 0.096 -0.981 0.168 152 99 105 0
-24.2065 31.6829 -34.0761 -0.486 -0.734 0.474 126 60 70 0
-23.1070 30.3985 -34.0336 0.100 -0.583 0.806 125 50 65 0
-22.2190 29.0317 -33.8988 0.290 -0.705 0.647 125 48 58 0
-22.0599 29.5665 -34.1124 0.619 -0.680 0.392 125 46 59 0
-21.4691 29.5606 -34.2983 0.514 -0.782 0.353 120 39 53 0
-21.2809 29.7037 -34.4016 0.517 -0.689 0.507 119 38 52 0
-21.0433 29.0255 -34.2703 -0.705 -0.583 0.404 119 36 52 0
-20.8487 29.0519 -34.3401 -0.713 -0.567 0.414 119 36 52 0
-14.3472 24.2111 -34.9286 0.048 -0.784 0.619 112 24 40 0
-13.1835 25.9995 -35.8435 0.757 -0.198 0.623 110 25 41 0
-12.7573 28.2853 -36.6759 0.908 -0.377 0.184 108 26 40 0
-5.3466 24.2978 -37.8134 0.376 -0.916 0.140 97 20 36 0
-5.1495 24.3410 -37.8892 0.381 -0.912 0.150 94 17 35 0
-2.9968 22.8277 -38.1113 0.642 -0.573 0.510 73 13 25 0
-2.7444 23.3553 -38.3523 0.258 -0.966 -0.006 73 13 25 0
-2.5146 23.6742 -38.5226 -0.167 -0.982 -0.092 69 11 23 0
-2.3384 23.5322 -38.5352 -0.339 -0.940 -0.041 70 14 24 0
-0.1952 26.5031 -40.1218 0.554 -0.382 0.740 60 17 20 0
0.0534 26.8616 -40.3101 0.301 -0.844 0.444 60 17 20 0
0.2713 26.9902 -40.4185 0.340 -0.837 0.428 59 17 20 0
0.5147 27.2948 -40.5887 0.273 -0.913 0.302 59 18 21 0
0.7144 27.2873 -40.6499 0.263 -0.907 0.329 61 20 23 0
0.9449 27.4905 -40.7850 0.362 -0.871 0.332 59 21 24 0
1.4021 27.8547 -41.0413 0.678 -0.695 0.238 61 25 26 0
7.2197 40.9092 -46.8698 -0.072 -0.787 0.613 137 114 28 0
14.3994 50.4781 -52.0680 0.891 -0.444 0.093 213 204 65 0
14.9102 49.4540 -51.9179 -0.654 -0.612 0.445 218 210 74 0
15.2719 48.8879 -51.8602 -0.399 -0.822 0.406 220 210 78 0
15.4905 48.7718 -51.8942 -0.544 -0.837 -0.060 220 210 77 0
15.8616 48.2676 -51.8583 -0.467 -0.882 -0.065 218 208 75 0
16.5942 49.2675 -52.3958 -0.412 -0.868 0.276 215 205 74 0
16.6299 48.4037 -52.1438 -0.588 -0.805 -0.081 214 205 71 0
16.8384 48.2534 -52.1641 -0.588 -0.805 -0.081 213 204 69 0
17.4332 48.6695 -52.4799 0.366 -0.766 0.528 209 200 63 0
17.7929 49.1192 -52.7313 0.073 -0.971 -0.228 208 199 62 0
18.0149 49.0202 -52.7716 -0.205 -0.892 -0.404 208 197 62 0
18.2109 48.8206 -52.7730 0.171 -0.914 -0.367 206 194 60 0
18.4829 48.9180 -52.8890 0.171 -0.914 -0.367 203 190 59 0
18.9433 47.8525 -52.7103 0.227 -0.895 0.383 199 185 61 0
19.1926 47.8673 -52.7940 0.198 -0.894 0.402 197 183 61 0
19.3353 47.4835 -52.7223 0.259 -0.940 0.220 196 181 61 0
20.3878 50.4790 -53.9700 0.863 -0.475 -0.170 194 179 60 0
25.3447 49.4255 -55.2229 0.462 -0.512 -0.724 186 178 158 0
22.3672 35.5063 -50.0326 -0.168 -0.824 0.541 190 179 166 0
21.0121 19.8463 -44.8266 0.102 -0.777 -0.621 183 173 161 0
24.3390 24.5560 -47.3194 0.176 -0.960 -0.217 183 173 161 0
23.8652 15.3124 -44.3501 0.233 -0.971 0.061 184 172 160 0
37.0146 30.8960 -53.2783 0.652 -0.683 -0.330 176 162 149 0
-61.8759 33.7941 -22.9840 0.702 -0.417 -0.576 255 255 255 0
-30.4939 49.8822 -37.8964 -0.822 -0.493 0.285 226 218 206 0
-28.1406 43.2340 -36.6029 0.503 -0.307 0.808 219 200 194 0
-27.7871 42.0018 -36.3369 -0.010 -0.757 0.654 207 179 176 0
-27.5677 41.9850 -36.4015 -0.039 -0.764 0.644 174 140 139 0
-27.3522 42.0057 -36.4763 -0.032 -0.761 0.648 161 118 120 0
-21.9164 29.4105 -34.3364 -0.130 -0.344 0.930 127 47 60 0
-21.7105 29.2685 -34.3582 0.352 -0.576 0.738 123 43 56 0
-21.1545 29.8279 -34.7066 -0.600 -0.128 0.790 119 37 52 0
-20.6995 28.7703 -34.5265 -0.795 -0.183 0.578 120 36 52 0
-18.5391 23.5804 -33.6195 -0.460 -0.887 0.032 121 35 50 0
-14.4036 24.7516 -35.2933 -0.351 -0.671 -0.653 112 24 40 0
-14.2195 22.9619 -34.8022 -0.578 -0.699 -0.422 111 23 39 0
-11.4057 22.7306 -35.6254 -0.181 -0.918 -0.353 101 21 34 0
-11.2151 22.8020 -35.7079 0.255 -0.954 -0.156 105 25 36 0
-6.6676 22.8895 -37.1799 0.166 -0.983 0.081 102 16 33 0
-5.6189 24.0038 -37.8553 0.229 -0.841 0.490 94 16 31 0
-5.4094 24.1925 -37.9798 0.036 -0.998 0.048 95 17 34 0
-5.0724 23.6618 -37.9239 -0.632 -0.743 0.222 91 14 32 0
-2.8245 23.1095 -38.4687 0.261 -0.963 -0.072 75 15 25 0
-2.5683 23.6586 -38.7187 0.288 -0.947 0.139 70 14 23 0
-2.3928 23.5101 -38.7289 -0.326 -0.945 -0.040 71 14 23 0
-1.9924 23.6279 -38.8923 -0.122 -0.992 -0.001 66 15 22 0
2.5033 30.0534 -42.2939 0.115 -0.987 -0.109 63 34 26 0
4.3687 31.2735 -43.2613 0.442 -0.839 0.318 93 68 28 0
5.1265 34.4333 -44.4723 -0.170 -0.977 -0.133 104 78 30 0
7.1406 40.7872 -47.0633 0.012 -0.879 0.476 137 116 27 0
13.9239 49.7182 -51.9612 0.902 -0.428 0.053 212 204 67 0
14.8888 49.6152 -52.2362 -0.473 -0.634 0.612 220 212 80 0
14.9858 46.8657 -51.4227 -0.476 -0.696 0.538 222 213 85 0
15.3993 47.5905 -51.7767 -0.037 -0.754 -0.656 222 212 86 0
16.6964 49.9265 -52.9062 -0.753 -0.655 -0.072 216 207 76 0
16.7906 49.2949 -52.7422 -0.346 -0.911 0.226 215 207 74 0
16.1309 45.6087 -51.4007 0.179 -0.883 -0.434 214 205 71 0
16.4522 45.9356 -51.6032 0.157 -0.893 -0.421 212 202 67 0
17.7520 49.1822 -53.0131 0.073 -0.971 -0.228 209 200 63 0
17.9956 49.1670 -53.0858 -0.205 -0.892 -0.404 209 198 63 0
18.7188 47.2107 -52.7149 0.302 -0.801 0.517 198 185 58 0
18.9682 47.2303 -52.8002 0.304 -0.800 0.518 197 183 58 0
19.2519 47.3777 -52.9356 0.146 -0.840 0.523 195 181 59 0
-62.9350 39.4750 -24.6305 0.549 -0.616 -0.564 234 227 219 0
-28.9605 43.9798 -36.8266 -0.313 -0.936 0.162 220 212 201 0
-27.8324 41.7462 -36.4949 0.500 -0.781 0.373 214 189 185 0
-27.6345 41.9262 -36.6134 0.500 -0.787 0.362 184 153 151 0
-27.4152 41.9104 -36.6783 -0.173 -0.856 0.487 163 123 124 0
-27.1899 41.8371 -36.7272 -0.173 -0.856 0.487 159 112 117 0
-24.3885 32.2550 -34.6558 -0.421 -0.834 0.357 128 62 72 0
-21.4302 30.0590 -34.9177 -0.600 -0.130 0.789 120 40 53 0
-21.1937 29.4245 -34.7967 -0.621 -0.132 0.773 120 38 52 0
-16.9299 24.4481 -34.6141 0.216 -0.972 0.091 119 27 45 0
-16.3453 23.4971 -34.5060 0.276 -0.946 0.171 116 25 42 0
-15.9640 23.0865 -34.5004 0.088 -0.971 0.223 113 25 41 0
-15.7750 22.9428 -34.5160 0.348 -0.831 0.435 114 26 40 0
-15.2166 23.4510 -34.8507 0.352 -0.864 0.360 114 26 42 0
-15.0329 24.5808 -35.2584 0.452 -0.879 -0.152 112 24 40 0
-14.6520 24.3388 -35.3047 0.627 -0.651 -0.428 112 24 40 0
-14.4614 24.7240 -35.4844 -0.295 -0.705 -0.645 112 24 40 0
-11.8212 23.3279 -35.8923 0.370 -0.887 0.277 104 24 37 0
-11.6353 23.2129 -35.9159 0.321 -0.904 0.282 104 22 35 0
-11.4509 23.0577 -35.9265 0.264 -0.928 0.263 105 25 36 0
-6.0402 21.9331 -37.2994 -0.264 -0.934 0.240 95 13 29 0
-5.4981 23.7942 -38.0472 -0.126 -0.547 0.828 91 13 29 0
-2.8575 23.2732 -38.7258 0.239 -0.925 0.297 75 15 25 0
4.8082 34.1516 -44.5264 0.312 -0.918 0.246 95 72 28 0
5.0967 34.5756 -44.7492 0.013 -0.897 0.442 104 80 28 0
5.7623 37.1450 -45.7551 -0.669 -0.732 0.126 114 89 24 0
7.0999 40.8776 -47.3344 -0.018 -0.895 0.445 139 118 29 0
8.7149 33.2060 -45.4763 -0.222 -0.972 0.072 200 188 53 0
13.6380 50.9494 -52.5271 0.618 -0.154 0.771 210 202 67 0
13.8387 48.4902 -51.8307 0.900 -0.423 -0.106 216 208 74 0
15.6775 47.9748 -52.2560 -0.233 -0.679 -0.696 226 216 97 0
17.8149 49.6584 -53.4562 -0.111 -0.879 -0.464 208 198 65 0
18.4187 47.2086 -52.8909 0.295 -0.830 -0.473 203 190 60 0
18.6091 47.0037 -52.8880 0.617 -0.784 0.073 199 186 56 0
19.0438 47.7240 -53.2489 0.598 -0.797 -0.079 198 183 56 0
20.1795 50.1234 -54.3518 0.834 -0.496 -0.243 195 181 58 0
17.2461 10.0467 -41.0296 -0.749 -0.579 -0.322 185 173 161 0
23.7677 15.7087 -44.8538 -0.523 -0.814 0.252 183 171 159 0
37.6764 31.9926 -54.3106 0.641 -0.687 -0.341 174 161 148 0
-28.6101 38.5416 -35.5011 0.663 -0.656 0.362 221 211 204 0
-28.7968 43.8270 -37.0867 -0.440 -0.885 -0.153 218 208 201 0
-28.0985 41.5286 -36.5936 0.500 -0.781 0.373 217 202 195 0
-27.6882 41.7462 -36.7918 0.510 -0.780 0.362 194 166 163 0
-27.4815 41.8463 -36.8888 0.335 -0.878 0.343 165 127 128 0
-27.2650 41.8576 -36.9612 0.037 -0.958 0.285 157 112 116 0
-23.2582 29.8531 -34.4999 -0.284 -0.828 0.484 129 56 69 0
-23.0483 29.6896 -34.5157 -0.201 -0.911 0.360 125 52 66 0
-22.8572 29.7671 -34.6006 -0.196 -0.926 0.322 122 48 62 0
-22.3288 27.9052 -34.1893 -0.292 -0.950 -0.113 123 47 61 0
-22.1835 28.5984 -34.4513 0.291 -0.611 0.736 126 49 63 0
-21.9613 28.2046 -34.3994 0.252 -0.700 0.668 128 50 64 0
-16.2130 23.3514 -34.7180 -0.128 -0.985 0.118 113 25 39 0
-16.0214 23.0750 -34.6929 -0.115 -0.983 0.139 114 26 40 0
-15.8328 22.9681 -34.7197 -0.040 -0.979 0.202 114 26 40 0
-14.9001 24.4440 -35.4758 0.551 -0.820 -0.154 109 21 35 0
-14.7101 24.6965 -35.6149 0.542 -0.824 -0.165 110 23 37 0
-14.5189 25.2042 -35.8337 0.113 -0.991 -0.065 111 24 39 0
-11.6914 23.2000 -36.1096 0.454 -0.844 0.284 106 24 38 0
-11.5086 22.9913 -36.1029 0.264 -0.928 0.263 105 25 39 0
-8.8463 23.2062 -37.0169 -0.189 -0.973 0.135 103 20 34 0
-5.9581 21.3025 -37.3434 -0.017 -0.984 0.177 94 16 29 0
-3.8739 27.0502 -39.7955 0.100 -0.934 -0.342 81 13 24 0
-3.1055 23.2406 -38.8543 0.119 -0.904 0.410 74 14 23 0
-2.8891 23.4509 -38.9886 0.137 -0.891 0.433 73 14 22 0
-1.6422 24.1584 -39.6055 0.051 -0.620 0.783 65 17 23 0
-0.0974 26.9116 -40.9540 -0.217 -0.702 0.679 60 19 21 0
0.7343 27.1213 -41.2839 0.319 -0.616 0.720 61 21 25 0
4.0718 31.3862 -43.6733 0.040 -0.541 0.840 92 69 28 0
7.0013 40.6478 -47.4881 -0.252 -0.901 0.354 139 121 32 0
7.4934 39.6127 -47.3225 -0.740 -0.492 0.459 162 143 40 0
8.6619 33.2015 -45.6989 -0.222 -0.972 0.072 200 189 53 0
14.9076 51.3099 -53.3223 0.581 0.052 0.812 230 222 98 0
14.5265 48.5381 -52.3383 -0.272 -0.068 0.960 233 224 104 0
18.0214 49.7180 -53.8176 -0.012 -0.871 -0.491 208 199 63 0
18.5821 48.9989 -53.7722 -0.178 -0.873 -0.455 203 192 60 0
20.3231 50.8682 -54.9080 0.827 -0.482 -0.289 193 181 58 0
21.1753 49.4018 -54.7228 0.592 -0.649 -0.478 180 167 58 0
21.9799 50.4861 -55.3163 0.519 -0.716 -0.468 174 159 58 0
25.6820 8.7815 -43.5141 0.876 -0.473 -0.090 179 164 152 0
37.8622 27.8712 -53.3313 0.879 -0.477 0.022 167 153 142 0
-63.9347 41.4997 -25.4249 -0.482 -0.874 0.061 235 226 217 0
-30.3876 48.9754 -38.4489 -0.764 -0.538 0.356 224 214 206 0
-29.1218 44.0772 -37.3172 -0.626 -0.779 -0.010 220 209 203 0
-28.9088 44.1492 -37.4075 -0.409 -0.879 -0.246 218 207 201 0
-28.1689 41.5045 -36.8144 0.251 -0.944 0.212 217 204 196 0
-27.7490 41.6329 -36.9884 0.209 -0.956 0.206 206 180 177 0
-27.5464 41.7696 -37.0957 0.321 -0.885 0.337 171 137 136 0
-27.3354 41.8329 -37.1827 0.117 -0.959 0.257 158 117 120 0
-22.2788 29.0480 -34.7868 -0.043 -0.984 -0.175 125 49 64 0
-22.0534 28.6241 -34.7257 -0.134 -0.476 0.869 129 53 66 0
-21.6701 28.7420 -34.8847 0.074 -0.481 0.874 126 46 57 0
-16.2691 23.2408 -34.8807 0.069 -0.873 0.483 113 25 39 0
-16.0790 23.0720 -34.8883 -0.030 -0.984 0.174 113 25 39 0
-11.7497 23.1116 -36.2792 0.454 -0.844 0.284 105 23 36 0
-11.5663 22.9188 -36.2772 0.301 -0.925 0.231 105 23 37 0
-8.8991 23.2374 -37.2262 -0.237 -0.963 0.130 100 18 32 0
-3.1365 23.4283 -39.1209 -0.093 -0.893 0.440 71 12 21 0
-2.9393 23.4665 -39.1957 -0.078 -0.809 0.583 71 13 20 0
-2.7554 23.3878 -39.2295 -0.049 -0.800 0.598 68 14 21 0
-0.1384 26.9969 -41.1937 0.154 -0.460 0.875 59 19 20 0
0.0498 26.9078 -41.2257 -0.601 -0.394 0.695 58 19 22 0
3.6866 30.6531 -43.5572 0.254 -0.892 -0.374 86 63 29 0
4.0039 31.2987 -43.8605 0.113 -0.602 0.791 94 71 30 0
13.2391 50.8098 -52.9147 -0.190 -0.092 0.977 208 201 63 0
17.9826 50.7840 -54.4170 0.454 -0.804 -0.384 210 200 65 0
17.9453 49.6425 -54.0474 0.005 -0.867 -0.498 209 200 61 0
18.3015 50.0646 -54.2931 -0.034 -0.866 -0.499 208 199 60 0
18.3783 49.3902 -54.1062 -0.292 -0.834 -0.468 205 196 58 0
18.5881 48.2861 -53.8271 0.441 -0.842 -0.311 201 192 58 0
18.5833 47.3271 -53.5250 0.614 -0.779 -0.131 201 191 57 0
20.0188 50.8837 -55.0965 0.880 -0.432 -0.197 195 183 56 0
21.7985 45.7270 -54.0474 0.288 -0.893 0.347 161 145 64 0
26.9480 11.6180 -44.9993 -0.419 -0.732 -0.538 178 165 152 0
42.5504 37.0462 -57.9349 -0.900 -0.335 -0.277 166 153 140 0
41.1240 33.2170 -56.2809 -0.044 -0.919 -0.392 164 150 137 0
-27.6185 41.7606 -37.3216 0.076 -0.977 0.201 178 147 145 0
-27.4204 41.9451 -37.4430 0.181 -0.978 0.101 161 123 125 0
-20.8919 27.7613 -35.0489 0.047 -0.815 0.578 127 47 59 0
-17.6046 22.0652 -34.2995 -0.440 -0.890 0.119 120 32 48 0
-17.4160 21.9398 -34.3200 -0.443 -0.889 0.119 119 31 47 0
-16.8999 23.6926 -35.0374 0.205 -0.770 0.604 118 30 46 0
