ply
format ascii 1.0
element vertex 825
property float x
property float y
property float z
property float nx
property float ny
property float nz
property uchar diffuse_red
property uchar diffuse_green
property uchar diffuse_blue
property uchar class
end_header
-4.0416 25.4454 -38.3187 -0.133 -0.948 0.290 78 11 21 0
-3.8673 25.3228 -38.3482 -0.420 -0.875 0.243 75 11 20 0
-0.2103 28.6708 -40.6337 0.421 -0.179 0.889 61 19 20 0
0.1367 29.3468 -40.9515 0.162 -0.805 0.570 59 20 21 0
1.1652 30.2794 -41.5917 -0.855 -0.509 -0.096 57 26 21 0
3.6050 31.7550 -42.9031 0.505 -0.854 -0.124 75 53 29 0
4.8732 34.3447 -44.0980 0.351 -0.928 -0.123 93 71 30 0
5.1641 34.6424 -44.2886 0.165 -0.964 -0.207 107 85 35 0
6.0739 32.2344 -43.9446 0.437 -0.899 -0.018 169 149 42 0
17.7614 50.1352 -53.2766 0.371 -0.626 -0.685 209 200 63 0
20.8311 47.9227 -53.7808 0.066 -0.969 -0.237 184 167 59 0
21.1312 48.0610 -53.9300 -0.016 -0.994 -0.109 182 165 59 0
21.4789 48.3343 -54.1346 -0.480 -0.852 -0.211 179 161 57 0
21.7794 48.4690 -54.2828 0.000 -0.977 -0.215 175 157 57 0
22.1343 48.7565 -54.4941 -0.063 -0.953 -0.297 173 154 59 0
21.3614 45.8517 -53.3924 -0.506 -0.862 0.006 167 151 59 0
21.0627 17.8823 -45.4072 0.712 -0.632 0.306 184 172 159 0
21.3929 18.1704 -45.6095 -0.267 -0.604 0.751 184 172 160 0
-66.3013 49.7341 -22.5488 -0.819 -0.545 0.179 255 255 255 0
-30.5611 54.0199 -36.9008 0.418 -0.850 0.321 229 220 210 0
-30.3675 54.6612 -37.1538 0.510 -0.845 0.162 228 218 209 0
-29.6730 54.7327 -37.4294 -0.975 -0.168 0.148 224 213 204 0
-19.8055 25.5423 -32.7757 -0.314 -0.890 -0.329 123 35 50 0
-19.6165 25.6117 -32.8648 -0.322 -0.893 -0.314 123 34 49 0
-18.1772 24.1564 -32.9810 -0.260 -0.952 0.161 119 31 47 0
-14.1728 25.1999 -34.7488 0.659 -0.709 0.249 113 24 43 0
-14.0068 22.6686 -34.0918 0.437 -0.669 0.601 111 23 42 0
-13.8427 22.4223 -34.0822 -0.152 -0.802 0.578 111 22 41 0
-12.1900 22.2550 -34.6422 -0.137 -0.680 0.720 101 20 35 0
-9.8929 22.7328 -35.6220 -0.086 -0.766 0.637 102 20 34 0
-6.3124 23.8487 -37.2546 -0.632 -0.760 0.151 94 14 28 0
-4.1485 25.1739 -38.4259 0.379 -0.731 0.568 76 10 20 0
-3.8581 25.6995 -38.6817 0.288 -0.885 0.366 74 11 21 0
-3.6310 25.8642 -38.8119 0.459 -0.791 0.403 74 12 22 0
0.0254 29.1001 -41.0737 0.160 -0.804 0.572 60 20 20 0
1.3989 30.6660 -42.0227 -0.839 -0.526 0.139 58 28 23 0
3.5493 31.7720 -43.1268 0.551 -0.829 -0.096 77 55 30 0
4.8506 34.5020 -44.3795 0.262 -0.930 -0.259 95 73 31 0
7.5270 38.9687 -46.6303 -0.606 -0.231 0.761 166 144 37 0
9.2117 36.7896 -46.6313 -0.055 -0.965 0.258 199 186 48 0
18.9789 46.3324 -52.9282 -0.474 -0.877 -0.073 195 183 56 0
19.3768 46.0391 -52.9913 -0.381 -0.922 -0.063 189 177 58 0
19.5855 45.9229 -53.0350 -0.372 -0.927 -0.058 185 172 57 0
20.7733 47.9381 -54.0433 0.056 -0.995 -0.081 184 167 60 0
21.3978 48.2826 -54.3705 -0.278 -0.934 -0.223 179 162 60 0
21.6130 48.1733 -54.4186 -0.265 -0.947 -0.182 175 158 59 0
21.8137 48.0233 -54.4498 -0.247 -0.899 -0.361 173 156 60 0
27.5102 34.7876 -52.7890 0.550 -0.677 -0.489 187 175 162 0
28.0979 35.5843 -53.2310 0.550 -0.677 -0.489 187 173 163 0
20.6467 17.4981 -45.3618 0.709 -0.631 0.315 184 173 160 0
21.6006 18.2832 -45.9351 -0.241 -0.681 0.691 182 171 159 0
30.0736 28.9942 -52.0877 -0.752 -0.613 0.243 183 171 156 0
29.7012 27.7821 -51.6070 -0.719 -0.695 0.015 181 169 154 0
25.3111 16.0562 -46.6672 -0.035 -0.790 0.612 181 169 154 0
-30.6260 53.6721 -37.0516 0.478 -0.595 0.646 229 221 210 0
-30.3437 52.8088 -36.9088 0.536 -0.703 0.468 228 218 209 0
-30.1375 53.2108 -37.0995 0.516 -0.685 0.514 228 217 208 0
-20.4348 25.3310 -32.7021 -0.147 -0.787 0.599 118 30 45 0
-20.0658 25.1723 -32.7925 -0.013 -0.874 0.486 121 33 49 0
-19.8735 25.4039 -32.9294 -0.422 -0.831 0.362 123 35 51 0
-19.6923 25.2011 -32.9382 -0.789 -0.531 0.309 121 33 49 0
-18.2408 24.1419 -33.1695 -0.260 -0.952 0.161 119 31 45 0
-17.7189 23.3996 -33.1493 -0.264 -0.945 -0.192 139 51 65 0
-14.0790 22.5309 -34.2402 0.503 -0.598 0.624 110 23 39 0
-13.9158 22.2741 -34.2269 0.303 -0.680 0.668 112 24 41 0
-13.7277 22.3109 -34.3066 -0.318 -0.724 0.612 112 24 42 0
-11.9212 21.8462 -34.8384 -0.578 -0.766 0.281 102 21 36 0
-4.2553 24.9016 -38.5319 0.264 -0.908 0.324 75 10 20 0
-3.9370 25.5866 -38.8447 0.072 -0.932 -0.354 74 11 20 0
-1.7740 26.5337 -39.9111 0.523 -0.566 0.638 67 16 23 0
-0.0321 29.1094 -41.2880 0.750 -0.622 0.227 60 21 20 0
-0.3742 25.5781 -40.1530 0.099 -0.987 0.125 57 22 20 0
1.1403 30.7148 -42.1781 -0.717 -0.440 0.540 58 26 22 0
1.3501 30.7170 -42.2559 -0.839 -0.524 0.147 59 28 23 0
2.1755 31.5908 -42.8093 -0.408 -0.346 0.845 65 34 28 0
4.1122 34.4043 -44.3258 0.294 -0.846 -0.445 77 55 29 0
7.3997 39.6118 -47.0234 -0.663 -0.299 0.687 162 140 35 0
9.1569 36.8112 -46.8695 -0.386 -0.886 -0.258 199 187 49 0
20.7609 48.0863 -54.3607 0.021 -0.985 -0.174 184 168 57 0
21.2270 47.9721 -54.4995 -0.084 -0.947 -0.309 178 161 58 0
21.5169 48.0784 -54.6366 -0.134 -0.928 -0.347 174 158 58 0
21.7952 48.1498 -54.7593 -0.144 -0.934 -0.328 172 156 59 0
22.3111 48.8935 -55.1617 -0.445 -0.816 -0.369 168 153 59 0
42.6318 42.2486 -60.7388 -0.867 -0.498 -0.008 172 161 152 0
42.3337 41.2269 -60.3372 -0.656 -0.752 -0.060 173 160 151 0
23.8244 3.2833 -42.6847 0.787 -0.553 0.275 165 148 138 0
-66.2140 49.5157 -23.0234 -0.818 -0.551 0.167 255 255 255 0
-62.3649 42.7599 -22.4961 0.618 -0.647 -0.446 233 224 217 0
-62.2742 43.0717 -22.6192 0.590 -0.696 -0.409 234 223 217 0
-62.3094 43.7732 -22.8082 0.193 -0.877 -0.440 235 224 218 0
-30.6967 53.4239 -37.2278 0.478 -0.595 0.646 230 221 211 0
-30.4614 53.3440 -37.2915 0.468 -0.665 0.582 228 219 210 0
-25.5252 33.4671 -33.3875 -0.241 -0.829 -0.504 136 70 80 0
-20.5007 25.2666 -32.8772 -0.105 -0.769 0.630 117 29 45 0
-18.3055 24.1047 -33.3511 -0.269 -0.941 0.207 119 31 45 0
-14.2409 25.9107 -35.3678 0.701 -0.513 0.496 109 25 40 0
-6.5619 23.0090 -37.3604 -0.522 -0.853 0.025 96 16 30 0
-5.7142 22.3638 -37.4868 -0.657 -0.606 0.447 87 15 23 0
-4.3433 24.7340 -38.6740 0.309 -0.890 0.336 76 11 21 0
-3.5147 26.0629 -39.3616 0.546 -0.836 0.050 74 13 21 0
-0.1645 27.7882 -41.0920 0.292 -0.957 -0.005 59 21 20 0
1.7626 31.9088 -42.9878 -0.883 -0.344 0.320 59 28 24 0
2.6477 31.1441 -43.0937 -0.762 -0.562 0.323 73 45 31 0
4.0824 34.5376 -44.5988 0.294 -0.846 -0.445 78 56 31 0
4.2075 34.1465 -44.5323 0.064 -0.879 -0.473 83 61 30 0
8.1123 39.0685 -47.3871 -0.150 -0.907 0.394 178 163 43 0
9.3509 39.4132 -47.9425 0.027 -0.969 0.244 196 183 51 0
19.9371 48.8323 -54.5523 -0.289 -0.852 -0.437 191 180 54 0
20.1747 48.7845 -54.6261 -0.254 -0.853 -0.457 189 177 54 0
21.4499 48.0668 -54.8891 -0.275 -0.938 -0.209 173 158 56 0
21.7709 48.2600 -55.0629 -0.144 -0.934 -0.328 171 156 57 0
22.2600 48.9278 -55.4352 -0.481 -0.801 -0.355 167 152 59 0
24.6323 48.4207 -56.1629 -0.853 -0.432 -0.294 189 177 153 0
42.5528 42.1954 -60.9702 -0.827 -0.551 -0.113 172 162 152 0
41.9478 40.6072 -60.2902 -0.834 -0.534 -0.138 172 160 150 0
38.0482 32.1176 -56.4103 -0.399 -0.620 0.675 170 157 147 0
38.2164 31.9951 -56.4370 -0.376 -0.649 0.661 170 156 146 0
39.5700 30.2304 -56.4275 -0.547 -0.770 -0.328 162 145 135 0
-66.3535 49.6457 -23.2622 -0.813 -0.557 0.171 255 255 255 0
-62.4622 43.9647 -23.0494 0.232 -0.945 -0.232 234 223 217 0
-62.3036 44.0769 -23.1403 0.197 -0.888 -0.417 237 226 220 0
-20.1380 27.6841 -33.9299 -0.877 -0.302 0.375 117 29 45 0
-20.0048 25.3132 -33.2915 -0.422 -0.831 0.362 123 35 51 0
-17.6419 23.7621 -33.7127 0.053 -0.989 0.136 118 30 44 0
-3.8245 25.7697 -39.3881 0.113 -0.916 -0.384 73 12 20 0
-3.5995 25.9202 -39.5147 0.566 -0.824 0.027 75 14 22 0
0.5887 28.7186 -41.8700 0.720 -0.692 0.059 59 27 23 0
1.7004 31.9014 -43.2026 -0.883 -0.346 0.316 61 30 26 0
2.6529 31.4268 -43.4161 -0.746 -0.558 0.363 73 46 32 0
2.9417 31.7594 -43.6190 -0.784 -0.590 0.191 72 47 30 0
3.9823 34.3730 -44.7604 0.287 -0.911 -0.297 79 57 31 0
4.1519 34.1697 -44.7640 0.251 -0.923 -0.292 86 64 32 0
4.4944 34.6912 -45.0414 0.113 -0.946 -0.304 89 68 30 0
7.6402 38.3700 -47.2677 -0.050 -0.900 0.432 177 162 43 0
8.1944 39.6238 -47.8356 -0.011 -0.905 0.425 179 165 43 0
18.2883 49.4188 -54.3965 -0.627 -0.663 -0.410 204 194 61 0
19.9592 49.0908 -54.9172 -0.256 -0.837 -0.483 190 179 52 0
20.1333 48.8519 -54.9122 -0.145 -0.840 -0.523 188 177 52 0
20.3275 48.6748 -54.9324 -0.306 -0.783 -0.542 187 175 53 0
20.4696 47.6045 -54.6745 0.720 -0.537 -0.441 182 167 50 0
20.9035 47.4012 -54.7754 -0.373 -0.921 -0.110 175 160 52 0
21.4130 48.1421 -55.1781 -0.275 -0.938 -0.209 173 159 55 0
23.1151 46.5404 -55.3411 0.028 -0.976 -0.217 170 156 114 0
23.4066 46.6483 -55.4798 -0.369 -0.923 -0.111 188 171 137 0
23.6333 46.5792 -55.5433 -0.202 -0.976 -0.076 191 177 149 0
24.7041 48.7806 -56.5764 -0.857 -0.429 -0.285 188 177 152 0
18.0659 28.6040 -48.2791 -0.468 -0.796 -0.384 189 178 160 0
14.5448 9.8771 -41.5511 -0.448 -0.861 0.239 186 175 162 0
28.6983 39.4846 -55.3532 0.891 -0.430 0.143 189 177 163 0
32.2049 27.2764 -53.1059 0.743 -0.432 0.511 181 168 156 0
25.3176 12.1523 -46.1818 -0.357 -0.887 -0.291 177 165 153 0
-66.4937 49.7765 -23.5018 -0.813 -0.557 0.171 255 255 255 0
-63.2584 46.1197 -23.6275 0.150 -0.756 -0.637 235 224 218 0
-30.0744 47.8571 -36.3788 -0.513 -0.544 0.664 225 214 208 0
-25.0673 33.1735 -33.9378 -0.938 -0.345 0.008 132 63 74 0
-20.2045 27.6682 -34.1241 -0.877 -0.298 0.377 120 32 48 0
-17.1517 23.6853 -34.0872 0.053 -0.996 0.075 120 31 45 0
-16.7583 24.0730 -34.3457 0.216 -0.974 -0.065 117 27 42 0
-9.9209 22.8980 -36.5253 -0.203 -0.846 0.492 102 20 34 0
-9.7205 22.9896 -36.6259 0.069 -0.950 0.305 101 19 33 0
-6.7054 24.0673 -38.0532 -0.252 -0.966 0.058 98 18 29 0
-6.5272 23.9733 -38.0915 -0.274 -0.961 0.042 98 21 31 0
-3.9333 25.4912 -39.4919 0.524 -0.670 0.527 74 13 21 0
-1.8818 27.9114 -40.9557 0.664 -0.696 0.273 67 19 27 0
-0.8005 26.2728 -40.8760 0.610 -0.781 0.133 62 23 23 0
0.4431 28.3168 -41.9319 0.611 -0.769 0.188 60 27 23 0
0.7124 28.6126 -42.1176 0.657 -0.750 0.083 60 29 24 0
2.9383 32.0046 -43.9296 -0.605 -0.653 0.454 73 48 30 0
3.2062 31.3303 -43.8315 0.409 -0.685 -0.603 82 58 30 0
4.0721 34.0909 -44.9572 0.524 -0.798 -0.298 88 64 31 0
4.4617 34.8113 -45.3114 0.302 -0.940 -0.158 90 68 28 0
7.2973 39.9588 -47.8610 -0.769 -0.280 0.574 161 145 35 0
7.7783 37.3992 -47.2910 -0.066 -0.950 0.305 184 170 45 0
10.9422 47.5947 -51.4360 -0.644 -0.584 0.494 189 176 44 0
11.3418 48.1677 -51.7509 -0.703 -0.605 0.375 193 181 45 0
11.7153 48.6350 -52.0251 -0.643 -0.519 0.563 195 185 47 0
16.6212 49.9795 -54.2279 -0.337 -0.742 -0.579 220 213 84 0
15.1029 39.6450 -50.6494 -0.497 -0.737 -0.458 204 194 61 0
19.9591 49.2837 -55.2563 -0.391 -0.814 -0.429 191 180 51 0
20.1668 49.1431 -55.2919 -0.427 -0.826 -0.369 189 178 50 0
20.4185 49.1342 -55.3821 -0.434 -0.824 -0.363 186 175 52 0
20.6653 49.1105 -55.4663 -0.352 -0.869 -0.347 182 170 50 0
20.9174 47.6237 -55.1251 -0.412 -0.862 -0.295 175 160 51 0
21.2054 47.7259 -55.2611 -0.438 -0.868 -0.235 171 158 54 0
22.7734 46.4617 -55.4705 0.029 -0.994 -0.105 154 141 90 0
23.0587 46.5540 -55.6027 -0.001 -0.998 -0.058 168 155 112 0
23.3437 46.6441 -55.7342 -0.139 -0.987 -0.076 185 171 135 0
14.3992 9.6291 -41.6233 -0.097 -0.995 -0.002 187 175 163 0
14.6127 9.7072 -41.7249 -0.104 -0.994 0.013 187 175 163 0
22.1886 13.6434 -45.6698 0.241 -0.518 0.821 182 170 156 0
29.2811 23.8042 -51.2542 0.789 -0.520 0.327 179 170 153 0
36.2544 30.2803 -55.7186 -0.287 -0.397 0.872 170 159 147 0
39.5966 30.4301 -56.9955 -0.537 -0.776 -0.331 162 145 135 0
-66.5815 49.7547 -23.7166 -0.793 -0.596 0.129 255 255 255 0
-28.5420 51.2801 -38.2143 -0.987 -0.097 0.124 216 195 190 0
-27.5601 44.0733 -36.4569 -0.985 -0.108 0.131 167 127 129 0
-20.4631 27.5880 -34.2286 -0.799 -0.581 0.156 120 32 48 0
-16.8262 23.9778 -34.5099 0.236 -0.971 -0.027 115 26 41 0
-16.1615 22.6755 -34.3723 0.125 -0.992 0.011 112 24 39 0
-13.8228 21.8651 -34.9976 -0.402 -0.676 0.618 106 23 39 0
-11.5465 24.0929 -36.4937 0.652 -0.564 0.506 100 17 34 0
-9.7814 22.9772 -36.8173 0.069 -0.950 0.303 99 17 31 0
-9.5624 23.2112 -36.9670 0.250 -0.929 -0.272 100 17 31 0
-9.3283 23.5541 -37.1544 -0.506 -0.831 0.230 99 15 30 0
-7.6191 23.4926 -37.7675 -0.589 -0.802 0.103 94 17 27 0
-2.6474 25.2904 -40.1326 0.316 -0.872 0.373 68 18 24 0
-2.3022 26.0510 -40.4838 0.169 -0.742 0.648 67 18 26 0
0.2897 27.8775 -41.9784 0.064 -0.922 0.381 60 27 23 0
0.5844 28.2945 -42.2099 0.459 -0.886 -0.067 60 29 24 0
2.7962 33.5235 -44.5649 -0.611 -0.551 0.568 70 45 31 0
4.0773 34.3715 -45.2875 0.480 -0.847 -0.230 89 65 30 0
4.7437 32.6402 -45.0244 0.390 -0.920 0.040 139 121 32 0
5.1291 33.3251 -45.3682 0.078 -0.952 0.297 148 130 34 0
11.6099 48.4940 -52.2238 -0.645 -0.525 0.555 196 186 45 0
14.1198 49.4354 -53.4277 0.706 -0.045 0.706 219 212 82 0
19.9422 49.4268 -55.5756 -0.401 -0.803 -0.440 192 182 51 0
20.1807 49.3770 -55.6491 -0.434 -0.824 -0.363 189 178 49 0
20.3268 49.0526 -55.6075 -0.406 -0.842 -0.355 186 175 51 0
20.2653 47.3760 -55.0917 0.769 -0.514 -0.381 183 169 50 0
20.8175 47.5169 -55.3370 -0.546 -0.772 -0.324 174 161 51 0
21.0732 47.5263 -55.4342 -0.536 -0.801 -0.266 170 158 54 0
21.8894 49.1428 -56.2112 -0.122 -0.934 -0.335 169 156 55 0
21.8433 48.2816 -55.9408 -0.310 -0.951 0.008 164 153 58 0
26.0558 15.9630 -47.9896 0.447 -0.561 0.697 177 168 156 0
26.3522 16.1499 -48.1541 -0.169 -0.625 0.762 176 167 154 0
39.6043 30.5206 -57.2758 -0.543 -0.771 -0.332 162 145 135 0
-19.6520 24.7904 -33.9233 -0.169 -0.984 0.061 117 31 47 0
-19.4683 24.6978 -33.9638 -0.162 -0.987 0.016 118 31 48 0
-19.2935 24.3322 -33.9201 0.045 -0.998 0.044 120 32 48 0
-19.1030 24.4751 -34.0328 0.279 -0.957 0.083 122 34 50 0
-16.9022 23.7365 -34.6276 -0.282 -0.884 0.373 113 25 41 0
-16.3283 23.9835 -34.9129 0.257 -0.941 0.221 112 24 38 0
-13.8919 21.7620 -35.1555 -0.402 -0.676 0.618 106 23 39 0
-9.8485 22.9166 -36.9923 0.069 -0.950 0.303 99 16 31 0
-8.9395 24.0606 -37.6673 0.528 -0.618 0.582 96 14 28 0
-7.1295 24.5978 -38.4956 0.172 -0.827 0.535 97 17 30 0
-1.1389 27.1535 -41.4674 0.235 -0.647 0.726 64 20 22 0
-0.9655 27.0130 -41.4899 0.320 -0.608 0.727 68 27 27 0
0.4399 27.8991 -42.2720 0.125 -0.884 -0.451 60 31 25 0
2.2019 32.1083 -44.1704 -0.934 -0.332 0.131 70 43 30 0
4.0371 34.4613 -45.5459 0.540 -0.831 -0.133 94 68 32 0
20.8037 47.6599 -55.6547 -0.546 -0.772 -0.324 173 161 54 0
14.2579 8.2165 -41.5488 0.208 -0.978 0.018 185 173 161 0
29.7237 23.9986 -51.9421 0.780 -0.424 0.461 178 169 154 0
30.3445 19.1370 -50.7312 -0.811 -0.453 0.371 172 160 150 0
37.5982 32.0611 -57.2418 -0.286 -0.185 0.940 171 158 149 0
41.7697 37.4406 -60.3778 -0.080 -0.881 -0.466 167 153 140 0
43.1918 39.5442 -61.5267 -0.018 -0.860 -0.510 167 153 140 0
42.7728 38.3447 -61.0164 0.419 -0.717 -0.558 167 153 140 0
39.4510 30.7405 -57.5355 -0.543 -0.771 -0.332 165 148 140 0
-66.8525 49.9861 -24.1934 -0.805 -0.560 0.196 255 255 255 0
-29.6031 46.8989 -37.0560 -0.504 -0.732 -0.458 221 213 202 0
-23.4880 32.4482 -35.0070 -0.915 -0.285 -0.286 129 48 63 0
-19.5328 24.6864 -34.1546 -0.157 -0.987 0.024 117 32 47 0
-19.3540 24.4416 -34.1478 -0.214 -0.973 0.084 119 32 48 0
-19.1671 24.4655 -34.2241 -0.220 -0.970 0.104 121 33 49 0
-18.6147 24.2930 -34.3770 -0.431 -0.902 -0.005 118 30 46 0
-16.9673 23.6898 -34.8066 -0.325 -0.887 0.328 115 27 43 0
-9.9019 22.9651 -37.2049 0.068 -0.932 0.357 100 16 32 0
-7.1984 24.5347 -38.6736 -0.014 -0.949 0.315 98 18 31 0
-1.2356 26.9661 -41.6056 0.261 -0.661 0.704 67 22 24 0
-1.0716 26.7813 -41.6111 0.310 -0.651 0.693 78 35 36 0
1.3916 31.5991 -43.9601 0.393 -0.685 -0.613 62 33 25 0
1.8973 31.9688 -44.2576 -0.948 -0.304 -0.094 66 39 28 0
3.7021 34.2251 -45.5987 0.455 -0.885 0.098 87 61 30 0
3.9744 34.4561 -45.7683 0.540 -0.831 -0.133 96 70 32 0
4.3711 35.2074 -46.1393 0.431 -0.895 -0.116 107 80 33 0
4.4708 32.0157 -45.2239 0.256 -0.943 0.215 147 125 36 0
7.4568 40.4346 -48.8409 -0.404 -0.676 0.615 170 154 41 0
14.6319 37.2838 -50.5558 0.148 -0.719 0.679 202 193 55 0
18.4911 47.7183 -55.0973 -0.493 -0.793 0.357 197 188 52 0
19.6321 48.8821 -55.8668 -0.027 -0.969 -0.247 191 183 50 0
20.5996 47.9872 -55.9578 0.754 -0.534 -0.382 176 164 52 0
21.8678 47.9867 -56.4269 -0.479 -0.827 -0.295 159 147 60 0
23.5715 15.9282 -47.4917 0.736 -0.343 0.584 180 167 158 0
24.1622 16.7267 -47.9486 0.824 -0.335 0.458 178 165 157 0
26.8268 20.4544 -50.0469 0.850 -0.418 0.321 183 171 156 0
-66.9520 49.9970 -24.4146 -0.808 -0.556 0.197 255 255 255 0
-60.4824 35.5052 -22.4563 0.351 -0.602 -0.718 236 225 221 0
-30.7824 43.6391 -35.9013 0.190 -0.699 0.689 229 221 212 0
-30.7373 53.1859 -38.7867 -0.712 -0.616 -0.337 226 219 209 0
-29.5602 52.7849 -39.1022 -0.979 -0.187 0.081 218 207 198 0
-19.6070 24.3323 -34.2391 -0.072 -0.989 0.131 116 32 46 0
-19.4180 24.4390 -34.3412 -0.214 -0.973 0.084 116 31 47 0
-19.2312 24.4594 -34.4165 -0.220 -0.970 0.104 118 30 46 0
-19.0494 24.3278 -34.4443 -0.237 -0.939 0.248 118 30 46 0
-18.8612 24.3839 -34.5308 -0.272 -0.906 0.324 117 29 45 0
-17.0378 23.5442 -34.9539 0.028 -0.984 0.176 116 28 44 0
-8.3705 24.8820 -38.5662 0.513 -0.858 -0.005 100 18 32 0
-7.2666 24.4762 -38.8532 -0.014 -0.949 0.315 99 19 32 0
-2.7334 25.7569 -40.9172 -0.407 -0.913 0.034 68 18 27 0
-2.0201 28.4323 -41.9853 0.807 -0.391 0.443 64 17 25 0
-1.3339 26.7703 -41.7400 0.271 -0.650 0.710 66 22 24 0
-0.9154 26.8446 -41.9174 0.559 -0.828 -0.027 73 33 33 0
7.4052 40.4834 -49.0977 -0.458 -0.662 0.593 171 153 41 0
7.6909 40.6963 -49.2675 -0.325 -0.754 0.571 176 160 45 0
10.9754 48.7385 -52.9007 -0.250 -0.538 0.805 192 182 48 0
18.3831 47.5837 -55.2975 -0.122 -0.984 -0.126 199 188 52 0
19.7022 47.7647 -55.8404 -0.338 -0.939 0.056 182 175 51 0
19.8992 47.6002 -55.8639 -0.342 -0.939 0.046 180 171 52 0
20.5367 46.5200 -55.7755 -0.474 -0.862 -0.182 166 156 57 0
28.1292 38.8013 -56.2684 0.777 -0.290 0.558 182 172 161 0
23.7634 16.4054 -47.9215 0.769 -0.475 0.429 178 165 156 0
24.8078 14.1540 -47.6318 0.630 -0.178 0.756 176 167 152 0
29.9033 19.6303 -51.1647 0.110 -0.469 0.876 174 162 149 0
36.8511 30.4301 -56.9834 -0.227 -0.323 0.919 170 157 148 0
40.0483 35.8336 -59.7914 -0.805 -0.554 -0.212 167 154 145 0
40.2105 35.6841 -59.8066 -0.732 -0.572 -0.371 166 154 143 0
41.4317 37.0035 -60.6554 0.474 -0.723 -0.503 168 154 143 0
-56.8348 60.7452 -31.6731 0.514 -0.676 -0.527 229 224 218 0
-31.3050 53.4885 -38.9426 -0.508 -0.719 0.473 229 222 212 0
-29.5438 46.8511 -37.5871 -0.807 -0.232 0.544 220 211 201 0
-23.4448 34.1459 -36.0037 -0.988 -0.144 0.056 128 48 61 0
-19.4786 24.5521 -34.5710 -0.241 -0.965 0.101 116 32 46 0
-19.2924 24.5464 -34.6383 -0.445 -0.871 0.209 117 31 45 0
-18.9188 24.5596 -34.7809 0.244 -0.934 0.259 117 29 44 0
-15.0860 25.6200 -36.5228 0.450 -0.622 -0.641 109 24 41 0
-14.8564 26.1448 -36.7667 0.341 -0.747 -0.570 108 24 39 0
-8.0137 25.0903 -38.9846 -0.728 -0.561 -0.395 98 16 30 0
-7.3150 24.5517 -39.0807 -0.072 -0.967 0.246 99 19 32 0
-7.1306 24.4879 -39.1297 -0.071 -0.967 0.245 101 21 34 0
-3.0533 25.4238 -40.9246 -0.145 -0.988 -0.045 67 18 27 0
-2.7800 25.8200 -41.1459 -0.595 -0.751 0.288 67 20 28 0
-1.4186 26.6411 -41.8990 0.461 -0.882 -0.101 66 23 25 0
-1.2098 26.6780 -41.9877 0.578 -0.815 0.024 66 24 26 0
1.6379 32.3117 -44.7482 0.470 -0.790 0.393 66 38 29 0
7.3520 40.5268 -49.3527 -0.504 -0.792 0.343 173 157 42 0
7.6367 40.7355 -49.5214 -0.367 -0.766 0.528 177 162 45 0
18.4321 47.9324 -55.7017 -0.304 -0.764 -0.569 199 188 53 0
19.4518 47.9628 -56.0890 -0.665 -0.747 0.007 185 178 53 0
19.6601 47.8295 -56.1258 -0.439 -0.802 0.404 181 174 53 0
19.9860 48.0468 -56.3125 -0.428 -0.793 0.434 179 169 53 0
21.1790 48.5652 -56.9117 0.503 -0.667 -0.550 164 156 57 0
22.5968 46.8269 -56.9113 0.226 -0.933 -0.278 149 138 86 0
22.9156 47.0088 -57.0845 0.245 -0.905 -0.347 160 149 105 0
23.9673 17.7342 -48.6158 0.569 -0.763 0.306 180 167 158 0
24.4091 18.2275 -48.9289 0.502 -0.865 -0.014 180 167 158 0
24.4956 13.6220 -47.5673 0.601 -0.199 0.774 176 167 154 0
40.4006 36.1153 -60.2708 -0.751 -0.596 -0.285 167 155 143 0
44.1435 40.5964 -63.0145 0.032 -0.988 -0.149 167 153 142 0
44.3296 40.4725 -63.0460 0.051 -0.990 -0.131 166 153 141 0
39.6823 30.9672 -58.4466 -0.571 -0.756 -0.320 163 147 139 0
-30.7987 28.0673 -31.6597 0.279 -0.724 0.631 230 223 215 0
-23.1018 31.8289 -35.6624 -0.911 -0.165 0.377 127 47 60 0
-20.8152 26.3539 -34.8426 -0.227 -0.677 0.700 126 40 52 0
-19.9131 24.6407 -34.6554 -0.102 -0.980 0.168 117 34 47 0
-19.3547 24.6035 -34.8513 -0.250 -0.957 0.145 119 34 47 0
-19.1857 24.0632 -34.7494 0.184 -0.936 0.301 122 34 48 0
-17.1835 23.1553 -35.2158 0.319 -0.947 0.040 116 28 44 0
-10.0628 23.1101 -37.8446 -0.287 -0.951 -0.112 97 17 31 0
-8.5062 23.3670 -38.5005 -0.532 -0.835 0.140 99 18 32 0
-7.3819 24.5024 -39.2638 -0.095 -0.974 0.205 97 17 31 0
-7.1964 24.4457 -39.3153 -0.071 -0.967 0.245 97 17 31 0
-7.0017 24.4514 -39.3893 -0.357 -0.929 0.096 99 21 34 0
-2.8595 25.7100 -41.3101 -0.578 -0.763 0.289 68 21 29 0
5.3676 35.5291 -47.3554 0.045 -0.997 0.060 157 138 38 0
5.5107 35.2112 -47.3116 -0.195 -0.885 0.423 164 147 39 0
7.0894 40.6602 -49.5579 -0.582 -0.753 0.305 170 154 40 0
7.2784 40.4891 -49.5759 -0.572 -0.751 0.330 174 160 43 0
7.9684 40.4662 -49.8250 -0.199 -0.963 0.181 185 174 49 0
8.2734 40.7473 -50.0239 0.226 -0.969 -0.096 188 177 47 0
8.4709 37.1423 -48.9986 0.794 -0.442 -0.418 200 191 52 0
18.2723 47.6382 -55.8344 -0.369 -0.740 -0.562 196 187 53 0
18.6418 47.9995 -56.0817 -0.221 -0.872 -0.437 193 183 52 0
18.7981 47.7063 -56.0503 -0.239 -0.867 -0.437 192 182 54 0
19.0547 47.7196 -56.1496 -0.502 -0.863 -0.051 189 180 55 0
19.4250 48.0749 -56.3953 -0.637 -0.756 -0.151 185 176 55 0
19.7241 48.2122 -56.5481 -0.606 -0.778 -0.170 182 173 56 0
20.7415 48.2179 -56.9274 0.376 -0.723 -0.580 169 159 58 0
21.2611 48.9888 -57.3552 0.586 -0.649 -0.485 162 154 57 0
21.7227 48.1127 -57.2595 -0.389 -0.885 -0.254 154 146 61 0
22.5154 46.7732 -57.1455 0.165 -0.947 -0.277 148 137 85 0
19.0984 27.7275 -50.0738 -0.339 -0.753 0.563 188 177 165 0
20.6777 30.0565 -51.3696 -0.358 -0.861 0.361 185 175 163 0
23.9204 17.7254 -48.8155 0.540 -0.788 0.294 180 167 158 0
26.6053 15.4878 -49.1301 0.613 -0.299 0.731 176 162 153 0
29.5859 19.1913 -51.3647 0.147 -0.377 0.915 174 162 152 0
39.7161 31.1047 -58.7545 -0.581 -0.753 -0.310 162 148 139 0
-66.4449 51.2675 -25.7589 -0.538 -0.770 0.344 237 225 224 0
-57.3515 60.1855 -31.8733 0.549 -0.653 -0.521 228 223 217 0
-57.1329 60.2233 -31.9661 0.562 -0.636 -0.529 228 223 217 0
-31.2632 53.7315 -39.5842 -0.783 -0.335 0.524 227 221 211 0
-15.1703 23.5587 -36.3041 0.704 -0.703 0.105 109 22 39 0
-7.4195 24.6524 -39.5189 -0.379 -0.921 0.087 96 17 31 0
-7.2330 24.5999 -39.5721 -0.372 -0.924 0.091 95 17 31 0
-7.0521 24.5114 -39.6121 -0.386 -0.915 0.115 97 19 33 0
-6.6839 24.3795 -39.7084 -0.439 -0.896 0.065 93 19 32 0
-6.4502 23.4006 -39.4949 -0.339 -0.878 0.337 86 16 28 0
0.4060 31.0895 -44.4010 0.817 -0.572 0.067 61 29 27 0
5.4156 35.9776 -47.7618 -0.396 -0.881 0.260 158 140 40 0
5.4098 35.0516 -47.4756 -0.221 -0.882 0.415 165 147 42 0
5.6267 35.0351 -47.5511 -0.301 -0.871 0.388 169 154 42 0
7.2279 40.5438 -49.8362 -0.464 -0.760 0.455 173 160 45 0
14.9644 48.5314 -55.1610 0.483 -0.664 0.572 218 209 79 0
18.2634 47.8094 -56.1650 -0.414 -0.770 -0.485 194 186 53 0
18.4555 47.6252 -56.1798 -0.348 -0.774 -0.529 191 183 53 0
18.8861 48.1706 -56.5071 -0.205 -0.851 -0.483 189 179 54 0
18.8396 47.2616 -56.2109 0.112 -0.950 -0.293 187 177 54 0
19.2300 47.6803 -56.4844 -0.625 -0.771 -0.118 184 175 56 0
19.6047 48.0468 -56.7361 0.072 -0.985 -0.158 180 170 56 0
19.8067 47.8937 -56.7641 0.150 -0.982 -0.119 177 167 55 0
20.3698 48.0598 -57.0243 0.554 -0.747 -0.368 170 160 54 0
20.6662 48.1843 -57.1726 0.549 -0.691 -0.470 167 159 58 0
21.6184 47.9953 -57.4683 -0.526 -0.851 -0.001 155 147 62 0
21.6930 47.4835 -57.3389 0.448 -0.894 -0.005 152 144 63 0
24.5905 13.2033 -47.8968 0.560 -0.218 0.799 174 165 151 0
40.8513 35.7706 -60.8618 -0.726 -0.675 0.133 167 153 144 0
39.7088 31.1700 -59.0258 -0.589 -0.746 -0.311 162 149 139 0
-57.4696 58.4748 -31.5819 0.546 -0.702 -0.456 232 225 218 0
-57.0415 59.4615 -32.0459 0.531 -0.826 -0.189 228 222 216 0
-56.8821 59.7327 -32.1890 0.466 -0.869 -0.166 228 223 217 0
-31.3568 53.8320 -39.8571 -0.808 -0.330 0.488 228 222 210 0
-30.0783 51.8275 -39.7132 -0.656 -0.345 0.671 221 211 202 0
-30.1313 56.8442 -41.2435 -0.900 -0.100 0.424 219 209 199 0
-15.4030 23.7988 -36.5103 0.337 -0.939 0.071 110 23 39 0
-14.0169 24.6270 -37.2815 -0.668 -0.732 0.132 103 21 35 0
-7.3183 24.4276 -39.7107 -0.405 -0.830 0.382 96 18 31 0
-7.1202 24.4546 -39.7927 -0.426 -0.900 0.091 93 16 28 0
-6.5512 23.1320 -39.5957 -0.356 -0.907 0.225 87 17 27 0
-4.9294 23.6010 -40.3436 0.013 -0.688 0.725 81 19 30 0
-0.2780 31.1316 -44.3998 -0.429 -0.887 0.172 60 26 25 0
5.3413 35.9278 -47.9711 -0.380 -0.896 0.231 157 141 41 0
5.4844 35.6043 -47.9243 -0.326 -0.715 0.618 164 148 45 0
5.5718 35.0612 -47.7891 -0.285 -0.887 0.364 171 154 47 0
5.7361 34.8332 -47.7797 -0.302 -0.874 0.381 174 159 45 0
7.6986 40.8216 -50.3596 -0.447 -0.883 0.145 182 171 48 0
12.6669 48.6179 -54.6158 -0.071 -0.374 0.925 211 201 64 0
12.7736 48.1046 -54.4968 0.180 -0.727 0.663 212 202 63 0
13.0275 48.1213 -54.5964 0.145 -0.741 0.656 213 204 63 0
14.9882 48.8365 -55.5464 0.405 -0.631 0.662 217 208 77 0
18.5485 48.1091 -56.6455 -0.427 -0.756 -0.497 191 183 53 0
18.6995 47.7975 -56.6054 -0.124 -0.800 -0.587 188 179 53 0
19.1203 47.5425 -56.6831 -0.632 -0.758 -0.160 183 173 56 0
19.5737 48.1462 -57.0382 0.220 -0.928 -0.300 180 169 54 0
19.8855 48.3195 -57.2077 0.119 -0.976 -0.185 177 167 55 0
21.3595 47.4350 -57.4825 -0.420 -0.905 -0.063 153 146 63 0
25.5810 19.6315 -50.4621 0.342 -0.728 0.594 180 167 155 0
26.6764 20.5860 -51.1643 0.059 -0.935 0.350 182 169 160 0
26.8980 16.5859 -50.0108 0.459 -0.807 -0.372 175 162 154 0
28.3703 16.6893 -50.5902 0.383 -0.371 0.846 173 160 151 0
29.0172 17.5133 -51.0853 -0.236 -0.170 0.957 172 159 150 0
30.6917 19.8431 -52.4278 -0.205 -0.334 0.920 169 156 147 0
41.0110 35.7014 -61.1644 -0.719 -0.631 0.293 167 153 143 0
-57.1648 60.4676 -32.5929 0.448 -0.828 -0.336 232 225 218 0
-56.5753 59.0137 -32.3601 -0.921 -0.369 0.130 232 225 218 0
-31.4545 53.9912 -40.1475 -0.717 -0.592 0.369 228 222 210 0
-20.4097 28.1257 -36.2120 0.134 -0.629 -0.766 122 34 50 0
-15.9263 25.3998 -37.0327 -0.448 -0.894 0.009 112 24 38 0
-15.7467 25.2338 -37.0480 -0.345 -0.939 -0.001 112 24 39 0
-12.4545 23.6952 -37.7946 0.326 -0.939 0.106 100 17 37 0
-12.2373 23.9698 -37.9609 0.163 -0.945 -0.285 100 17 37 0
-9.5868 23.7827 -38.8892 -0.499 -0.851 -0.167 100 18 32 0
-9.2538 23.3984 -38.8936 -0.105 -0.867 0.487 98 18 31 0
-7.1440 24.6942 -40.0820 -0.447 -0.894 -0.034 91 14 25 0
-0.8203 29.7849 -44.0193 0.453 -0.739 0.499 60 25 26 0
-0.7179 29.2651 -43.8957 0.031 -0.605 0.796 60 27 25 0
-0.4666 29.4817 -44.0566 -0.005 -0.790 0.614 59 29 26 0
1.9066 32.7018 -45.9416 -0.093 -0.973 -0.214 72 46 31 0
5.2829 35.9427 -48.2064 -0.498 -0.845 0.192 158 143 43 0
5.5470 35.2093 -48.0766 -0.287 -0.861 0.419 170 155 46 0
5.6360 34.6776 -47.9443 -0.328 -0.893 -0.309 172 159 44 0
7.4808 41.1374 -50.6404 -0.338 -0.937 -0.090 177 165 46 0
7.8550 40.7735 -50.6665 -0.475 -0.871 0.128 185 174 46 0
12.4948 48.2395 -54.7160 -0.001 -0.419 0.908 210 202 64 0
18.4980 48.9368 -57.1673 -0.469 -0.797 -0.381 193 186 57 0
18.5793 48.4032 -57.0315 -0.527 -0.748 -0.403 190 183 56 0
18.8710 47.7463 -56.9357 -0.042 -0.777 -0.628 184 175 56 0
19.4115 47.8516 -57.1697 -0.130 -0.865 -0.484 178 168 54 0
19.6708 47.8698 -57.2718 -0.130 -0.865 -0.484 175 164 53 0
20.9043 47.7679 -57.6993 -0.254 -0.947 0.197 156 151 60 0
21.0895 47.5693 -57.7064 -0.295 -0.922 0.252 155 149 62 0
26.1961 20.1257 -51.0698 -0.073 -0.931 -0.357 179 167 156 0
26.5959 20.5114 -51.3386 0.117 -0.993 0.028 178 166 157 0
26.9521 16.7679 -50.3067 0.460 -0.804 -0.376 175 162 153 0
26.5026 14.0148 -49.2829 0.396 -0.918 0.009 173 160 151 0
40.9458 35.6687 -61.3948 -0.719 -0.631 0.293 168 154 143 0
40.7683 34.9125 -61.0935 -0.934 -0.338 -0.120 168 154 143 0
-57.0667 59.6770 -32.6642 0.473 -0.865 -0.167 233 226 218 0
-56.7884 59.4735 -32.7041 -0.925 -0.356 0.134 233 226 218 0
-29.9432 54.5741 -41.1710 -0.961 -0.145 0.237 221 208 202 0
-17.9806 23.3625 -35.8519 -0.192 -0.782 0.593 119 25 41 0
-16.0101 25.0786 -37.1236 -0.416 -0.907 0.066 113 25 40 0
-15.8073 25.2760 -37.2610 -0.128 -0.957 -0.260 113 25 41 0
-12.8521 22.1718 -37.3897 -0.084 -0.958 -0.275 100 17 35 0
-10.9647 25.6783 -39.1911 -0.176 0.018 0.984 104 16 30 0
-10.2031 23.9319 -38.9279 -0.438 -0.583 0.684 103 20 34 0
-10.0042 23.9921 -39.0208 0.092 -0.697 0.711 102 18 33 0
-9.3249 23.3108 -39.0605 -0.038 -0.778 0.627 97 17 30 0
-8.7521 23.3074 -39.2728 -0.343 -0.901 0.267 94 16 29 0
-8.5585 23.3238 -39.3501 -0.056 -0.994 0.089 92 14 27 0
-5.4615 23.4362 -40.5391 0.038 -0.965 -0.260 82 19 30 0
-0.7805 29.2535 -44.1051 -0.067 -0.642 0.764 59 28 26 0
-0.5580 29.3293 -44.2117 0.144 -0.930 0.338 60 30 27 0
1.3406 32.3532 -45.8661 -0.337 -0.941 0.019 68 44 34 0
1.8288 32.6274 -46.1339 -0.229 -0.971 0.071 74 48 32 0
5.3899 38.5125 -49.3039 -0.624 -0.745 -0.235 146 131 37 0
5.5416 38.1975 -49.2618 -0.724 -0.688 -0.044 153 138 39 0
5.7155 37.9785 -49.2579 -0.075 -0.962 -0.263 159 145 42 0
5.5400 35.4301 -48.3944 -0.154 -0.982 -0.106 170 156 47 0
5.5740 34.6743 -48.1703 -0.343 -0.890 -0.302 173 160 45 0
12.1237 48.0410 -54.7970 0.036 -0.440 0.897 209 202 64 0
17.8665 44.1327 -55.7124 0.016 -0.758 -0.652 177 171 55 0
20.4754 27.3413 -51.4252 -0.790 -0.613 0.012 189 177 164 0
20.7821 27.5598 -51.6079 -0.525 -0.841 0.131 187 176 162 0
21.0364 27.6485 -51.7304 -0.518 -0.840 0.164 187 177 162 0
23.5907 11.8613 -47.7373 0.663 -0.547 0.510 173 163 151 0
27.9842 16.1178 -50.7073 0.449 -0.743 0.496 173 161 149 0
-30.2296 53.9684 -41.1531 0.629 -0.648 0.430 221 209 203 0
-25.0419 32.3494 -36.2704 -0.587 -0.633 0.504 134 63 77 0
-18.0346 23.5673 -36.1142 -0.452 -0.891 -0.041 118 24 40 0
-15.4044 23.7623 -37.1566 -0.265 -0.835 0.483 113 24 40 0
-15.2997 22.5997 -36.8290 0.246 -0.882 0.402 112 24 40 0
-11.6591 23.3947 -38.4374 -0.280 -0.873 -0.399 102 18 32 0
-10.2707 23.8727 -39.1058 -0.342 -0.614 0.712 108 24 37 0
-9.9144 23.6558 -39.1703 -0.537 -0.797 0.276 103 19 34 0
-9.6104 24.5524 -39.5664 -0.218 -0.718 0.661 99 17 31 0
-9.5703 23.3529 -39.2031 0.584 -0.810 0.056 98 17 30 0
-9.4004 23.1898 -39.2151 -0.038 -0.778 0.627 97 17 30 0
-8.6149 23.3468 -39.5575 0.127 -0.966 -0.225 94 17 32 0
-2.9042 27.0478 -42.8542 0.327 -0.377 0.866 68 22 30 0
-2.6613 27.2659 -43.0135 0.544 -0.314 0.778 67 23 30 0
-0.2216 32.3221 -45.5177 0.146 -0.812 0.564 60 29 28 0
0.8524 33.3774 -46.2510 0.191 -0.819 -0.542 65 37 33 0
5.5081 38.3227 -49.5466 -0.116 -0.901 -0.418 154 140 38 0
5.2486 35.3994 -48.5280 -0.347 -0.732 0.586 165 151 45 0
5.6084 35.0595 -48.5550 0.040 -0.971 -0.237 173 160 45 0
7.7432 40.8393 -51.1737 -0.046 -0.964 0.262 186 175 49 0
11.8823 47.4050 -54.7877 0.047 -0.385 0.922 209 203 62 0
12.0511 47.1186 -54.7603 0.014 -0.378 0.926 208 203 60 0
20.6249 27.8329 -51.8761 -0.663 -0.712 0.231 191 179 165 0
20.7700 27.6537 -51.8737 -0.645 -0.741 0.184 189 177 163 0
20.9027 27.4458 -51.8576 -0.525 -0.841 0.131 189 177 162 0
19.2319 10.3725 -45.8508 -0.075 -0.990 0.120 179 169 160 0
28.0715 16.7358 -51.1538 0.326 -0.433 0.840 174 162 150 0
28.7083 17.1636 -51.5261 0.191 -0.478 0.857 172 160 147 0
-67.9789 50.7279 -26.3122 -0.788 -0.595 0.158 255 255 255 0
-31.4592 53.6299 -40.8655 -0.848 -0.443 0.292 227 220 211 0
-30.4440 56.1328 -42.0391 0.629 -0.734 -0.257 221 211 203 0
-25.5348 33.3292 -36.6322 -0.455 -0.824 0.337 140 72 83 0
-25.3308 33.1444 -36.6496 -0.406 -0.905 -0.123 139 69 80 0
-25.1118 32.2867 -36.4591 -0.437 -0.898 0.055 136 65 79 0
-18.9840 24.8212 -36.3764 -0.095 -0.986 0.139 123 30 48 0
-18.7959 24.8262 -36.4483 -0.063 -0.979 0.193 123 30 48 0
-18.5999 25.0351 -36.5877 0.388 -0.896 -0.217 122 30 47 0
-15.6686 23.5579 -37.2129 -0.167 -0.938 0.305 112 24 40 0
-15.4772 23.6116 -37.3015 -0.253 -0.892 0.375 112 24 40 0
-12.4716 23.4595 -38.3751 0.641 -0.652 -0.406 101 18 34 0
-10.3412 23.7895 -39.2751 -0.128 -0.566 0.815 114 30 43 0
-10.1525 23.7672 -39.3385 0.043 -0.695 0.718 104 20 33 0
-9.9776 23.6323 -39.3609 -0.537 -0.797 0.276 101 17 32 0
-9.4757 23.0688 -39.3693 -0.607 -0.750 0.264 96 17 30 0
-8.0026 24.0255 -40.2229 0.633 -0.697 -0.336 93 19 35 0
-7.6488 23.8001 -40.2835 0.070 -0.843 0.533 89 17 30 0
1.1305 35.0067 -47.1183 0.838 -0.539 -0.084 64 37 32 0
3.6960 37.6176 -48.9048 0.697 -0.488 -0.526 101 79 34 0
5.2359 35.6013 -48.8396 -0.188 -0.978 -0.092 165 151 45 0
8.6832 45.7561 -53.3502 -0.570 -0.821 -0.033 183 173 51 0
8.8475 45.4460 -53.3130 -0.572 -0.814 0.102 186 176 52 0
9.4851 46.9915 -54.0417 -0.426 -0.897 0.119 189 180 53 0
20.8640 27.4744 -52.0932 -0.508 -0.837 0.204 189 177 161 0
22.1804 25.9579 -52.1031 -0.027 -0.984 -0.176 188 176 164 0
22.3376 25.8212 -52.1184 0.038 -0.988 -0.151 188 176 164 0
27.3262 15.7898 -50.7959 0.263 -0.871 -0.414 176 164 150 0
28.2628 17.1709 -51.5839 -0.234 -0.969 -0.075 174 163 149 0
28.4373 17.1149 -51.6313 -0.258 -0.931 -0.259 171 162 147 0
39.1699 34.9208 -61.2903 0.145 -0.845 -0.515 167 158 143 0
39.2809 34.6789 -61.2549 0.256 -0.735 -0.628 166 157 142 0
39.5623 34.7487 -61.3822 0.202 -0.717 -0.667 165 156 141 0
-31.5533 53.7315 -41.1409 -0.846 -0.415 0.335 227 220 212 0
-20.5152 26.5352 -36.5732 -0.609 -0.741 -0.284 124 37 53 0
-19.0465 24.8766 -36.5919 -0.210 -0.899 0.384 122 30 48 0
-18.8597 24.8405 -36.6501 -0.207 -0.912 0.354 123 31 48 0
-18.6677 24.9434 -36.7548 -0.203 -0.851 0.485 123 31 47 0
-18.4690 25.2052 -36.9127 0.207 -0.922 -0.327 122 31 46 0
-15.9075 23.7288 -37.3979 -0.591 -0.802 0.092 114 27 42 0
-15.7383 23.4479 -37.3713 -0.182 -0.930 0.320 112 24 40 0
-10.4162 23.6671 -39.4299 -0.042 -0.627 0.778 115 31 44 0
-10.2314 23.6140 -39.4820 0.043 -0.695 0.718 104 20 34 0
-9.1350 23.2113 -39.7630 -0.200 -0.941 -0.274 95 18 31 0
-8.9633 23.0656 -39.7806 -0.482 -0.813 -0.326 95 19 32 0
-8.3331 23.4708 -40.1456 0.559 -0.829 -0.026 91 17 32 0
-8.1052 23.7232 -40.3114 0.092 -0.955 0.282 90 18 32 0
8.6354 45.8335 -53.6328 -0.576 -0.817 -0.033 183 173 52 0
8.8397 45.6799 -53.6600 -0.665 -0.706 0.245 187 177 54 0
9.4153 46.9832 -54.2916 -0.241 -0.970 0.037 190 181 55 0
16.1529 45.5277 -56.3439 0.097 -0.886 -0.454 197 190 57 0
23.7294 47.1143 -59.6819 -0.679 -0.303 0.668 189 177 155 0
20.6907 20.6789 -50.0977 -0.336 -0.942 -0.017 185 173 162 0
20.8689 20.6162 -50.1443 -0.336 -0.942 -0.017 184 172 161 0
38.2334 34.1763 -60.9661 0.204 -0.729 -0.654 168 158 144 0
39.5723 35.2979 -61.8249 0.203 -0.732 -0.650 167 157 144 0
39.8728 35.3999 -61.9698 0.189 -0.717 -0.671 167 156 144 0
40.6203 36.3115 -62.5404 0.176 -0.713 -0.679 166 155 144 0
40.0127 34.7675 -61.8199 -0.733 -0.440 -0.519 167 155 143 0
39.7070 33.7782 -61.3895 -0.817 -0.372 -0.442 167 155 143 0
39.8832 33.6605 -61.4178 -0.821 -0.365 -0.439 168 155 143 0
-31.5631 30.4697 -33.9316 0.166 -0.482 0.860 231 226 222 0
-31.1714 30.3407 -34.0366 0.454 -0.407 0.793 232 224 222 0
-31.0332 55.1562 -42.0723 0.391 -0.918 -0.068 224 215 208 0
-30.8317 55.7059 -42.3245 0.482 -0.794 -0.371 223 214 207 0
-30.4354 57.0257 -42.8973 0.181 -0.925 0.333 220 209 203 0
-19.2621 26.0562 -37.1122 -0.645 -0.523 -0.557 120 32 46 0
-16.6074 25.7251 -37.9986 -0.078 -0.821 -0.565 125 34 50 0
-15.9687 23.7504 -37.6021 -0.591 -0.802 0.092 114 26 40 0
-15.8039 23.3990 -37.5507 -0.182 -0.930 0.320 112 24 38 0
-10.6708 23.6432 -39.5491 -0.297 -0.704 0.645 113 29 42 0
-10.4971 23.4954 -39.5664 -0.052 -0.622 0.782 108 24 37 0
-10.3102 23.4611 -39.6253 0.043 -0.695 0.718 104 20 34 0
-8.6779 22.7924 -40.0206 0.563 -0.676 -0.476 94 19 32 0
-8.4212 23.2658 -40.2689 0.601 -0.799 -0.005 91 17 30 0
-1.9975 29.5654 -44.6982 0.070 -0.410 0.910 65 25 31 0
8.7743 47.6409 -54.5425 -0.647 -0.711 -0.277 178 166 52 0
8.5601 45.8020 -53.8707 -0.576 -0.817 -0.003 183 173 55 0
9.1382 47.1275 -54.5134 -0.421 -0.895 0.149 187 177 56 0
9.3400 46.9537 -54.5329 -0.426 -0.896 0.128 191 181 55 0
12.7710 46.8645 -55.7874 -0.552 -0.773 0.314 211 205 65 0
23.4945 46.6452 -59.7275 -0.750 -0.294 0.593 189 178 155 0
21.5482 29.9364 -53.6238 -0.687 -0.605 -0.402 191 179 165 0
20.7181 20.8474 -50.3890 -0.367 -0.930 0.015 185 176 165 0
20.8936 20.7774 -50.4322 -0.367 -0.930 0.015 185 175 165 0
25.8487 18.2021 -51.4568 0.785 -0.319 0.531 175 165 155 0
28.0589 16.5572 -51.7542 0.494 -0.848 -0.190 174 162 150 0
37.9340 33.7096 -60.9661 -0.177 -0.789 -0.588 170 158 146 0
39.5706 34.4928 -61.8302 -0.485 -0.829 -0.277 168 155 146 0
39.8375 34.0969 -61.8026 -0.672 -0.726 -0.147 168 154 145 0
-68.3859 51.0534 -27.0420 -0.740 -0.669 0.071 255 255 255 0
-31.1881 52.6082 -41.4712 -0.865 -0.240 0.441 227 217 213 0
-16.7083 25.0727 -37.9739 0.314 -0.897 -0.312 115 27 41 0
-16.2072 23.9476 -37.7971 0.140 -0.942 0.306 113 25 39 0
-15.9990 24.2597 -37.9761 -0.091 -0.996 0.010 112 24 38 0
-15.8648 23.4215 -37.7548 -0.152 -0.929 0.337 112 24 38 0
-13.2979 24.7416 -39.1434 0.258 -0.630 0.733 102 22 33 0
-10.7382 23.5842 -39.7268 -0.478 -0.665 0.574 105 21 35 0
-10.5757 23.3407 -39.7088 -0.037 -0.678 0.734 104 21 35 0
-8.1197 20.4737 -39.6996 -0.821 -0.564 0.091 87 18 29 0
-2.2910 29.4315 -44.7829 -0.436 -0.804 0.405 63 23 28 0
-0.5938 32.7764 -46.5016 -0.517 -0.190 0.835 62 30 33 0
-0.5460 31.9426 -46.2494 -0.528 -0.211 0.823 61 30 32 0
-0.3639 31.7910 -46.2685 -0.520 -0.216 0.826 65 35 35 0
8.8298 48.1406 -55.0055 -0.689 -0.639 -0.343 178 166 56 0
8.9864 47.7757 -54.9460 -0.609 -0.742 -0.281 184 172 58 0
9.3873 47.4067 -54.9765 -0.577 -0.805 -0.138 191 181 55 0
20.6598 20.8197 -50.5858 -0.353 -0.935 0.023 184 176 163 0
20.8136 20.7000 -50.6045 -0.369 -0.929 -0.045 184 175 162 0
37.7012 33.8122 -61.1734 -0.843 -0.536 -0.051 172 158 149 0
38.0601 34.0309 -61.3786 -0.180 -0.800 -0.572 171 157 148 0
38.5506 34.4903 -61.7110 -0.164 -0.704 -0.691 171 157 148 0
-31.2272 55.4308 -42.6536 0.308 -0.916 -0.257 226 215 213 0
-30.7626 55.5582 -42.8692 0.570 -0.774 -0.276 222 212 207 0
-30.3244 56.1677 -43.2321 -0.752 -0.176 0.635 220 211 204 0
-10.7127 22.6873 -39.6661 -0.078 -0.652 0.754 102 20 34 0
-10.5491 22.4685 -39.6561 -0.033 -0.916 0.400 99 17 31 0
-10.3630 22.4415 -39.7170 -0.052 -0.894 0.445 98 17 28 0
-10.1783 22.4027 -39.7736 -0.052 -0.894 0.445 96 18 28 0
-7.4001 23.1728 -41.0657 -0.472 -0.674 0.568 84 16 27 0
-6.2204 20.9566 -40.7853 -0.266 -0.924 -0.275 78 20 28 0
-1.1482 30.2807 -45.7258 -0.068 -0.439 0.896 63 31 33 0
5.6697 46.4826 -53.5627 -0.482 -0.327 0.812 110 89 35 0
6.5461 40.1323 -51.8208 -0.354 -0.831 0.429 177 163 56 0
9.0299 47.2378 -55.0680 -0.570 -0.793 -0.212 187 177 57 0
9.0544 46.3621 -54.7917 -0.666 -0.736 -0.120 192 182 57 0
15.7723 45.7204 -57.0999 -0.213 -0.876 -0.433 194 188 57 0
16.0427 45.7925 -57.2248 -0.224 -0.872 -0.435 190 185 58 0
16.7665 45.7240 -57.4737 0.279 -0.741 -0.611 181 176 57 0
24.7657 39.2986 -58.3764 0.887 -0.461 -0.037 189 180 165 0
20.6083 21.2836 -50.9454 -0.114 -0.932 -0.345 186 178 165 0
20.5497 20.6733 -50.7244 -0.193 -0.939 -0.283 185 177 164 0
25.2316 16.7355 -51.1951 0.025 -0.457 0.889 175 162 153 0
38.2804 34.5273 -61.8853 -0.071 -0.812 -0.579 171 157 148 0
38.7285 34.9067 -62.1768 -0.164 -0.704 -0.691 171 157 148 0
38.1601 32.5340 -61.1903 -0.587 -0.533 0.610 174 156 152 0
38.2822 32.3215 -61.1668 -0.583 -0.638 0.503 172 154 150 0
39.7142 29.4087 -60.7538 -0.545 -0.796 -0.264 254 255 255 0
-29.5806 53.9653 -43.0735 -0.764 -0.191 0.617 215 202 196 0
-27.6196 46.2511 -41.2777 -0.979 -0.191 -0.074 174 140 141 0
-26.0052 36.9457 -38.8296 -0.940 -0.292 -0.177 148 82 93 0
-25.6794 32.7289 -37.5680 -0.248 -0.967 0.056 145 79 89 0
-16.3941 26.1155 -38.8806 0.645 -0.740 -0.191 113 25 39 0
-16.1447 27.0546 -39.2823 0.475 -0.840 -0.263 113 25 39 0
-16.1123 24.4645 -38.4445 -0.248 -0.827 0.504 112 24 39 0
-12.5016 24.3428 -39.7590 -0.366 -0.563 0.741 101 22 33 0
-7.4835 23.0101 -41.2039 -0.672 -0.444 0.593 84 17 28 0
-4.4627 25.9549 -43.3033 0.623 -0.768 -0.149 70 21 30 0
-0.6967 29.7071 -45.9472 -0.309 -0.906 0.289 67 40 37 0
6.1617 46.8087 -54.1317 0.205 -0.973 -0.102 126 106 37 0
3.3560 33.6297 -48.7546 -0.652 -0.721 -0.233 135 116 37 0
8.4865 46.3190 -54.8430 -0.526 -0.808 -0.268 184 173 59 0
8.9185 47.0658 -55.2502 -0.591 -0.792 -0.153 188 177 58 0
9.2282 47.3169 -55.4487 -0.800 -0.595 0.077 192 182 60 0
10.7955 43.1048 -54.6544 -0.246 -0.873 -0.421 208 202 64 0
15.6950 45.6789 -57.3368 0.236 -0.946 -0.224 192 188 60 0
23.5158 47.2094 -60.7726 -0.821 -0.286 0.494 190 179 159 0
24.5187 38.8249 -58.3973 0.887 -0.461 -0.037 190 180 165 0
25.2464 25.1128 -54.1706 -0.259 -0.270 0.928 181 172 158 0
23.8492 15.2540 -50.4113 0.768 -0.621 0.158 179 166 157 0
24.5143 16.1903 -50.9680 0.695 -0.589 0.413 178 165 156 0
24.7588 16.2776 -51.0884 0.562 -0.703 0.435 176 163 154 0
25.0140 16.3853 -51.2194 0.556 -0.702 0.444 176 163 154 0
26.9123 15.7675 -51.7287 0.629 -0.500 0.595 173 160 151 0
39.7200 29.4942 -61.0373 -0.546 -0.796 -0.261 254 255 255 0
-30.9575 52.1769 -42.2469 -0.934 -0.355 -0.038 222 214 209 0
-21.4289 25.4116 -36.9838 -0.164 -0.746 -0.645 122 39 55 0
-16.2682 26.0791 -39.1419 0.618 -0.784 -0.059 112 25 39 0
-13.9544 23.7192 -39.2312 0.086 -0.591 0.802 101 25 38 0
-12.9044 26.8923 -40.6735 -0.166 -0.567 0.807 100 23 36 0
-12.6904 25.0207 -40.1357 -0.090 -0.141 0.986 100 20 33 0
-12.5752 24.2218 -39.9150 -0.520 -0.389 0.760 101 21 34 0
-12.3967 24.0908 -39.9388 -0.301 -0.683 0.665 103 23 36 0
-12.1814 24.3277 -40.0978 0.552 -0.554 0.623 102 21 35 0
-9.4932 25.7963 -41.5922 0.352 -0.854 0.383 96 20 33 0
-4.5165 25.9899 -43.5247 0.614 -0.773 -0.157 73 23 32 0
-4.1323 27.0458 -44.0177 0.291 -0.909 -0.298 70 22 29 0
-1.3876 30.7583 -46.2745 0.306 -0.910 0.280 62 32 32 0
4.9195 47.0136 -54.0117 -0.380 -0.575 0.725 68 61 36 0
5.0009 46.2795 -53.7998 -0.265 -0.742 0.616 73 65 36 0
5.2188 46.1699 -53.8454 -0.296 -0.637 0.711 91 79 41 0
6.1674 47.1353 -54.5204 0.117 -0.992 -0.046 126 106 38 0
8.3656 46.1054 -55.0056 -0.566 -0.815 -0.126 184 172 59 0
9.5376 47.8305 -56.0154 -0.111 -0.982 -0.153 193 183 59 0
10.9697 43.1002 -54.9907 -0.174 -0.892 -0.418 207 201 63 0
13.1068 42.9882 -55.7561 0.291 -0.911 0.293 206 200 62 0
12.2510 39.2800 -54.2099 -0.560 -0.550 0.620 205 199 61 0
15.7431 45.2420 -57.4903 0.588 -0.746 -0.312 186 183 59 0
23.0467 47.4982 -60.9777 -0.777 -0.293 0.558 189 178 158 0
23.5530 47.4809 -61.1621 -0.850 -0.301 0.433 191 180 163 0
23.1862 14.3967 -50.0966 0.773 -0.623 0.120 181 168 159 0
23.7100 15.0564 -50.5112 0.768 -0.621 0.158 180 167 158 0
24.3643 15.9726 -51.0595 0.579 -0.804 -0.133 179 167 155 0
34.8883 29.6981 -59.5443 0.338 -0.758 -0.557 175 161 152 0
35.3721 30.1695 -59.8817 0.349 -0.758 -0.552 174 160 151 0
35.9118 30.7411 -60.2731 0.344 -0.748 -0.567 172 158 149 0
36.4369 31.2806 -60.6485 0.412 -0.738 -0.534 171 157 148 0
42.4280 40.5054 -65.9448 0.813 -0.581 0.029 168 155 147 0
45.3190 43.8597 -68.1382 -0.108 -0.148 0.983 166 152 144 0
39.9179 32.4137 -62.3297 -0.739 -0.625 -0.253 165 149 139 0
39.7393 29.6034 -61.3344 -0.558 -0.788 -0.261 254 255 255 0
-31.6662 54.5179 -43.0359 -0.766 -0.584 0.269 226 220 214 0
-25.6261 32.7792 -38.0788 -0.441 -0.884 0.158 147 79 89 0
-19.2786 23.8439 -37.4938 0.078 -0.985 -0.151 120 34 47 0
-19.0845 24.0631 -37.6396 -0.214 -0.774 0.596 119 33 45 0
-18.8986 24.0227 -37.6960 -0.207 -0.760 0.616 120 33 45 0
-18.7054 24.1832 -37.8220 -0.361 -0.845 0.395 120 33 44 0
-18.5232 24.0411 -37.8432 -0.216 -0.965 0.148 121 31 43 0
-18.1007 25.1446 -38.3689 -0.593 -0.771 0.233 120 29 44 0
-13.1606 26.9312 -40.8194 0.016 -0.274 0.962 99 21 34 0
-12.6364 24.2285 -40.1179 -0.515 -0.338 0.787 101 21 34 0
-12.2718 24.0426 -40.1932 0.506 -0.637 0.582 103 23 36 0
-9.8706 24.8234 -41.3551 0.074 -0.988 0.135 97 19 34 0
-9.5680 25.6914 -41.7574 0.352 -0.854 0.383 97 19 36 0
-8.6817 26.4559 -42.3447 0.826 -0.446 0.344 91 19 33 0
-8.4588 26.6408 -42.4899 0.788 -0.519 0.330 89 17 31 0
-4.1510 27.2850 -44.3230 0.280 -0.924 -0.262 70 22 30 0
-3.8910 27.6124 -44.5296 0.258 -0.961 -0.100 69 24 29 0
-1.5789 30.0887 -46.2218 -0.115 -0.766 0.633 63 34 33 0
5.1469 49.5098 -55.2060 -0.606 -0.706 0.366 70 64 45 0
4.8828 47.1647 -54.3271 -0.501 -0.603 0.622 67 62 41 0
5.0044 46.6094 -54.1882 -0.494 -0.633 0.596 67 62 38 0
5.2731 46.7245 -54.3275 -0.462 -0.610 0.644 80 70 39 0
5.9574 46.5196 -54.5165 -0.701 -0.650 0.294 125 106 39 0
8.6178 46.4082 -55.4793 -0.569 -0.817 -0.096 187 177 61 0
8.7873 46.1080 -55.4432 -0.562 -0.822 -0.090 191 182 62 0
9.0926 46.3468 -55.6373 -0.627 -0.767 -0.136 192 183 62 0
12.9973 42.8326 -55.9365 0.321 -0.930 0.181 203 199 62 0
12.3431 38.2272 -54.1596 -0.366 -0.603 0.708 196 191 59 0
26.1869 36.7346 -58.8661 -0.603 -0.713 -0.358 188 179 164 0
26.4917 36.8892 -59.0321 -0.553 -0.778 -0.298 188 179 164 0
28.2216 39.7978 -60.6492 -0.174 -0.761 -0.626 187 180 164 0
21.4116 22.4946 -52.3374 -0.516 -0.680 -0.520 186 177 162 0
18.6085 13.4325 -48.2713 -0.653 -0.681 0.332 184 173 160 0
23.6719 15.0630 -50.7163 0.795 -0.565 0.221 180 167 158 0
25.5513 17.2167 -52.1386 0.653 -0.756 0.039 176 164 154 0
30.0772 22.3591 -55.5491 0.369 -0.900 0.232 174 161 152 0
35.2694 30.5018 -60.2074 0.059 -0.754 -0.654 175 161 152 0
35.5575 30.6033 -60.3495 0.348 -0.755 -0.555 175 161 152 0
36.1018 31.1819 -60.7464 0.360 -0.757 -0.545 175 161 152 0
41.3776 35.9617 -64.3181 -0.811 -0.579 -0.076 166 152 143 0
39.9352 32.5252 -62.6336 -0.740 -0.626 -0.247 164 150 139 0
39.7417 29.6834 -61.6162 -0.552 -0.782 -0.289 254 255 254 0
-31.8222 37.8145 -37.6703 0.110 -0.872 0.477 229 225 217 0
-31.4950 54.1551 -43.2610 -0.620 -0.437 0.652 226 219 213 0
-30.8738 51.7792 -42.6996 -0.935 -0.291 0.202 223 214 209 0
-26.9081 44.3970 -41.7214 -0.955 -0.294 -0.044 160 108 113 0
-21.7417 26.3582 -37.6292 -0.186 -0.971 -0.148 122 43 56 0
-21.5508 26.4697 -37.7383 -0.239 -0.888 -0.394 123 42 56 0
-21.3620 26.3437 -37.7671 -0.088 -0.893 -0.442 125 43 57 0
-21.1712 26.4004 -37.8579 -0.083 -0.894 -0.441 125 42 58 0
-20.9836 26.2201 -37.8681 -0.087 -0.891 -0.446 121 40 55 0
-20.7895 26.4606 -38.0216 -0.652 -0.716 -0.249 119 38 53 0
-19.3463 23.7274 -37.6500 -0.334 -0.811 -0.481 122 35 49 0
-19.1551 23.8674 -37.7688 -0.594 -0.761 -0.259 120 33 47 0
-18.9692 23.8361 -37.8282 -0.196 -0.770 0.607 121 33 47 0
-18.7796 23.9076 -37.9235 -0.026 -0.990 0.137 121 33 47 0
-16.8048 25.6670 -39.2551 -0.678 -0.689 0.256 109 27 40 0
-13.7550 25.2964 -40.2783 0.553 -0.823 -0.127 99 23 35 0
-12.3568 23.8082 -40.3064 0.519 -0.636 0.572 102 22 35 0
-9.6427 25.5867 -41.9225 0.352 -0.854 0.383 96 18 35 0
-8.4903 26.8685 -42.7849 0.779 -0.533 0.329 91 21 33 0
-8.3506 24.9863 -42.2077 0.045 -0.898 -0.438 91 21 32 0
-7.7538 22.3783 -41.5596 -0.121 -0.555 0.823 83 19 30 0
-5.6166 23.6917 -42.8030 -0.534 -0.839 0.105 76 23 31 0
-3.7120 27.8179 -44.9001 0.317 -0.946 -0.067 70 26 30 0
2.1585 41.3866 -51.6486 -0.655 -0.472 0.590 73 53 45 0
2.3380 41.1345 -51.6317 -0.639 -0.475 0.605 76 56 47 0
4.9732 49.0357 -55.2668 -0.462 -0.716 0.523 71 64 46 0
4.9157 47.6362 -54.7769 -0.277 -0.841 0.465 70 65 45 0
5.0538 47.1500 -54.6662 -0.430 -0.671 0.604 70 65 45 0
5.2006 46.7105 -54.5743 -0.439 -0.636 0.635 76 67 40 0
8.1555 46.7976 -55.7150 -0.582 -0.806 -0.110 179 167 61 0
8.7760 46.3325 -55.7929 -0.566 -0.818 -0.102 191 182 63 0
8.9337 45.9869 -55.7365 -0.674 -0.718 -0.172 192 183 63 0
8.9556 45.1141 -55.4527 -0.333 -0.893 -0.304 193 185 65 0
9.2513 45.3187 -55.6324 -0.222 -0.829 -0.513 195 189 66 0
13.1810 47.9679 -57.9971 -0.628 -0.650 0.429 204 200 63 0
13.3125 43.2992 -56.4845 -0.033 -0.958 0.286 197 194 62 0
12.6588 37.1713 -54.1882 -0.373 -0.848 0.376 188 184 61 0
25.8665 36.6707 -58.9892 -0.643 -0.760 -0.093 189 180 168 0
26.1697 36.8228 -59.1542 -0.636 -0.766 -0.087 189 179 166 0
26.8635 37.8912 -59.7726 0.068 -0.631 -0.773 189 180 165 0
17.2931 11.8554 -47.4608 -0.478 -0.393 0.786 186 176 165 0
30.1316 22.5462 -55.8676 0.414 -0.904 0.102 174 161 152 0
35.9950 31.5107 -61.0729 0.482 -0.683 -0.549 174 160 151 0
39.3980 35.1406 -63.5676 -0.841 -0.516 0.159 170 155 148 0
44.4369 42.9261 -68.0681 0.634 -0.769 0.078 166 151 144 0
41.2499 35.8179 -64.4909 -0.756 -0.654 -0.027 170 153 145 0
39.9186 32.5767 -62.9055 -0.558 -0.803 -0.212 166 151 141 0
