ply
format ascii 1.0
element vertex 818
property float x
property float y
property float z
property float nx
property float ny
property float nz
property uchar diffuse_red
property uchar diffuse_green
property uchar diffuse_blue
property uchar class
end_header
8.8251 42.9361 -50.4551 0.681 -0.707 -0.190 186 170 50 0
9.0051 42.7444 -50.4749 0.718 -0.687 -0.106 189 175 51 0
9.5788 43.8113 -51.0189 0.333 -0.895 0.296 193 181 52 0
13.1805 48.0906 -53.7410 0.568 -0.684 0.458 208 199 65 0
13.5205 48.3537 -53.9577 0.580 -0.718 0.386 209 201 67 0
23.6937 47.4443 -57.9234 -0.294 -0.909 0.295 190 178 155 0
23.8020 47.0827 -57.8648 -0.346 -0.937 0.055 191 179 155 0
16.4967 12.4684 -44.9138 -0.389 -0.619 0.682 186 176 160 0
39.6602 30.9885 -59.8422 0.050 -0.947 -0.317 159 145 132 0
39.9485 31.0556 -59.9811 0.039 -0.945 -0.325 103 95 89 0
40.2272 31.1069 -60.1116 0.008 -0.944 -0.331 50 50 49 0
40.4255 31.0310 -60.1723 0.017 -0.935 -0.353 246 247 245 0
40.5788 30.8848 -60.1940 -0.412 -0.847 -0.336 255 254 255 0
-64.2792 47.8358 -21.7363 -0.268 -0.894 -0.360 230 221 214 0
-62.9744 45.2601 -21.5356 -0.498 -0.839 -0.218 233 223 217 0
-62.6658 44.8306 -21.5400 -0.544 -0.829 -0.127 234 225 218 0
-31.5584 43.5847 -34.1182 -0.039 -0.334 0.942 232 224 215 0
-29.5888 55.0622 -38.2498 -0.480 -0.733 0.481 219 210 201 0
-29.2843 46.2940 -35.8460 0.713 -0.643 0.279 219 207 198 0
-28.4301 49.5010 -37.1268 -0.735 -0.678 -0.009 215 195 189 0
-28.2093 49.2791 -37.1546 -0.737 -0.676 -0.004 207 181 178 0
-27.9890 49.0778 -37.1880 -0.435 -0.411 0.801 179 145 146 0
-26.0354 35.8088 -34.1712 -0.963 -0.209 0.169 135 67 78 0
-25.6692 34.4418 -33.9290 -0.888 -0.185 0.420 133 62 76 0
-22.4520 28.1349 -33.4469 -0.667 -0.285 0.688 123 39 55 0
-21.2576 26.2685 -33.4050 -0.373 -0.919 0.127 121 31 46 0
-19.3344 24.7834 -33.7763 -0.403 -0.900 0.165 116 31 44 0
-19.1574 24.6953 -33.8245 -0.403 -0.900 0.165 117 30 44 0
-18.7430 23.2125 -33.5689 0.388 -0.820 0.421 119 30 43 0
-16.4275 22.6255 -34.3626 0.035 -0.905 0.423 111 23 39 0
-14.3059 24.6711 -35.8353 0.286 -0.949 0.129 105 24 41 0
-12.7427 22.5462 -35.8722 0.389 -0.825 0.410 101 18 33 0
-11.0949 23.4431 -36.8164 -0.603 -0.797 0.026 98 18 31 0
-10.2650 22.7904 -36.9732 -0.542 -0.840 0.021 98 20 32 0
-8.9260 23.8559 -37.8376 0.463 -0.817 0.344 93 18 33 0
-8.7434 23.8089 -37.9000 0.464 -0.831 0.305 94 21 33 0
-8.5376 23.8806 -38.0063 0.485 -0.823 0.294 92 21 30 0
-8.0649 23.3634 -38.0536 -0.543 -0.811 0.220 90 17 29 0
-2.5890 25.1277 -40.8403 -0.817 -0.572 0.075 66 22 25 0
2.3570 32.8087 -45.1140 0.620 -0.677 -0.398 77 53 32 0
8.7854 43.0404 -50.7405 0.472 -0.832 -0.293 184 172 48 0
12.4967 47.7672 -53.6482 0.551 -0.748 0.369 207 198 64 0
12.8655 48.1246 -53.9047 0.525 -0.796 0.300 207 199 63 0
13.1598 48.2519 -54.0638 0.080 -0.940 0.332 208 200 63 0
13.5867 48.7752 -54.3924 0.194 -0.933 0.303 209 201 64 0
23.6171 47.4282 -58.1754 -0.253 -0.900 0.354 189 178 155 0
16.2726 28.7610 -49.7335 0.216 -0.879 0.424 190 179 158 0
17.5072 11.5124 -45.2691 -0.823 -0.419 -0.385 185 174 161 0
35.2020 26.2183 -56.8725 0.312 -0.859 -0.407 168 154 143 0
37.5120 28.8028 -58.5792 0.377 -0.893 -0.247 166 151 140 0
39.6918 31.1211 -60.1548 0.012 -0.943 -0.333 161 147 135 0
39.9692 31.1703 -60.2844 0.012 -0.943 -0.333 105 97 89 0
40.2470 31.2197 -60.4142 0.012 -0.943 -0.333 50 51 50 0
40.4459 31.1441 -60.4751 0.058 -0.929 -0.365 247 247 244 0
40.6393 31.0602 -60.5313 0.054 -0.935 -0.351 255 255 255 0
-66.2752 50.3749 -21.8909 0.060 -0.922 -0.383 255 255 255 0
-64.4141 47.9695 -21.9665 -0.272 -0.890 -0.365 230 221 213 0
-63.2098 45.7556 -21.8243 -0.719 -0.616 -0.321 233 224 217 0
-31.6399 43.4619 -34.3028 0.040 -0.316 0.948 230 223 213 0
-28.9640 50.2755 -37.3978 -0.684 -0.667 -0.295 216 204 195 0
-28.5188 49.7226 -37.4225 -0.754 -0.654 -0.055 215 197 191 0
-28.2974 49.5165 -37.4548 -0.757 -0.652 -0.051 214 188 184 0
-28.0772 48.7801 -37.3323 -0.470 -0.478 0.742 191 159 159 0
-27.8580 48.5320 -37.3515 -0.482 -0.536 0.694 170 130 134 0
-26.2818 37.5854 -34.8254 -0.849 -0.485 0.209 138 73 83 0
-26.0818 37.4903 -34.8810 -0.878 -0.379 0.293 134 67 77 0
-25.8972 36.6528 -34.7144 -0.869 -0.441 0.224 132 63 75 0
-23.5001 31.5736 -34.2360 -0.641 -0.747 0.177 123 42 54 0
-19.1314 25.7578 -34.3642 -0.317 -0.737 0.597 117 31 44 0
-14.7831 24.4200 -35.7859 0.180 -0.981 -0.069 105 22 38 0
-14.5259 24.9338 -36.0424 0.306 -0.881 0.362 103 22 39 0
-14.3704 24.6870 -36.0353 0.240 -0.935 0.260 104 23 40 0
-9.5468 23.9531 -37.8305 -0.011 -0.971 -0.240 92 14 28 0
-8.1409 23.3031 -38.2269 -0.511 -0.829 0.228 89 16 29 0
-1.6240 28.4077 -42.4245 0.407 -0.798 -0.444 66 21 26 0
2.3272 32.9426 -45.3881 0.620 -0.677 -0.398 79 54 33 0
8.9767 43.1158 -51.1144 0.508 -0.809 -0.298 187 176 48 0
12.0239 48.0882 -53.8288 -0.045 -0.901 -0.431 201 191 59 0
12.2282 47.9423 -53.8714 -0.013 -0.902 -0.431 205 195 62 0
13.2078 48.6219 -54.4769 -0.178 -0.939 0.294 208 200 63 0
23.5039 47.3243 -58.3868 -0.294 -0.908 0.298 188 177 155 0
21.9524 36.1739 -54.4991 -0.052 -0.386 0.921 190 178 164 0
17.1288 11.9933 -45.4609 0.516 -0.824 0.233 185 173 159 0
26.6759 16.1907 -50.6564 0.265 -0.139 0.954 173 161 147 0
26.6347 15.0697 -50.3134 0.364 -0.540 0.759 172 160 148 0
36.2842 28.0600 -58.1079 0.539 -0.762 -0.359 171 157 144 0
36.9840 28.8080 -58.6167 0.728 -0.679 -0.095 168 154 143 0
39.7064 31.2268 -60.4534 0.012 -0.943 -0.333 163 148 138 0
39.9788 31.2678 -60.5788 0.014 -0.942 -0.336 106 98 92 0
40.2580 31.3187 -60.7098 0.014 -0.942 -0.336 49 49 50 0
40.5010 31.3120 -60.8091 0.112 -0.929 -0.352 247 247 244 0
40.7307 31.2842 -60.8967 0.085 -0.931 -0.355 254 255 254 0
-66.3839 50.4092 -22.1078 0.080 -0.920 -0.383 255 255 255 0
-64.5363 48.0584 -22.1896 -0.301 -0.890 -0.342 231 222 213 0
-63.2878 45.6978 -22.0188 -0.609 -0.646 -0.460 234 224 218 0
-29.0538 50.4032 -37.6678 -0.808 -0.561 0.180 214 205 195 0
-28.8307 50.1969 -37.7004 -0.842 -0.505 0.189 214 203 193 0
-28.5942 45.3286 -36.3733 0.683 -0.717 0.142 215 199 191 0
-28.3808 45.5491 -36.5268 0.677 -0.700 0.226 216 193 188 0
-28.1651 48.3503 -37.4370 -0.333 -0.648 0.685 199 168 167 0
-27.9458 48.3618 -37.5318 -0.295 -0.641 0.708 171 133 135 0
-26.9324 40.6045 -35.6826 -0.969 -0.231 0.092 151 91 101 0
-26.7418 39.3491 -35.3944 -0.936 -0.305 0.176 144 82 93 0
-26.5533 38.2423 -35.1489 -0.909 -0.245 0.338 142 80 91 0
-23.5712 31.6480 -34.4609 -0.655 -0.728 0.202 125 44 57 0
-23.4243 30.6021 -34.2158 -0.564 -0.824 0.049 126 44 56 0
-20.9135 25.2294 -33.6892 -0.293 -0.944 -0.148 120 32 47 0
-20.7267 25.2600 -33.7760 -0.359 -0.932 -0.045 120 32 48 0
-20.3690 25.1036 -33.8793 0.189 -0.969 -0.158 117 31 47 0
-19.2023 25.7359 -34.5508 -0.297 -0.561 0.772 117 31 45 0
-14.7195 25.4059 -36.3229 0.594 -0.804 -0.018 108 25 40 0
-14.6068 24.8297 -36.2011 0.310 -0.884 0.350 104 23 39 0
-14.4602 24.5176 -36.1708 0.245 -0.926 0.287 102 21 38 0
-9.6015 24.0073 -38.0468 -0.011 -0.971 -0.240 93 15 29 0
-8.2944 24.7969 -38.8230 -0.159 -0.804 -0.572 90 20 31 0
-8.2071 23.2913 -38.4185 -0.511 -0.829 0.228 87 14 28 0
-6.8446 24.2884 -39.2784 -0.223 -0.828 -0.514 97 27 34 0
-3.3895 25.6294 -41.1114 0.130 -0.869 -0.478 70 19 25 0
8.8388 42.9031 -51.2675 0.475 -0.823 -0.311 187 176 48 0
12.0243 48.3214 -54.1822 -0.041 -0.901 -0.431 202 192 59 0
12.2514 48.2439 -54.2542 0.013 -0.907 -0.422 204 194 62 0
16.3035 11.9807 -45.3238 -0.367 -0.363 0.856 183 174 159 0
16.4534 11.5145 -45.2498 0.644 -0.765 -0.027 185 176 161 0
25.9091 18.5901 -51.2636 0.445 -0.135 0.885 178 166 154 0
26.5653 15.3777 -50.5964 -0.027 -0.399 0.916 174 162 150 0
26.4271 14.7976 -50.3689 0.635 -0.772 0.028 171 159 147 0
26.8100 15.0922 -50.6148 0.647 -0.759 0.072 170 158 146 0
27.1795 15.3619 -50.8478 0.646 -0.761 0.065 168 156 144 0
27.5789 15.6789 -51.1072 0.646 -0.761 0.065 169 156 146 0
28.0133 16.0512 -51.3973 0.654 -0.752 0.081 170 156 145 0
32.6335 23.3094 -55.4488 0.656 -0.690 -0.306 171 157 145 0
35.9893 27.6631 -58.1227 0.698 -0.703 -0.137 170 156 143 0
36.8804 28.7232 -58.8046 0.728 -0.679 -0.095 167 153 142 0
37.5630 29.0494 -59.1847 0.307 -0.859 -0.409 165 151 142 0
39.7210 31.3329 -60.7530 0.012 -0.943 -0.333 163 148 140 0
39.9985 31.3814 -60.8829 -0.004 -0.938 -0.346 107 98 94 0
40.2725 31.4236 -61.0094 -0.009 -0.938 -0.346 49 49 50 0
40.5187 31.4215 -61.1115 0.108 -0.931 -0.349 247 247 245 0
40.7503 31.3960 -61.2005 0.074 -0.933 -0.351 254 255 255 0
-66.5315 50.5723 -22.3469 0.091 -0.920 -0.381 255 255 255 0
-64.6797 48.2192 -22.4257 -0.281 -0.896 -0.344 232 223 214 0
-64.2658 48.1109 -22.5665 -0.304 -0.892 -0.333 235 225 218 0
-28.4750 50.0336 -38.0708 -0.945 -0.323 0.056 216 196 189 0
-28.2527 49.3431 -37.9599 -0.944 -0.324 0.059 210 183 179 0
-28.0326 48.7303 -37.8710 -0.945 -0.320 0.071 181 148 147 0
-27.8145 48.1062 -37.7779 -0.945 -0.320 0.071 169 131 131 0
-26.6677 35.7632 -34.6157 -0.270 -0.958 0.101 145 84 95 0
-26.2389 37.5731 -35.3285 -0.622 0.001 0.783 140 74 84 0
-26.0516 36.8001 -35.1786 -0.623 -0.001 0.782 138 69 80 0
-23.2071 32.7597 -35.1740 -0.121 -0.800 0.588 125 43 55 0
-21.2320 27.0035 -34.3004 -0.382 -0.603 0.700 122 34 48 0
-20.6856 26.7745 -34.4609 0.237 -0.692 0.682 121 33 47 0
-20.4943 26.8232 -34.5550 -0.309 -0.934 0.181 119 31 45 0
-20.3398 26.3873 -34.4909 -0.622 -0.783 -0.010 118 32 45 0
-19.4851 25.4197 -34.5622 0.151 -0.693 0.705 116 30 44 0
-19.2879 25.5461 -34.6818 -0.295 -0.571 0.766 118 30 46 0
-15.7136 24.0489 -35.7319 0.365 -0.914 -0.176 110 22 38 0
-14.8114 25.2202 -36.4540 0.587 -0.809 -0.034 107 24 39 0
-11.4938 23.3540 -37.2881 -0.354 -0.818 0.454 97 16 28 0
-11.2941 23.4170 -37.3900 -0.477 -0.843 0.249 98 18 31 0
-10.2469 22.9111 -37.6778 -0.116 -0.991 0.070 93 15 28 0
-9.6564 24.0615 -38.2636 -0.011 -0.971 -0.240 94 16 30 0
-8.1158 23.1105 -38.6260 -0.502 -0.836 0.222 85 11 26 0
-6.9083 24.2908 -39.4781 -0.028 -0.981 -0.192 92 23 31 0
-6.5062 24.3509 -39.6637 -0.062 -0.972 -0.228 84 17 26 0
0.5441 31.6250 -44.7517 -0.571 -0.784 -0.242 66 35 31 0
0.8550 31.9897 -44.9891 -0.639 -0.768 -0.042 66 36 32 0
9.1404 43.3327 -51.7929 0.480 -0.833 -0.276 192 182 51 0
12.2960 48.6133 -54.6675 0.005 -0.892 -0.452 203 193 61 0
20.0968 14.4768 -47.8537 -0.054 -0.985 -0.163 180 170 158 0
24.8775 15.0443 -50.0163 0.435 -0.106 0.894 179 165 156 0
25.1301 15.1249 -50.1455 0.428 -0.098 0.898 178 165 154 0
25.5065 15.4174 -50.3889 0.430 -0.107 0.896 175 163 149 0
26.3688 15.1236 -50.6621 0.281 -0.737 0.615 173 161 149 0
37.5234 29.0683 -59.4308 0.386 -0.902 -0.194 165 151 141 0
39.7405 31.4469 -61.0577 -0.004 -0.938 -0.346 162 147 139 0
40.0172 31.4936 -61.1869 -0.004 -0.938 -0.346 104 96 92 0
40.2915 31.5358 -61.3139 -0.009 -0.938 -0.346 50 50 50 0
40.4457 31.3881 -61.3347 0.072 -0.964 -0.254 247 247 246 0
40.7299 31.4452 -61.4701 0.072 -0.964 -0.254 254 255 255 0
-66.6671 50.6945 -22.5798 -0.309 -0.937 -0.162 255 255 255 0
-64.8116 48.3396 -22.6554 -0.303 -0.893 -0.332 233 224 215 0
-64.6078 48.2974 -22.7280 -0.303 -0.893 -0.332 234 225 217 0
-64.3809 48.1753 -22.7865 -0.297 -0.882 -0.367 235 226 218 0
-29.6688 49.7418 -37.7556 -0.475 -0.272 0.837 218 209 200 0
-28.5513 45.2806 -36.8971 0.681 -0.726 0.095 213 196 188 0
-28.3412 49.5685 -38.2589 -0.947 -0.313 0.073 214 191 185 0
-28.1202 48.9237 -38.1596 -0.947 -0.313 0.073 196 168 163 0
-27.9012 48.2987 -38.0654 -0.945 -0.320 0.071 172 138 135 0
-26.1414 36.2087 -35.2087 -0.726 -0.016 0.687 142 73 84 0
-24.8497 32.6221 -34.6828 -0.423 -0.898 -0.122 130 54 66 0
-24.6452 32.9251 -34.8583 -0.105 -0.993 0.047 125 49 61 0
-23.4853 32.5956 -35.2450 -0.147 -0.691 0.707 128 46 58 0
-23.2698 33.0343 -35.4654 -0.155 -0.730 0.665 127 45 57 0
-21.6792 26.9734 -34.3293 0.052 -0.983 0.177 126 38 52 0
-21.4932 26.9550 -34.4016 -0.352 -0.869 0.347 123 35 49 0
-21.3184 26.7663 -34.4185 -0.340 -0.875 0.346 123 35 49 0
-21.1336 26.7309 -34.4852 0.016 -0.751 0.660 124 36 50 0
-20.8327 28.3472 -35.0911 -0.296 -0.674 0.677 124 36 50 0
-20.7615 26.6955 -34.6301 0.065 -0.755 0.653 122 34 48 0
-20.5797 26.6190 -34.6834 -0.355 -0.867 0.350 120 32 46 0
-20.4443 25.9302 -34.5353 -0.166 -0.775 0.610 119 31 45 0
-20.2944 25.4600 -34.4583 -0.349 -0.862 -0.367 118 30 44 0
-20.1124 25.4128 -34.5202 -0.349 -0.862 -0.367 117 30 44 0
-19.9380 25.2727 -34.5515 -0.261 -0.922 0.286 116 30 43 0
-19.7573 25.2126 -34.6092 -0.045 -0.905 0.422 116 30 42 0
-19.5804 25.1095 -34.6524 -0.208 -0.921 0.330 116 30 43 0
-19.1474 23.7314 -34.4240 -0.118 -0.858 0.499 117 29 45 0
-15.7792 24.0592 -35.9286 0.360 -0.917 -0.172 111 23 39 0
-15.5735 24.2091 -36.0591 0.466 -0.883 0.060 109 22 38 0
-15.3903 24.1765 -36.1260 0.514 -0.840 0.173 108 21 37 0
-15.1901 24.2756 -36.2391 0.514 -0.840 0.173 106 20 36 0
-9.7079 24.1346 -38.4878 0.062 -0.996 -0.064 93 16 29 0
-9.4501 24.4900 -38.7011 -0.063 -0.965 0.255 92 16 31 0
-8.2115 22.9513 -38.7615 -0.555 -0.657 0.510 89 15 30 0
-8.0488 22.8104 -38.7876 -0.558 -0.670 0.490 90 13 29 0
-6.7642 24.3555 -39.7834 0.144 -0.987 -0.066 86 19 28 0
-6.5476 24.4572 -39.9041 -0.128 -0.972 -0.197 84 18 26 0
-1.3240 27.9304 -43.1186 -0.744 -0.663 -0.082 62 27 31 0
-0.4578 29.6749 -43.9988 -0.754 -0.655 0.038 61 31 29 0
0.5634 31.9510 -45.1017 -0.473 -0.863 -0.178 65 36 32 0
8.4103 41.9809 -51.3603 0.002 -0.916 0.401 188 178 49 0
20.8835 33.1264 -53.9412 -0.745 -0.431 0.509 189 180 164 0
25.7450 14.4955 -50.4371 0.789 -0.489 0.371 171 159 147 0
26.3306 15.1361 -50.8722 0.789 -0.492 0.367 170 158 146 0
31.4711 22.6683 -55.2579 -0.017 -0.854 -0.521 170 158 146 0
31.7593 22.7734 -55.4095 0.172 -0.884 -0.434 171 155 144 0
31.9002 22.2624 -55.3165 0.033 -0.848 -0.529 170 153 145 0
35.7964 27.5146 -58.5049 0.628 -0.769 -0.119 168 152 141 0
37.5207 29.1467 -59.7103 0.377 -0.904 -0.201 167 151 141 0
39.7584 31.5588 -61.3619 -0.009 -0.938 -0.346 163 147 137 0
40.0358 31.6061 -61.4919 -0.004 -0.938 -0.346 105 97 91 0
40.3106 31.6485 -61.6193 -0.009 -0.938 -0.346 49 50 50 0
40.4664 31.5026 -61.6411 -0.136 -0.929 -0.343 247 247 244 0
40.7326 31.5309 -61.7607 -0.040 -0.930 -0.364 254 255 254 0
-66.7976 50.7989 -22.8101 -0.349 -0.925 -0.154 255 255 255 0
-29.9874 50.3918 -38.0863 -0.229 -0.826 0.515 219 209 200 0
-29.0988 50.3579 -38.4479 -0.836 -0.525 0.159 213 202 196 0
-28.6542 50.4997 -38.6763 -0.945 -0.314 0.095 212 196 188 0
-28.2081 49.1204 -38.4501 -0.945 -0.320 0.071 207 181 175 0
-27.9883 48.4920 -38.3540 -0.945 -0.320 0.071 179 147 142 0
-27.7704 47.9085 -38.2706 -0.946 -0.318 0.067 170 132 130 0
-26.4073 36.9811 -35.5709 -0.881 -0.008 0.473 149 85 94 0
-25.8405 35.2422 -35.2876 -0.783 -0.046 0.620 136 68 78 0
-24.9239 32.6688 -34.9010 -0.429 -0.896 -0.113 134 60 70 0
-24.7196 32.9679 -35.0760 -0.107 -0.991 0.078 127 51 63 0
-23.9329 33.0690 -35.4353 0.134 -0.822 0.554 128 47 61 0
-23.3258 33.4725 -35.8100 -0.325 -0.611 0.722 128 46 58 0
-21.7746 26.5789 -34.3960 -0.159 -0.917 -0.365 125 37 51 0
-21.5881 26.5774 -34.4736 -0.159 -0.917 -0.365 124 35 50 0
-21.4019 26.5686 -34.5489 -0.176 -0.912 -0.371 124 36 50 0
-21.2045 26.7237 -34.6778 -0.616 -0.768 0.174 124 36 50 0
-20.6557 26.5390 -34.8522 -0.334 -0.875 0.352 126 38 52 0
-20.5179 25.8783 -34.7121 -0.034 -0.868 0.495 121 31 46 0
-19.6580 25.0052 -34.8105 -0.140 -0.912 0.385 117 29 42 0
-18.9387 24.7448 -35.0335 -0.368 -0.899 0.238 120 31 46 0
-18.7209 25.0897 -35.2278 -0.327 -0.887 0.326 120 29 44 0
-15.8417 24.0949 -36.1345 0.351 -0.920 -0.173 111 23 39 0
-15.6427 24.1910 -36.2465 0.363 -0.917 -0.167 111 23 39 0
-14.3285 24.1873 -36.7952 -0.128 -0.978 -0.163 103 20 36 0
-14.1095 24.4065 -36.9524 -0.035 -0.997 -0.066 101 19 35 0
-10.2972 23.3494 -38.2308 -0.049 -0.806 0.589 93 15 28 0
-9.5945 24.0612 -38.7377 -0.313 -0.896 0.314 93 17 33 0
-8.5250 23.6255 -39.0547 -0.085 -0.947 -0.310 90 14 28 0
-8.2990 22.8323 -38.9119 -0.505 -0.557 0.659 93 19 32 0
-6.6389 24.3304 -40.0546 -0.784 -0.617 0.066 84 17 25 0
-4.2426 26.2166 -41.6214 0.050 -0.657 -0.752 73 20 26 0
-2.5912 25.5880 -42.1241 0.370 -0.926 -0.079 65 23 27 0
-1.6794 27.5963 -43.1065 -0.183 -0.957 -0.226 63 25 29 0
-1.3501 28.0823 -43.3897 -0.637 -0.770 0.040 63 27 31 0
-1.1538 28.0446 -43.4605 -0.585 -0.810 0.042 62 29 30 0
0.6058 32.3661 -45.4897 -0.513 -0.812 -0.276 65 36 32 0
23.1476 46.5159 -59.1533 0.419 -0.521 0.743 190 179 157 0
22.7364 44.9146 -58.5021 0.334 -0.493 0.804 190 179 158 0
26.5321 15.2030 -51.1990 0.791 -0.490 0.366 172 160 148 0
27.0096 15.6547 -51.5339 0.357 -0.500 0.789 174 161 149 0
31.4749 22.3823 -55.4150 0.186 -0.835 -0.518 174 158 146 0
31.5345 22.1090 -55.3581 -0.007 -0.848 -0.530 173 155 144 0
36.0986 28.0908 -59.0573 0.453 -0.858 -0.242 170 152 144 0
36.3027 27.6484 -59.0103 -0.266 -0.913 -0.308 169 153 141 0
39.7934 31.6981 -61.6823 -0.007 -0.937 -0.348 163 147 134 0
40.0574 31.7234 -61.8003 0.001 -0.939 -0.344 106 97 89 0
40.3361 31.7715 -61.9313 0.001 -0.939 -0.344 50 50 49 0
40.5586 31.7302 -62.0120 0.023 -0.948 -0.318 247 247 244 0
40.8384 31.7788 -62.1436 0.013 -0.944 -0.330 254 255 255 0
-66.6683 50.6863 -23.0844 0.091 -0.924 -0.372 255 255 255 0
-29.1893 50.5180 -38.7296 -0.754 -0.639 0.149 213 203 194 0
-28.2965 49.6589 -38.8445 -0.807 -0.582 0.101 212 187 181 0
-28.0748 49.4211 -38.8657 -0.790 -0.599 0.130 188 158 153 0
-27.8534 49.3121 -38.9256 -0.703 -0.703 0.109 171 135 133 0
-27.6502 45.4138 -37.8359 0.380 -0.732 0.565 167 124 125 0
-26.4905 36.7138 -35.6995 -0.941 -0.053 0.335 154 91 100 0
-25.9157 35.3661 -35.5341 -0.967 -0.156 0.200 140 72 81 0
-24.7965 32.9354 -35.2703 -0.155 -0.976 0.151 127 51 63 0
-24.3771 33.7499 -35.6914 0.094 -0.830 0.549 125 47 61 0
-23.8244 32.7700 -35.6276 -0.889 -0.299 0.345 127 45 60 0
-23.2246 33.0216 -35.9545 -0.201 -0.581 0.789 127 45 57 0
-22.4141 29.8084 -35.3256 -0.842 -0.506 0.185 125 38 54 0
-21.8386 26.6839 -34.6250 -0.176 -0.912 -0.371 131 40 55 0
-21.6521 26.6792 -34.7017 -0.176 -0.912 -0.371 127 38 53 0
-20.7321 26.4524 -35.0186 -0.303 -0.857 0.417 125 37 51 0
-20.5662 26.1642 -35.0012 -0.095 -0.990 0.104 121 33 47 0
-20.3682 26.3097 -35.1280 0.403 -0.914 0.048 119 33 46 0
-20.2103 25.9327 -35.0805 0.054 -0.971 -0.234 118 32 45 0
-19.1897 24.7783 -35.1600 -0.383 -0.883 0.270 120 32 45 0
-19.0139 24.6702 -35.2010 -0.383 -0.883 0.270 119 31 43 0
-14.3601 24.4427 -37.0814 -0.035 -0.998 -0.046 102 19 35 0
-14.1720 24.4367 -37.1584 -0.030 -0.999 -0.045 99 17 32 0
-11.5044 23.3268 -37.9411 -0.324 -0.945 -0.031 97 17 30 0
-11.3535 23.0990 -37.9356 -0.325 -0.946 -0.005 97 17 30 0
-11.1607 23.1209 -38.0230 -0.179 -0.959 0.219 97 17 30 0
-8.3385 23.9220 -39.4463 -0.401 -0.833 -0.382 90 16 27 0
-8.1729 23.7848 -39.4743 -0.272 -0.884 -0.379 92 19 29 0
-7.9732 23.8183 -39.5680 -0.068 -0.886 -0.458 91 17 30 0
-1.6635 27.9150 -43.4451 -0.098 -0.978 -0.183 62 26 28 0
2.1272 35.0464 -47.1819 0.109 -0.928 -0.357 74 53 37 0
2.8806 35.3683 -47.5944 0.233 -0.884 -0.404 89 65 33 0
22.8837 46.0487 -59.1903 0.389 -0.519 0.761 189 178 156 0
22.1560 43.0868 -57.9929 0.612 -0.788 0.066 191 180 162 0
11.2812 13.5645 -44.5414 -0.307 -0.737 -0.603 191 182 165 0
11.5127 13.6556 -44.6658 -0.365 -0.765 -0.531 189 180 164 0
20.6681 15.4463 -49.0396 -0.442 -0.736 0.513 180 170 160 0
22.2361 15.3337 -49.6624 0.224 -0.508 0.832 179 169 156 0
31.4650 22.4472 -55.6712 0.257 -0.825 -0.504 174 157 147 0
31.6145 22.3224 -55.6961 -0.021 -0.852 -0.523 173 156 146 0
36.3101 27.7428 -59.2962 -0.266 -0.913 -0.308 169 152 142 0
37.8444 29.4442 -60.4515 0.368 -0.909 -0.193 166 150 136 0
39.8114 31.8107 -61.9885 -0.013 -0.940 -0.341 163 147 131 0
40.0913 31.8607 -62.1208 -0.012 -0.940 -0.340 106 97 87 0
40.3623 31.8959 -62.2449 -0.013 -0.940 -0.341 51 50 50 0
40.5398 31.7828 -62.2851 -0.012 -0.910 -0.415 246 246 245 0
40.8264 31.8420 -62.4230 -0.012 -0.910 -0.415 254 255 255 0
40.6125 30.7276 -61.9976 -0.069 -0.939 -0.336 255 255 254 0
-29.4973 50.1013 -38.7459 0.450 -0.838 -0.309 216 206 197 0
-29.0562 50.5661 -39.0719 -0.717 -0.624 0.312 212 202 192 0
-28.3853 49.7770 -39.1137 -0.790 -0.599 0.130 213 190 184 0
-28.1632 49.4939 -39.1209 -0.799 -0.586 0.137 199 172 165 0
-27.9410 49.5943 -39.2446 -0.620 -0.778 0.099 176 143 138 0
-27.7362 45.2637 -38.0160 0.375 -0.746 0.551 169 129 128 0
-25.9850 35.7994 -35.8777 -0.923 -0.305 -0.237 138 71 80 0
-24.8753 32.8395 -35.4446 -0.444 -0.892 -0.087 129 53 65 0
-24.4432 34.0475 -35.9924 0.000 -0.870 0.493 127 49 63 0
-23.2216 30.4858 -35.4236 -0.765 -0.453 0.458 127 45 59 0
-20.9770 26.6309 -35.1947 -0.556 -0.714 0.426 121 33 48 0
-20.4413 26.2680 -35.3091 0.403 -0.914 0.048 120 33 47 0
-20.1946 27.0351 -35.6454 -0.073 -0.996 -0.057 119 33 44 0
-18.0684 23.6594 -35.5123 -0.020 -0.949 -0.314 117 28 42 0
-14.5813 24.6992 -37.2899 0.004 -0.934 0.358 103 21 36 0
-14.4329 24.3987 -37.2609 -0.057 -0.988 0.142 104 23 37 0
-11.6607 22.7781 -37.9314 -0.610 -0.789 -0.067 97 17 30 0
-11.4820 22.7208 -37.9889 -0.577 -0.685 0.445 97 17 30 0
-8.3673 24.1037 -39.7145 -0.406 -0.834 -0.373 88 15 27 0
-8.2044 23.9505 -39.7364 -0.101 -0.874 -0.476 88 16 27 0
-6.9522 25.3150 -40.6755 -0.129 -0.572 -0.810 88 20 29 0
-1.4772 28.0948 -43.8147 0.311 -0.712 0.629 62 29 29 0
1.4499 35.2518 -47.2143 0.230 -0.815 -0.532 67 43 34 0
6.3035 40.4034 -50.8128 0.288 -0.945 -0.155 165 151 42 0
6.8124 38.9847 -50.5956 -0.052 -0.927 -0.371 182 170 49 0
9.7883 44.7858 -53.6040 0.662 -0.722 -0.203 196 185 57 0
10.1596 45.1881 -53.8818 0.675 -0.721 -0.158 198 188 59 0
22.7551 45.9062 -59.3807 0.069 -0.752 0.655 189 178 157 0
11.1674 10.8577 -43.8846 -0.608 -0.654 -0.450 186 180 166 0
24.5634 31.3748 -55.7284 0.092 -0.915 -0.392 185 177 161 0
20.5611 14.5743 -48.9511 0.110 -0.981 0.159 178 168 158 0
22.3506 13.7896 -49.4633 0.781 -0.550 0.296 174 164 152 0
31.7956 22.7039 -56.1289 0.209 -0.931 -0.299 173 156 146 0
36.2914 27.7952 -59.5592 -0.349 -0.861 -0.370 168 153 141 0
39.8311 31.9260 -62.2970 -0.007 -0.937 -0.348 165 148 133 0
40.1081 31.9710 -62.4268 -0.012 -0.940 -0.340 106 97 88 0
40.3844 32.0141 -62.5557 -0.012 -0.940 -0.340 51 50 50 0
40.5514 31.8838 -62.5862 -0.010 -0.911 -0.412 246 246 245 0
40.9262 32.0813 -62.8033 0.075 -0.887 -0.455 254 255 255 0
40.5337 30.6848 -62.2149 -0.240 -0.893 -0.382 255 255 254 0
-29.9843 46.8612 -37.8224 -0.465 -0.863 -0.195 220 210 201 0
-29.5870 50.1332 -38.9893 0.399 -0.897 -0.189 217 207 197 0
-29.1484 50.9357 -39.4187 -0.752 -0.641 0.152 213 203 193 0
-27.8221 45.1300 -38.2009 0.376 -0.756 0.535 172 134 131 0
-27.6072 45.1654 -38.3019 0.376 -0.756 0.535 167 121 122 0
-24.5232 33.9481 -36.1678 0.000 -0.870 0.493 128 51 64 0
-22.5835 29.3698 -35.5826 -0.139 -0.925 0.354 126 39 55 0
-22.3983 29.2599 -35.6268 -0.916 -0.328 -0.229 127 38 55 0
-19.7412 24.2621 -35.2145 -0.302 -0.933 0.195 122 36 47 0
-18.8542 25.8846 -36.0827 0.626 -0.598 -0.501 120 32 45 0
-18.1291 23.7266 -35.7275 -0.031 -0.948 -0.316 117 25 40 0
-17.9422 23.7467 -35.8121 -0.025 -0.952 -0.306 118 26 41 0
-14.5028 24.3758 -37.4481 -0.057 -0.988 0.142 106 23 35 0
-8.3116 23.7351 -39.8511 0.177 -0.966 0.190 88 16 29 0
-8.0456 24.1002 -40.0743 0.394 -0.907 -0.146 88 16 30 0
-7.8134 24.2910 -40.2301 0.199 -0.924 -0.327 87 16 30 0
-6.2296 26.2378 -41.4900 -0.104 -0.579 -0.808 79 16 25 0
1.8373 35.3045 -47.6474 -0.218 -0.966 -0.137 74 51 37 0
5.8353 38.2704 -50.2321 0.443 -0.657 -0.611 171 159 45 0
9.4426 44.6965 -53.7105 0.679 -0.729 -0.087 195 185 57 0
9.8973 45.3701 -54.1072 0.772 -0.620 -0.141 197 186 58 0
22.6727 45.8751 -59.6241 -0.164 -0.818 0.551 189 178 158 0
22.4310 33.4509 -55.7251 -0.761 -0.523 -0.384 188 178 166 0
20.1479 14.6446 -49.0186 -0.071 -0.994 0.082 180 170 160 0
20.8635 14.8514 -49.3822 -0.081 -0.996 -0.035 178 168 158 0
38.2814 31.5092 -61.7850 -0.523 -0.620 -0.584 169 155 142 0
36.2954 27.8845 -59.8434 -0.350 -0.858 -0.376 169 154 141 0
39.8487 32.0384 -62.6046 -0.012 -0.940 -0.340 165 148 134 0
40.4017 32.1249 -62.8631 -0.012 -0.940 -0.340 51 50 50 0
40.6648 32.1460 -62.9800 0.029 -0.898 -0.439 247 247 245 0
40.9914 32.2666 -63.1540 0.164 -0.882 -0.441 254 255 255 0
-67.0533 50.9743 -23.7750 0.120 -0.923 -0.365 255 255 255 0
-30.8269 52.2405 -39.3885 0.078 -0.973 0.217 227 217 213 0
-29.2336 50.3449 -39.4746 -0.665 -0.679 0.311 213 203 193 0
-28.7872 50.2467 -39.6319 -0.817 -0.577 -0.017 213 197 189 0
-27.9079 44.9979 -38.3859 0.343 -0.757 0.556 180 145 141 0
-27.6934 44.9990 -38.4764 0.376 -0.756 0.535 170 127 126 0
-26.1060 37.7227 -36.9038 -0.894 -0.247 -0.373 139 73 81 0
-25.5899 33.7904 -35.9104 -0.881 -0.453 -0.133 132 61 72 0
-24.6222 33.2663 -36.1557 -0.887 -0.449 0.107 129 52 65 0
-24.4361 32.9630 -36.1406 -0.889 -0.438 0.131 129 51 65 0
-20.4957 27.4232 -36.0913 -0.004 -0.719 -0.695 121 33 47 0
-20.3246 27.1798 -36.0883 -0.176 -0.766 -0.618 122 34 47 0
-19.8122 24.2305 -35.3958 -0.318 -0.928 0.193 123 36 49 0
-0.9843 28.9131 -44.7494 -0.028 -0.746 0.666 64 38 33 0
2.9117 35.4239 -48.3907 0.403 -0.759 -0.511 111 90 36 0
5.9123 38.7684 -50.6811 0.435 -0.658 -0.615 171 160 46 0
17.9878 12.5037 -47.6714 0.650 -0.604 0.461 183 172 163 0
20.5971 14.8207 -49.4811 0.524 -0.842 0.127 179 169 159 0
20.9329 15.0703 -49.6991 0.174 -0.984 0.026 178 168 158 0
20.8775 13.8421 -49.2978 0.084 -0.575 0.813 178 168 158 0
28.8335 20.8808 -54.8077 0.282 -0.950 0.133 176 162 153 0
38.1362 34.2382 -62.8284 -0.936 -0.350 0.044 174 157 147 0
38.3985 31.7865 -62.1840 -0.523 -0.620 -0.584 169 155 142 0
36.3200 28.0075 -60.1474 -0.350 -0.858 -0.376 170 154 141 0
39.9587 32.2990 -62.9974 -0.435 -0.862 -0.259 166 150 138 0
40.4190 32.2360 -63.1715 -0.012 -0.940 -0.340 51 50 51 0
40.5168 31.9948 -63.1384 0.042 -0.926 -0.376 247 247 245 0
40.9317 32.2551 -63.3928 0.125 -0.897 -0.423 254 255 255 0
40.2443 30.3927 -62.5307 -0.128 -0.925 -0.358 255 255 255 0
-67.1779 51.0567 -24.0037 0.118 -0.918 -0.379 255 255 255 0
-31.8850 46.9664 -37.5845 -0.764 -0.490 0.420 230 223 215 0
-31.6556 46.4464 -37.5199 -0.775 -0.508 0.377 229 223 217 0
-30.9185 52.2546 -39.6302 0.136 -0.961 0.243 227 219 212 0
-30.6869 51.9107 -39.6210 0.068 -0.965 0.254 224 215 208 0
-30.4676 52.2187 -39.8088 0.057 -0.993 0.106 222 213 206 0
-30.2392 52.0188 -39.8429 0.074 -0.969 0.237 221 212 204 0
-29.7644 50.0121 -39.4207 -0.237 -0.856 0.459 218 208 198 0
-29.5425 50.0187 -39.5161 -0.560 -0.558 0.613 216 206 196 0
-27.9933 44.9824 -38.6069 0.857 -0.467 0.218 189 157 152 0
-27.1685 41.1572 -37.7683 -0.985 -0.165 -0.050 158 100 107 0
-23.7781 31.7032 -36.2645 -0.643 -0.029 0.766 137 57 67 0
-19.7493 23.6012 -35.4484 -0.107 -0.913 0.394 122 34 48 0
-18.7279 26.7217 -36.8453 0.637 -0.601 -0.483 121 31 46 0
-13.0711 25.9961 -39.0003 0.439 -0.894 -0.086 99 19 32 0
6.0470 40.2590 -51.4645 -0.556 -0.606 -0.569 166 154 46 0
7.5331 38.9866 -51.6954 0.273 -0.847 0.457 194 185 58 0
13.8670 45.0862 -56.2507 -0.209 -0.866 -0.455 202 194 61 0
21.7166 32.1562 -55.5456 -0.665 -0.629 -0.403 192 180 168 0
27.8071 19.9522 -54.3255 -0.688 -0.725 -0.031 176 163 154 0
38.4934 35.3545 -63.5953 -0.907 -0.410 -0.095 174 159 148 0
38.0369 32.0929 -62.3924 -0.681 -0.514 -0.521 168 154 143 0
38.4219 31.9115 -62.4981 -0.684 -0.523 -0.509 168 154 141 0
40.4364 32.3475 -63.4808 -0.012 -0.940 -0.340 51 50 51 0
40.6385 32.2708 -63.5421 -0.028 -0.945 -0.325 247 247 245 0
40.9652 32.3910 -63.7168 -0.023 -0.949 -0.316 254 255 255 0
40.5350 30.9290 -63.0826 0.036 -0.941 -0.337 255 255 255 0
-67.2879 51.0907 -24.2240 0.118 -0.913 -0.391 255 255 255 0
-31.7390 46.3013 -37.7028 -0.615 -0.429 0.662 229 223 216 0
-30.7304 49.5062 -39.1278 -0.440 -0.723 0.532 223 214 208 0
-30.5401 51.1808 -39.7306 -0.170 -0.559 0.812 222 213 206 0
-29.6287 49.7260 -39.6605 -0.641 -0.630 0.438 216 206 197 0
-28.0791 44.6838 -38.7395 0.711 -0.640 0.293 200 170 165 0
-27.8645 44.8572 -38.8840 0.715 -0.643 0.274 172 134 133 0
-27.6481 45.2434 -39.0957 0.854 -0.485 0.188 168 123 125 0
-27.4318 45.3767 -39.2284 0.671 -0.737 0.083 166 116 119 0
-20.0083 23.5090 -35.5305 -0.459 -0.634 0.623 119 31 46 0
-18.5511 27.3327 -37.3376 0.866 -0.418 0.274 123 31 45 0
-13.4017 25.5140 -38.9390 0.867 -0.498 -0.017 101 21 34 0
-9.5430 24.3714 -40.2077 -0.326 -0.331 0.885 92 16 31 0
-2.0273 28.5924 -44.6908 -0.152 -0.825 0.544 62 29 32 0
-1.8527 28.4631 -44.7240 -0.112 -0.890 0.442 64 33 34 0
5.9821 40.2814 -51.7124 -0.679 -0.578 -0.453 167 154 47 0
13.3083 47.3501 -57.0044 -0.296 -0.377 0.878 208 201 62 0
13.7699 45.0137 -56.4697 -0.386 -0.826 -0.411 202 194 63 0
22.2978 45.4726 -60.2049 -0.087 -0.995 -0.043 191 180 162 0
21.7089 32.2707 -55.8366 -0.659 -0.631 -0.409 193 181 169 0
27.9226 38.7732 -60.4833 -0.194 -0.449 -0.872 186 176 164 0
29.2608 20.6500 -55.3908 0.496 -0.501 0.709 175 161 150 0
36.8438 29.4212 -61.3223 0.433 -0.831 -0.349 170 154 143 0
40.4577 32.4656 -63.7946 -0.000 -0.943 -0.334 50 50 49 0
40.7477 32.5275 -63.9361 -0.075 -0.942 -0.326 247 247 244 0
41.0002 32.5295 -64.0431 0.147 -0.973 -0.180 254 255 255 0
39.8380 29.9168 -62.7381 -0.342 -0.892 -0.295 255 255 255 0
-67.4171 51.1867 -24.4560 0.113 -0.920 -0.375 255 255 255 0
-31.8208 46.1077 -37.8708 -0.621 -0.426 0.658 229 222 216 0
-30.8197 49.4978 -39.3582 -0.458 -0.502 0.733 224 215 209 0
-29.9511 50.5768 -40.0636 -0.147 -0.877 0.457 219 209 200 0
-29.7113 49.1574 -39.7186 -0.690 -0.687 0.226 217 207 198 0
-28.8326 50.3269 -40.4567 -0.811 -0.582 -0.062 212 197 188 0
-28.5908 44.1838 -38.6283 0.690 -0.682 0.242 212 193 185 0
-28.3778 44.1363 -38.7032 0.855 -0.455 0.247 210 189 182 0
-28.1646 44.4318 -38.8859 0.852 -0.467 0.237 211 183 179 0
-27.9501 44.7914 -39.0894 0.851 -0.496 0.171 182 147 147 0
-27.7343 45.0974 -39.2765 0.851 -0.496 0.171 168 127 129 0
-27.5174 45.3799 -39.4567 0.850 -0.493 0.185 169 121 124 0
-25.8870 40.3030 -38.5489 0.767 -0.428 0.479 141 71 81 0
-24.6845 32.3384 -36.5532 -0.921 -0.277 0.272 133 55 69 0
-22.2312 27.2450 -35.9871 -0.512 -0.856 -0.071 128 39 56 0
-18.6572 26.9449 -37.3999 0.849 -0.468 0.244 122 30 44 0
-18.4524 27.0963 -37.5338 0.846 -0.478 0.237 124 30 46 0
-18.2513 27.2026 -37.6521 0.877 -0.437 0.197 123 31 46 0
-17.5027 25.2083 -37.3411 0.309 -0.951 -0.002 115 24 41 0
-16.7646 25.0609 -37.6060 -0.201 -0.808 -0.554 121 33 46 0
-16.5747 25.0710 -37.6892 0.042 -0.897 -0.440 121 33 47 0
-8.7771 26.7376 -41.5012 0.398 -0.418 0.817 89 17 31 0
-3.9900 27.5327 -43.7697 0.225 -0.972 -0.070 70 23 31 0
-3.9026 27.0365 -43.6506 -0.099 -0.990 -0.101 69 24 30 0
5.9661 40.4722 -52.0344 -0.734 -0.558 -0.388 167 154 49 0
8.0786 40.4478 -52.9175 -0.596 -0.749 0.289 195 185 62 0
8.1269 39.8437 -52.7480 0.112 -0.979 0.172 197 187 64 0
13.2342 45.8517 -56.7897 -0.575 -0.486 0.658 205 198 63 0
13.7755 45.2400 -56.8258 -0.389 -0.828 -0.405 202 194 64 0
14.0951 45.4418 -57.0240 0.270 -0.575 -0.772 200 191 60 0
14.8384 46.8577 -57.7823 0.339 -0.561 -0.755 198 191 59 0
22.3587 46.4169 -60.8151 -0.670 -0.621 0.407 189 178 160 0
29.1196 41.3698 -62.0801 -0.178 -0.452 -0.874 186 176 164 0
21.0626 14.4464 -50.2219 -0.078 -0.825 -0.560 178 168 157 0
21.2715 14.4585 -50.3138 -0.096 -0.824 -0.558 179 169 157 0
40.8922 36.9718 -65.6625 -0.787 -0.557 -0.265 170 155 145 0
40.4178 32.4862 -64.0529 -0.544 -0.788 -0.288 50 50 49 0
40.6461 32.4502 -64.1378 -0.543 -0.788 -0.290 246 246 244 0
40.9775 32.5769 -64.3174 0.147 -0.973 -0.180 254 255 255 0
39.8277 29.9812 -63.0168 -0.176 -0.928 -0.328 255 255 254 0
-67.5743 51.3733 -24.7055 0.074 -0.932 -0.354 255 255 255 0
-30.9050 49.2970 -39.5296 0.101 -0.758 0.644 226 215 211 0
-30.4561 48.8319 -39.5720 0.084 -0.809 0.581 222 213 206 0
-30.0213 49.1796 -39.8656 0.278 -0.725 0.630 218 207 201 0
-29.3855 52.1902 -41.0866 -0.316 -0.725 0.612 216 203 196 0
-29.1598 52.3101 -41.2198 -0.362 -0.689 0.627 213 200 192 0
-28.2498 44.1803 -39.0317 0.861 -0.444 0.248 210 185 181 0
-28.0359 44.5178 -39.2288 0.862 -0.444 0.244 196 164 164 0
-27.8208 44.8255 -39.4170 0.861 -0.447 0.241 174 136 139 0
-27.6042 45.1698 -39.6173 0.850 -0.493 0.185 166 123 126 0
-24.5558 32.6103 -36.9305 -0.954 -0.280 0.110 136 56 69 0
-22.3101 27.1134 -36.1394 -0.491 -0.824 0.282 130 44 57 0
-19.4979 26.8296 -37.2368 -0.879 -0.373 -0.295 120 31 43 0
-19.3470 26.3789 -37.1579 -0.872 -0.383 -0.304 121 32 43 0
-17.3409 25.6020 -37.7590 0.584 -0.772 0.250 113 25 39 0
-17.1790 25.3484 -37.7472 -0.250 -0.923 0.292 115 27 40 0
-17.0121 25.1464 -37.7537 -0.280 -0.922 0.269 115 27 40 0
-16.8120 25.2476 -37.8702 -0.567 -0.813 -0.137 116 28 42 0
-13.2099 26.4392 -39.7680 0.802 -0.586 0.118 99 19 33 0
-11.6574 24.0229 -39.6589 -0.090 -0.731 0.676 99 17 31 0
-9.6823 24.3259 -40.5886 -0.013 -0.573 0.819 91 14 30 0
-0.8973 28.6551 -45.6672 -0.511 -0.667 0.542 71 48 40 0
8.0476 39.8154 -52.9747 0.284 -0.922 0.264 197 187 62 0
8.7509 41.3100 -53.7445 -0.236 -0.939 0.249 198 189 62 0
21.4623 44.4009 -60.0890 -0.863 -0.424 -0.275 190 178 160 0
21.9776 44.4127 -60.3102 -0.858 -0.514 0.014 191 180 162 0
17.5177 28.2679 -53.3192 -0.742 -0.596 0.308 191 182 168 0
19.4229 30.5446 -54.8438 -0.025 -0.730 -0.684 192 183 168 0
17.3766 11.6838 -48.0124 0.692 -0.712 0.123 181 171 162 0
21.3388 14.6702 -50.6300 -0.167 -0.824 -0.542 179 169 156 0
28.1092 20.7291 -55.4054 -0.552 -0.828 0.094 173 163 152 0
40.2553 32.7126 -64.3248 -0.536 -0.789 -0.300 109 101 94 0
40.4229 32.5788 -64.3532 -0.551 -0.782 -0.289 50 50 49 0
40.6036 32.4665 -64.3940 -0.551 -0.782 -0.289 247 247 245 0
40.9233 32.5747 -64.5632 -0.046 -0.952 -0.303 254 255 255 0
39.9147 30.1985 -63.3856 -0.220 -0.908 -0.355 255 255 254 0
-67.6983 51.4506 -24.9352 0.074 -0.932 -0.354 255 255 255 0
-31.4389 49.4678 -39.6292 0.002 -0.755 0.655 228 218 213 0
-30.9827 48.7586 -39.5961 0.016 -0.766 0.642 225 214 210 0
-29.2488 52.0462 -41.3762 -0.235 -0.593 0.770 215 202 194 0
-28.7574 43.3032 -38.7988 0.792 -0.411 0.451 212 197 189 0
-28.5465 43.5554 -38.9683 0.794 -0.409 0.450 211 193 186 0
-28.3347 43.8828 -39.1621 0.871 -0.378 0.313 210 188 183 0
-28.1215 44.2515 -39.3697 0.825 -0.465 0.323 209 181 180 0
-27.9071 44.5115 -39.5431 0.825 -0.465 0.323 186 152 153 0
-27.6914 44.8242 -39.7339 0.858 -0.450 0.246 166 127 129 0
-27.4744 45.1388 -39.9258 0.848 -0.478 0.229 166 121 126 0
-25.3880 33.6198 -37.1382 -0.944 -0.322 0.073 137 59 74 0
-24.4065 33.4564 -37.5010 -0.907 -0.408 -0.104 135 55 67 0
-20.6708 24.7387 -36.3029 0.173 -0.873 -0.456 119 33 49 0
-20.4797 24.8142 -36.4077 0.169 -0.874 -0.456 117 32 48 0
-19.2590 26.0208 -37.3080 -0.809 -0.445 -0.384 117 30 40 0
-16.8479 25.5401 -38.1740 -0.517 -0.842 -0.153 114 26 40 0
-13.3182 26.1616 -39.8639 0.850 -0.522 0.071 96 18 32 0
-9.9951 24.0275 -40.5886 -0.028 -0.652 0.758 89 14 27 0
-8.4944 26.8406 -42.1190 0.194 -0.225 0.955 86 15 29 0
-1.6436 28.4319 -45.5216 -0.106 -0.748 0.655 65 39 36 0
5.5318 48.9707 -55.0971 0.628 -0.720 0.295 90 72 42 0
5.7026 48.6792 -55.0765 0.657 -0.704 0.271 98 79 44 0
8.3739 39.5783 -53.3064 -0.425 -0.884 0.194 199 190 62 0
13.0533 45.7486 -57.2498 -0.229 -0.929 -0.292 201 194 66 0
21.9075 32.5874 -56.7996 -0.572 -0.737 -0.360 190 181 166 0
26.1591 39.6808 -60.8562 0.541 -0.751 -0.378 194 182 168 0
21.6584 13.8575 -50.7277 -0.672 -0.179 0.718 179 168 156 0
28.5675 19.3498 -55.3976 0.429 -0.253 0.867 173 159 151 0
28.7021 19.2092 -55.4097 0.610 -0.329 0.721 174 159 151 0
39.4655 34.3854 -64.7936 -0.530 -0.821 0.212 173 156 148 0
39.7980 34.5142 -64.9751 -0.601 -0.774 0.198 170 156 146 0
37.8436 30.1137 -62.7472 0.686 -0.691 -0.226 168 154 141 0
40.2697 32.8208 -64.6350 -0.536 -0.789 -0.300 108 99 93 0
40.5082 32.7996 -64.7291 0.013 -0.939 -0.342 50 50 49 0
40.6273 32.5883 -64.7121 -0.547 -0.781 -0.303 247 247 245 0
41.0169 32.8067 -64.9464 0.295 -0.900 -0.321 254 255 255 0
39.6904 29.9268 -63.4683 -0.325 -0.867 -0.377 255 255 254 0
-67.7907 51.4251 -25.1458 0.172 -0.895 -0.412 255 255 255 0
-32.0002 43.4529 -37.7339 -0.019 -0.304 0.953 232 224 218 0
-31.2963 48.9736 -39.8023 -0.565 -0.576 0.591 227 218 211 0
-31.0671 48.5496 -39.7633 0.028 -0.765 0.643 226 216 211 0
-30.4089 48.5202 -40.0324 0.007 -0.540 0.842 220 214 206 0
-28.2068 43.7901 -39.4472 0.868 -0.386 0.311 212 186 185 0
-27.9932 44.1067 -39.6391 0.871 -0.390 0.297 199 168 169 0
-27.7782 44.4661 -39.8454 0.873 -0.394 0.289 170 133 137 0
-27.5614 44.8965 -40.0752 0.884 -0.391 0.258 165 124 129 0
-20.7320 24.8479 -36.5351 0.173 -0.873 -0.456 119 33 49 0
-20.5391 24.9450 -36.6479 0.173 -0.873 -0.456 116 32 47 0
-11.0323 25.1049 -40.7220 -0.516 -0.742 0.428 97 19 32 0
-10.9320 24.5560 -40.5884 -0.575 -0.746 0.337 98 19 32 0
-9.8412 25.2457 -41.2712 0.365 -0.405 0.838 90 17 29 0
-9.2470 24.2481 -41.2027 -0.801 -0.597 -0.041 86 16 29 0
-8.1897 26.7038 -42.4377 0.221 -0.428 0.876 87 17 28 0
-7.9067 27.1331 -42.6951 0.305 -0.389 0.869 87 17 28 0
-2.9194 29.4311 -45.5425 0.331 -0.782 -0.529 66 27 30 0
-1.1840 31.3641 -46.8968 0.536 -0.705 -0.465 65 37 36 0
-0.8168 31.9759 -47.2484 0.516 -0.706 -0.486 65 40 37 0
5.3882 49.6628 -55.5465 0.487 -0.493 0.721 83 67 49 0
5.5030 49.1546 -55.4321 0.578 -0.530 0.620 78 63 37 0
7.4300 36.7941 -52.2833 0.592 -0.648 0.479 198 189 63 0
12.1026 45.3620 -57.0084 -0.105 -0.593 0.798 202 194 66 0
12.6630 45.5482 -57.3053 0.224 -0.974 0.006 201 193 66 0
13.0648 46.0002 -57.6203 -0.189 -0.942 -0.276 200 194 68 0
13.3866 45.4703 -57.5865 -0.376 -0.787 -0.490 198 190 65 0
19.1884 33.4686 -56.1924 -0.676 -0.737 0.018 192 184 166 0
25.6631 39.2905 -60.7994 0.561 -0.747 -0.356 197 183 170 0
28.4811 32.5346 -59.8251 -0.542 -0.709 -0.451 182 172 162 0
34.7692 42.1331 -65.5643 0.131 -0.105 0.986 180 169 158 0
20.9621 14.5246 -50.8673 0.147 -0.941 0.304 180 169 157 0
21.5709 13.7836 -50.8873 -0.686 -0.194 0.701 176 166 156 0
21.5849 12.7176 -50.5513 -0.442 -0.156 0.884 176 163 154 0
27.7502 20.2775 -55.5848 0.600 -0.465 0.651 173 163 153 0
28.2736 18.9331 -55.3751 0.377 -0.280 0.883 175 159 152 0
38.7488 32.8849 -64.2823 -0.046 -0.683 0.729 169 155 145 0
39.6692 32.7497 -64.6283 -0.014 -0.938 -0.346 166 152 141 0
40.1185 33.0683 -64.9207 -0.739 -0.628 -0.241 167 153 141 0
40.2841 32.9294 -64.9462 -0.536 -0.789 -0.300 108 100 93 0
40.5271 32.9147 -65.0443 0.013 -0.939 -0.342 50 50 49 0
40.6432 32.6981 -65.0240 -0.547 -0.781 -0.303 247 247 245 0
41.0406 32.9284 -65.2660 0.295 -0.900 -0.321 254 255 255 0
39.7512 30.1035 -63.8144 -0.304 -0.876 -0.375 255 255 254 0
-67.9166 51.5075 -25.3771 0.172 -0.895 -0.412 255 255 255 0
-66.5264 50.8035 -25.7388 -0.745 -0.651 0.146 233 224 215 0
-66.2362 50.4878 -25.7598 -0.813 -0.535 0.230 233 224 215 0
-28.0787 43.7857 -39.7609 0.873 -0.388 0.295 211 182 182 0
-27.8644 44.1639 -39.9738 0.872 -0.392 0.293 188 154 157 0
-27.4304 45.0504 -40.4439 0.881 -0.391 0.268 163 116 122 0
-25.7121 34.8130 -37.8664 -0.934 -0.328 -0.143 142 68 82 0
-25.1646 33.0004 -37.5131 -0.922 -0.364 0.129 139 61 75 0
-24.7847 32.5815 -37.5388 -0.802 -0.345 0.487 138 58 71 0
-21.0614 26.4430 -37.1342 -0.183 -0.889 -0.421 119 36 50 0
-19.3760 24.1252 -37.0998 0.277 -0.801 -0.530 117 29 44 0
-18.3098 25.5445 -38.0098 -0.442 -0.821 0.362 120 27 45 0
-18.2098 24.6449 -37.7617 0.385 -0.903 0.191 119 27 45 0
-16.8716 23.1950 -37.8604 -0.204 -0.978 -0.052 110 27 39 0
-11.1339 24.8966 -40.8406 -0.428 -0.741 0.518 95 17 30 0
-10.9613 24.7735 -40.8740 -0.428 -0.741 0.518 95 17 29 0
-8.2310 26.8358 -42.6964 0.091 -0.192 0.977 86 16 26 0
-8.5475 24.1877 -41.7074 0.261 -0.733 0.628 86 17 28 0
5.1469 49.9972 -55.8422 0.528 -0.563 0.635 79 63 50 0
5.2652 49.4952 -55.7303 0.528 -0.559 0.640 77 64 48 0
8.4030 47.3135 -56.3551 0.023 -0.990 0.141 180 168 59 0
12.8811 45.6715 -57.7221 -0.530 -0.820 -0.215 199 193 68 0
13.1444 45.7096 -57.8459 -0.540 -0.818 -0.199 197 191 67 0
21.2220 44.9482 -61.0221 -0.788 -0.556 0.264 191 178 160 0
21.8402 43.9630 -60.9659 -0.735 -0.460 0.499 194 183 169 0
25.9702 39.5499 -61.2906 0.393 -0.890 -0.232 193 179 167 0
26.2636 39.6405 -61.4442 0.227 -0.897 -0.380 192 181 168 0
21.6641 12.9430 -50.8756 -0.344 -0.740 0.577 177 164 155 0
27.3928 19.7422 -55.4978 0.591 -0.414 0.692 173 163 153 0
29.9585 20.0072 -56.6703 0.620 -0.289 0.729 171 156 151 0
39.6621 32.8248 -64.9197 0.021 -0.931 -0.365 167 153 142 0
40.1001 33.1250 -65.2022 -0.733 -0.632 -0.251 168 153 141 0
40.3040 33.0471 -65.2634 -0.538 -0.793 -0.287 108 100 93 0
40.5460 33.0302 -65.3605 0.013 -0.939 -0.342 50 50 49 0
40.6837 32.8471 -65.3597 -0.552 -0.775 -0.307 247 247 245 0
41.0639 33.0495 -65.5861 0.301 -0.899 -0.318 254 255 255 0
-68.0586 51.6413 -25.6189 0.139 -0.915 -0.379 255 255 255 0
-66.3636 50.5812 -25.9932 -0.813 -0.535 0.230 234 225 216 0
-30.7861 47.5366 -40.0931 -0.111 -0.412 0.904 223 214 209 0
-30.3528 47.6798 -40.3234 -0.157 -0.601 0.784 221 211 207 0
-29.9887 53.0631 -42.2276 -0.501 -0.260 0.825 221 208 203 0
-29.7556 52.6377 -42.1882 -0.482 -0.262 0.836 219 206 200 0
-29.0636 51.3073 -42.0493 -0.146 -0.859 0.491 212 198 190 0
-28.1638 43.5470 -39.9085 0.872 -0.392 0.293 212 185 184 0
-27.9502 43.8746 -40.1055 0.872 -0.392 0.293 206 174 176 0
-27.5179 44.7407 -40.5704 0.878 -0.401 0.261 167 124 128 0
-27.2993 45.1582 -40.7989 0.855 -0.398 0.331 165 114 121 0
-27.0983 43.5300 -40.3549 -0.967 -0.222 -0.125 161 104 113 0
-23.3204 27.6894 -36.8083 -0.719 -0.652 -0.240 131 48 64 0
-18.5502 25.7308 -38.1949 -0.371 -0.565 0.737 118 26 43 0
-17.3509 24.5435 -38.3176 -0.006 -0.997 -0.075 109 22 36 0
-17.1634 24.5393 -38.3958 -0.116 -0.992 0.043 111 25 39 0
-16.9780 24.5145 -38.4663 -0.116 -0.992 0.043 110 27 39 0
-15.2167 24.9998 -39.3711 0.247 -0.953 -0.174 102 24 37 0
-15.0958 24.4627 -39.2478 0.122 -0.993 0.008 100 22 34 0
-11.3406 25.2186 -41.0862 -0.402 -0.644 0.651 95 16 29 0
-11.2033 24.8797 -41.0343 -0.368 -0.766 0.527 93 15 28 0
-3.8273 27.8963 -45.1432 0.170 -0.884 -0.434 68 27 33 0
2.5267 42.1104 -52.4583 0.665 -0.462 -0.587 77 59 49 0
4.9353 49.4921 -55.8792 0.525 -0.573 0.629 77 63 50 0
8.5742 47.3055 -56.7119 0.071 -0.996 0.062 182 169 64 0
7.1721 37.8939 -53.0580 0.261 -0.965 -0.025 194 183 63 0
12.8831 45.8959 -58.0812 -0.533 -0.827 -0.179 196 190 67 0
13.1573 45.9650 -58.2200 -0.331 -0.882 -0.335 195 189 67 0
21.5933 12.8989 -51.0500 -0.645 -0.684 0.341 176 163 155 0
33.6448 24.3061 -59.8693 0.221 -0.972 -0.085 169 155 144 0
39.6938 32.9628 -65.2486 0.015 -0.935 -0.355 167 153 142 0
40.1137 33.2334 -65.5147 -0.733 -0.632 -0.251 167 152 141 0
40.3096 33.1421 -65.5681 -0.171 -0.925 -0.339 107 99 93 0
40.5650 33.1461 -65.6777 0.013 -0.939 -0.342 50 50 50 0
40.6509 32.8797 -65.6276 -0.562 -0.775 -0.289 247 247 244 0
41.1322 33.2426 -65.9496 0.294 -0.918 -0.266 254 255 255 0
39.2854 29.5321 -63.9603 -0.355 -0.881 -0.313 255 255 255 0
-68.1766 51.6970 -25.8460 0.148 -0.912 -0.383 255 255 255 0
-30.1993 46.2098 -40.1765 -0.111 -0.648 0.754 223 210 207 0
-29.8394 52.0033 -42.2250 -0.481 -0.272 0.833 219 206 200 0
-29.1543 51.3151 -42.2907 -0.359 -0.665 0.654 212 200 193 0
-28.0357 43.6433 -40.2554 0.870 -0.392 0.301 212 184 185 0
-27.8211 44.0439 -40.4776 0.884 -0.391 0.258 200 169 170 0
-27.6049 44.4620 -40.7062 0.878 -0.401 0.261 174 135 138 0
-27.3871 44.8611 -40.9293 0.855 -0.398 0.331 167 121 126 0
-27.1786 44.0160 -40.7413 -0.973 -0.203 -0.107 162 109 116 0
-26.7825 41.3113 -40.0244 -0.978 -0.181 -0.100 158 96 105 0
-25.6677 34.8580 -38.3863 -0.946 -0.325 -0.018 143 67 82 0
-25.2837 34.2810 -38.3605 -0.627 -0.678 -0.383 140 63 77 0
-23.3818 27.9250 -37.0884 -0.704 -0.659 -0.264 128 47 61 0
-15.9677 24.0748 -38.9767 -0.072 -0.752 0.655 106 26 39 0
-15.1080 24.8919 -39.6091 -0.027 -1.000 -0.003 103 25 37 0
-14.5692 24.6452 -39.7572 -0.287 -0.954 0.086 98 21 36 0
-13.5067 25.3973 -40.4544 0.677 -0.732 0.078 96 19 37 0
-5.0220 27.4228 -44.7199 -0.273 -0.734 -0.622 71 24 34 0
-3.8471 28.0963 -45.4392 0.136 -0.820 -0.556 68 27 33 0
-1.5370 31.6233 -47.5741 0.166 -0.761 -0.627 70 42 41 0
2.9603 44.0799 -53.5597 0.645 -0.468 -0.604 79 62 53 0
5.0498 50.2298 -56.4593 0.769 -0.557 0.315 74 62 49 0
5.6943 47.9570 -55.9893 -0.355 -0.657 0.665 84 74 48 0
8.3640 47.6982 -57.0382 0.105 -0.990 0.094 178 166 67 0
8.5740 47.5617 -57.0827 0.134 -0.985 0.113 180 169 67 0
7.1975 38.2026 -53.4358 0.398 -0.898 0.189 194 183 68 0
11.9254 44.7364 -57.5813 0.099 -0.617 0.781 198 191 67 0
12.8466 46.0061 -58.3879 -0.559 -0.811 -0.175 194 188 64 0
27.4641 39.2557 -62.3860 0.273 -0.789 0.551 188 178 166 0
21.2979 12.8111 -51.1148 -0.205 -0.675 0.709 176 162 154 0
39.7152 33.0846 -65.5688 0.015 -0.935 -0.355 167 152 142 0
40.1273 33.3421 -65.8281 -0.733 -0.632 -0.251 166 151 142 0
40.3262 33.2549 -65.8840 -0.171 -0.925 -0.339 105 97 93 0
40.5840 33.2623 -65.9959 0.013 -0.939 -0.342 50 50 51 0
40.6847 33.0186 -65.9589 -0.479 -0.818 -0.317 247 247 245 0
41.0496 33.1962 -66.1719 0.026 -0.950 -0.312 254 255 255 0
40.6180 31.7148 -65.5040 -0.158 -0.920 -0.359 255 255 255 0
-68.3019 51.7755 -26.0780 0.166 -0.883 -0.438 255 255 255 0
-32.0263 40.1261 -37.6620 -0.015 -0.691 0.723 229 222 214 0
-31.4261 57.8879 -43.7676 0.102 -0.875 -0.474 226 217 212 0
-31.2001 58.3389 -44.0122 0.105 -0.893 -0.438 224 213 209 0
-29.2428 51.0453 -42.4419 -0.366 -0.466 0.806 211 200 195 0
-27.9070 43.7618 -40.6107 0.884 -0.391 0.258 208 180 179 0
-27.2591 44.5753 -41.1541 0.767 -0.559 0.314 161 113 118 0
-27.0558 43.3186 -40.8266 -0.985 -0.169 -0.045 160 106 114 0
-26.4916 38.2282 -39.3897 -0.933 -0.326 -0.156 155 84 95 0
-26.1128 36.5539 -38.9993 -0.940 -0.321 -0.119 147 77 88 0
-25.9329 35.4608 -38.7158 -0.955 -0.296 -0.032 143 71 85 0
-25.3637 34.1847 -38.5374 -0.664 -0.725 -0.182 139 64 77 0
-25.1736 33.8721 -38.5152 -0.909 -0.406 -0.090 140 64 77 0
-22.5893 29.9555 -38.3238 -0.485 -0.484 -0.728 127 44 59 0
-20.5483 26.0555 -37.9069 -0.706 -0.638 0.308 115 34 46 0
-19.5771 24.1808 -37.7022 0.459 -0.714 -0.529 119 31 45 0
-16.0355 24.0730 -39.1723 -0.186 -0.756 0.628 105 25 36 0
-14.9811 24.9238 -39.9008 -0.097 -0.916 0.388 100 22 34 0
-14.7713 25.0679 -40.0374 -0.088 -0.823 0.561 99 22 35 0
-14.5779 25.0844 -40.1251 -0.103 -0.833 0.543 97 20 35 0
-14.3410 25.4194 -40.3361 0.423 -0.621 0.660 98 22 37 0
-14.1998 25.0484 -40.2739 0.313 -0.947 0.068 96 21 37 0
-14.0633 24.6535 -40.2019 0.268 -0.936 0.227 97 20 38 0
-12.9216 25.8939 -41.0958 0.681 -0.728 0.082 99 21 35 0
-1.5282 31.9373 -47.9298 0.196 -0.752 -0.629 71 44 43 0
-1.3671 31.7218 -47.9273 0.110 -0.745 -0.658 71 45 44 0
5.6124 47.9407 -56.2366 -0.581 -0.732 0.357 81 72 51 0
5.7427 47.5075 -56.1493 -0.305 -0.586 0.751 102 90 58 0
6.5472 46.8366 -56.2703 -0.266 -0.828 0.494 149 132 65 0
8.2514 47.5745 -57.2378 -0.362 -0.860 0.358 176 165 68 0
8.5030 47.5792 -57.3463 -0.169 -0.926 0.338 178 167 68 0
8.6804 47.3332 -57.3407 -0.132 -0.886 0.444 183 171 69 0
29.3622 44.4482 -65.1824 0.638 -0.724 -0.262 186 176 167 0
12.2675 6.9080 -45.5504 0.545 -0.809 0.221 186 176 165 0
19.1530 9.3572 -49.2841 -0.330 -0.853 0.404 180 166 157 0
21.1808 12.6830 -51.2416 -0.661 -0.602 0.448 178 164 155 0
21.3547 12.6352 -51.2998 -0.574 -0.538 0.618 177 164 155 0
30.4228 26.4911 -59.7186 0.244 -0.196 0.950 172 161 154 0
30.5030 21.5312 -58.1190 -0.501 -0.427 0.753 172 157 148 0
34.2231 26.1885 -61.2344 0.591 -0.740 -0.322 167 154 145 0
39.7367 33.2067 -65.8900 0.015 -0.935 -0.355 168 151 144 0
40.1410 33.4512 -66.1424 -0.733 -0.632 -0.251 166 150 143 0
40.3428 33.3681 -66.2008 -0.171 -0.925 -0.339 105 97 94 0
40.6031 33.3789 -66.3150 0.013 -0.939 -0.342 50 50 52 0
40.6844 33.1035 -66.2589 -0.479 -0.818 -0.317 247 247 246 0
41.1744 33.4796 -66.5911 0.314 -0.916 -0.249 254 255 255 0
40.7562 32.0157 -65.9311 -0.144 -0.931 -0.335 255 255 254 0
-68.4160 51.8175 -26.3032 0.182 -0.881 -0.437 255 255 255 0
-32.1079 40.0664 -37.8598 -0.367 -0.764 0.531 229 222 214 0
-29.3350 51.2307 -42.7415 -0.403 -0.601 0.690 212 201 197 0
-27.7778 43.9022 -40.9744 0.781 -0.604 0.159 198 168 167 0
-27.3453 44.4699 -41.3468 0.784 -0.595 0.179 165 120 123 0
-27.1286 44.6054 -41.4839 0.755 -0.600 0.263 163 111 118 0
-26.9366 42.4057 -40.8363 -0.964 -0.202 -0.171 162 103 112 0
-25.4317 34.5645 -38.8770 -0.674 -0.712 -0.197 138 67 79 0
-25.2284 34.7085 -39.0113 -0.960 -0.278 -0.041 139 66 78 0
-25.0506 33.9396 -38.8320 -0.970 -0.242 0.000 143 66 78 0
-24.8742 33.2084 -38.6647 -0.935 -0.336 -0.111 151 72 85 0
-23.9797 30.8101 -38.2502 -0.605 -0.532 0.593 133 53 64 0
-23.5749 31.1984 -38.5513 0.563 -0.777 -0.283 130 50 63 0
-23.1527 31.8823 -38.9577 0.474 -0.689 -0.548 128 48 61 0
-22.4246 30.7881 -38.9048 -0.398 -0.489 -0.776 125 42 57 0
-20.6043 26.2495 -38.1747 -0.748 -0.605 0.272 115 35 47 0
