ply
format ascii 1.0
element vertex 820
property float x
property float y
property float z
property float nx
property float ny
property float nz
property uchar diffuse_red
property uchar diffuse_green
property uchar diffuse_blue
property uchar class
end_header
36.3794 31.6281 -61.7232 0.702 -0.612 0.364 172 158 149 0
32.6904 25.3279 -58.1962 0.187 -0.973 -0.138 173 159 148 0
33.2041 25.3966 -58.4424 0.296 -0.950 0.094 170 156 144 0
41.9252 37.9805 -66.0811 0.206 -0.232 0.951 169 155 145 0
-66.7057 56.2946 -24.2004 -0.164 -0.957 -0.241 235 224 218 0
-32.1993 28.7240 -30.9610 0.183 -0.883 -0.433 232 225 217 0
-31.4238 46.6648 -36.7723 -0.748 -0.601 -0.282 228 221 213 0
-28.8113 50.6273 -39.1288 -0.656 -0.714 -0.245 212 199 191 0
-27.9599 48.9454 -38.9903 -0.964 -0.205 -0.172 184 157 152 0
-27.7658 47.8369 -38.7376 -0.967 -0.192 -0.168 168 132 131 0
-25.8711 35.7532 -35.8858 -0.968 -0.246 -0.052 137 67 78 0
-25.0960 31.4889 -34.9263 -0.567 -0.742 0.358 132 55 71 0
-24.9080 31.4271 -34.9901 -0.507 -0.750 0.424 128 52 65 0
-20.6653 25.3601 -35.0050 -0.438 -0.896 0.073 118 32 44 0
-20.4801 25.3669 -35.0885 -0.329 -0.938 0.111 119 32 45 0
-20.3023 25.2978 -35.1456 -0.329 -0.938 0.111 120 32 47 0
-18.2631 23.7622 -35.5737 -0.140 -0.956 -0.257 119 30 46 0
-18.0789 23.7647 -35.6554 -0.144 -0.954 -0.263 116 26 42 0
-17.8996 23.7267 -35.7227 -0.299 -0.935 -0.190 117 27 43 0
-17.4987 23.9733 -35.9741 -0.074 -0.980 -0.186 113 22 38 0
-14.1879 21.4666 -36.6650 0.027 -0.988 0.153 99 18 33 0
-13.8604 21.2340 -36.7380 0.075 -0.982 0.172 95 17 30 0
-12.7325 23.4210 -37.9006 -0.886 -0.416 -0.206 95 17 30 0
-12.1435 23.5473 -38.1980 -0.552 -0.254 0.794 93 16 32 0
-12.0433 23.0717 -38.0971 -0.581 -0.612 0.537 93 16 31 0
-11.8817 22.9301 -38.1249 -0.578 -0.614 0.538 92 14 28 0
-10.9761 25.6721 -39.3591 -0.177 -0.547 0.818 94 15 29 0
-11.0618 24.2367 -38.8837 -0.492 -0.641 0.589 95 17 30 0
-10.9411 23.8776 -38.8273 -0.192 -0.894 0.405 97 20 32 0
-9.1816 23.1532 -39.3798 -0.074 -0.816 0.573 89 16 27 0
-9.0019 23.1007 -39.4428 -0.062 -0.812 0.581 89 16 27 0
-8.7891 23.1988 -39.5662 -0.027 -0.966 0.256 88 16 26 0
-8.6086 23.1484 -39.6302 0.687 -0.711 -0.154 89 18 28 0
-8.3576 23.4140 -39.8215 0.676 -0.719 -0.165 86 18 27 0
-7.9196 23.6474 -40.0852 0.619 -0.783 0.065 83 15 26 0
-3.6439 27.3567 -43.0956 0.648 -0.729 -0.219 67 23 28 0
-1.1533 30.4547 -45.1350 -0.282 -0.870 -0.405 64 33 31 0
-0.9426 30.4531 -45.2271 -0.123 -0.896 -0.427 66 34 32 0
1.2150 34.2601 -47.3363 0.209 -0.962 -0.177 72 50 38 0
14.9322 49.2084 -57.9237 -0.631 -0.643 0.434 201 194 65 0
14.5838 47.5488 -57.2645 -0.623 -0.751 -0.221 200 193 63 0
13.8760 44.9301 -56.1549 -0.137 -0.991 0.007 199 192 62 0
22.9291 47.6525 -60.9643 -0.935 -0.311 0.168 188 180 158 0
27.0440 37.3004 -59.6165 0.401 -0.694 -0.598 186 178 165 0
34.4500 29.7989 -60.5845 0.671 -0.505 0.543 176 162 152 0
32.7651 25.5328 -58.5431 0.208 -0.967 -0.145 174 158 149 0
33.1085 25.7046 -58.7464 0.088 -0.995 0.046 172 157 147 0
33.1224 25.3511 -58.6447 0.296 -0.950 0.094 172 156 146 0
-66.8068 55.5625 -24.1961 -0.056 -0.941 -0.333 234 224 216 0
-66.6526 55.7224 -24.3130 -0.118 -0.956 -0.269 234 223 217 0
-66.6757 56.5339 -24.5520 -0.179 -0.936 -0.304 235 223 217 0
-30.4489 48.1972 -37.9351 -0.417 -0.838 0.351 224 213 209 0
-29.9882 54.9087 -40.1988 0.272 -0.940 -0.206 222 211 207 0
-29.7516 56.3523 -40.7462 0.776 -0.621 0.115 220 209 205 0
-28.9004 50.8084 -39.4185 -0.656 -0.714 -0.245 211 199 191 0
-28.5799 57.4847 -41.6096 -0.996 -0.081 -0.037 210 197 188 0
-26.1637 35.3789 -35.8849 -0.823 -0.422 -0.381 141 70 83 0
-25.1742 31.4570 -35.1161 -0.567 -0.742 0.358 131 54 70 0
-20.7630 25.0843 -35.1005 -0.306 -0.894 0.328 118 31 42 0
-20.5383 25.4950 -35.3255 -0.402 -0.903 0.149 120 32 45 0
-20.3252 25.7733 -35.5048 -0.239 -0.968 -0.076 121 33 47 0
-19.7921 25.5420 -35.6684 -0.300 -0.946 -0.119 118 28 45 0
-18.3240 23.8288 -35.7884 -0.140 -0.956 -0.257 121 29 45 0
-18.1393 23.8333 -35.8710 -0.144 -0.954 -0.263 116 24 39 0
-17.5619 24.0175 -36.1817 -0.074 -0.980 -0.186 116 24 38 0
-13.9674 23.1787 -37.5061 -0.091 -0.975 -0.203 101 20 35 0
-13.9554 21.0648 -36.8622 0.125 -0.977 0.171 97 19 33 0
-12.2391 23.3933 -38.3326 -0.523 -0.256 0.813 92 15 30 0
-11.9595 22.8711 -38.2952 -0.570 -0.618 0.541 94 15 29 0
-11.1246 25.2555 -39.3949 -0.211 -0.602 0.770 95 16 29 0
-9.7230 23.6172 -39.5086 0.124 -0.964 0.235 91 15 27 0
-8.6812 23.1182 -39.8139 0.687 -0.711 -0.154 89 21 30 0
-8.4551 23.2724 -39.9607 0.609 -0.765 -0.211 86 19 28 0
-3.7140 27.3467 -43.2984 0.577 -0.803 -0.148 66 25 30 0
-2.5053 27.2889 -43.8125 -0.618 -0.661 0.426 64 30 30 0
-1.1502 30.7158 -45.4612 -0.083 -0.912 -0.403 64 33 31 0
-0.4338 31.7609 -46.0974 -0.101 -0.989 -0.110 66 38 33 0
1.1514 34.2858 -47.5703 0.199 -0.964 -0.178 72 53 38 0
15.0133 49.6454 -58.3873 -0.694 -0.602 0.395 200 193 63 0
21.6492 47.9114 -60.7752 0.292 -0.805 0.516 181 171 135 0
10.3581 10.5743 -44.3410 0.547 -0.713 -0.439 192 183 168 0
26.7638 37.8633 -59.9407 -0.079 -0.943 -0.323 189 179 169 0
27.3861 38.0999 -60.2871 0.386 -0.693 -0.609 186 178 165 0
34.2215 29.5185 -60.6603 0.714 -0.555 0.427 175 161 150 0
33.1761 25.1467 -58.8578 0.103 -0.988 -0.111 173 156 148 0
-66.9192 55.5947 -24.4201 -0.108 -0.944 -0.313 234 224 216 0
-66.7787 55.8039 -24.5467 -0.118 -0.956 -0.269 234 223 217 0
-30.3291 45.0009 -37.2669 -0.234 -0.860 0.453 222 212 209 0
-29.2010 51.9984 -39.9278 -0.569 -0.811 0.140 212 201 196 0
-28.9895 51.0123 -39.7161 -0.672 -0.740 0.032 211 199 191 0
-28.7636 51.2846 -39.8998 -0.695 -0.706 -0.136 211 198 189 0
-24.2884 31.5239 -35.7612 -0.702 -0.456 0.547 127 47 60 0
-24.1971 29.8443 -35.2821 -0.537 -0.798 -0.275 131 48 62 0
-20.6195 25.3913 -35.4815 -0.297 -0.918 -0.263 121 33 45 0
-19.8630 25.5415 -35.8613 -0.266 -0.960 -0.092 120 32 48 0
-16.0649 23.2872 -36.8377 -0.320 -0.824 -0.468 111 23 37 0
-12.2068 22.9113 -38.4215 -0.469 -0.482 0.740 96 18 32 0
-11.1033 23.7345 -39.1623 -0.237 -0.940 0.246 101 21 33 0
-9.8006 23.5646 -39.6838 0.124 -0.964 0.235 91 15 27 0
4.1299 37.0130 -49.9805 0.261 -0.716 -0.648 152 135 43 0
9.3065 45.0801 -54.7561 0.427 -0.796 -0.429 193 183 60 0
14.4891 45.6348 -57.2112 0.701 -0.713 -0.030 195 187 63 0
14.8052 45.8054 -57.4032 0.509 -0.831 -0.225 193 185 61 0
15.0898 45.8897 -57.5547 -0.053 -0.992 -0.111 192 184 60 0
17.7299 44.2127 -58.1994 0.430 -0.718 -0.548 157 152 69 0
21.6403 41.5170 -59.0889 -0.663 -0.575 -0.480 190 182 162 0
23.4326 40.4679 -59.5542 -0.484 -0.874 -0.047 192 182 170 0
10.4278 10.8283 -44.6587 0.544 -0.714 -0.440 192 183 168 0
22.3291 17.5676 -51.9867 0.490 -0.644 0.588 181 169 158 0
22.5626 17.6054 -52.1012 0.442 -0.551 0.708 181 168 159 0
29.2685 22.2855 -56.5033 0.002 -0.549 0.836 176 164 152 0
34.7725 29.3152 -61.1022 -0.616 -0.448 0.648 171 158 146 0
34.9034 29.1332 -61.1037 -0.616 -0.448 0.648 174 157 149 0
34.8182 28.6069 -60.9034 -0.510 -0.739 0.440 174 157 149 0
33.3424 25.1208 -59.1751 0.656 -0.711 0.252 172 155 147 0
-67.0460 55.6781 -24.6541 -0.115 -0.946 -0.302 234 223 216 0
-66.7203 55.9367 -24.8783 -0.079 -0.953 -0.291 236 224 219 0
-30.1790 54.5728 -40.5746 0.852 -0.427 0.303 221 212 208 0
-29.4989 54.2475 -40.7733 0.800 -0.377 0.467 214 203 199 0
-29.2923 52.1303 -40.2052 -0.598 -0.785 0.162 213 202 197 0
-29.0690 52.0802 -40.2882 -0.599 -0.780 0.181 213 201 193 0
-28.8498 51.7135 -40.2706 -0.798 -0.602 0.001 212 198 191 0
-28.6307 51.4224 -40.2767 -0.798 -0.603 0.008 210 195 187 0
-28.3210 56.5501 -42.0100 -0.998 -0.056 -0.037 206 191 182 0
-28.1961 50.7708 -40.2655 -0.739 -0.669 0.077 206 187 178 0
-26.6302 37.9057 -36.9504 -0.811 -0.492 -0.318 148 80 91 0
-26.2378 37.6236 -37.0356 -0.946 -0.253 -0.204 142 72 85 0
-19.9443 25.4424 -36.0191 -0.359 -0.743 0.564 119 31 45 0
-19.7659 25.3735 -36.0764 -0.496 -0.834 0.241 121 33 49 0
-19.0564 25.0705 -36.2951 -0.721 -0.585 -0.371 120 26 42 0
-16.2442 23.8035 -37.1412 -0.105 -0.992 -0.073 114 28 41 0
-16.0939 23.5569 -37.1307 -0.057 -0.969 0.241 114 28 41 0
-15.9729 23.1163 -37.0469 0.152 -0.954 0.258 111 24 37 0
-13.6887 23.4106 -38.1462 -0.189 -0.976 -0.105 98 20 34 0
-13.2640 24.7896 -38.7630 -0.091 -0.857 0.507 96 18 32 0
-11.1762 23.7047 -39.3463 -0.237 -0.940 0.246 98 20 33 0
-9.8023 23.8764 -40.0058 -0.225 -0.954 0.198 92 16 28 0
-4.0841 26.4379 -43.3261 0.386 -0.863 -0.327 66 25 30 0
-3.8071 26.7261 -43.5381 0.453 -0.853 -0.260 66 27 32 0
-1.4227 31.0007 -45.9211 0.227 -0.913 -0.339 64 34 31 0
-1.1852 31.0921 -46.0543 0.222 -0.913 -0.342 65 36 32 0
-0.2470 32.1598 -46.8007 0.542 -0.822 -0.176 70 45 36 0
9.3404 46.1713 -55.3933 -0.474 -0.618 -0.627 191 180 62 0
9.2830 45.2410 -55.0783 0.427 -0.796 -0.429 192 182 61 0
10.8608 42.6574 -54.9699 0.218 -0.931 -0.291 200 193 60 0
10.9847 42.3157 -54.9181 0.204 -0.911 -0.358 201 195 62 0
14.2769 45.2647 -57.2889 0.600 -0.800 0.013 193 186 62 0
14.7414 45.8362 -57.6717 0.618 -0.783 -0.072 192 183 62 0
13.6599 40.9699 -55.6793 0.620 -0.565 -0.545 184 179 58 0
22.3581 38.2974 -58.6845 -0.807 -0.572 0.150 194 182 170 0
11.1905 9.0150 -44.6396 0.018 -0.214 0.977 189 180 165 0
23.1181 25.5059 -55.0368 -0.213 -0.841 -0.498 183 174 164 0
23.5589 25.4830 -55.2241 -0.250 -0.858 -0.449 183 173 164 0
21.6924 16.9043 -51.7294 0.512 -0.781 0.356 181 169 157 0
34.7864 29.0344 -61.2832 -0.616 -0.448 0.648 171 156 148 0
-67.0122 55.8973 -25.0022 -0.088 -0.939 -0.331 234 223 219 0
-53.2347 37.6923 -25.3798 0.197 -0.964 -0.176 231 224 218 0
-47.2085 31.4310 -26.0784 0.183 -0.478 0.859 232 227 223 0
-29.4046 49.9931 -39.7627 0.027 -0.994 0.108 214 203 197 0
-29.1846 49.9715 -39.8531 -0.255 -0.965 -0.060 214 202 194 0
-28.9489 51.1881 -40.3387 -0.770 -0.607 0.196 213 200 192 0
-28.7237 51.3564 -40.4909 -0.741 -0.669 0.063 211 197 189 0
-28.2864 50.8408 -40.5224 -0.739 -0.669 0.077 208 189 180 0
-28.0720 50.4196 -40.4851 -0.732 -0.639 0.237 207 179 173 0
-27.8544 50.2049 -40.5138 -0.730 -0.641 0.236 184 148 146 0
-26.4974 38.2727 -37.3720 -0.981 -0.179 -0.082 146 78 92 0
-26.3069 37.9551 -37.3565 -0.972 -0.197 -0.125 143 73 87 0
-24.4539 31.3034 -36.0894 -0.379 -0.786 0.488 133 50 65 0
-24.3391 29.9889 -35.7280 -0.567 -0.798 -0.205 131 47 62 0
-23.4052 29.7378 -36.0618 -0.424 -0.793 0.438 137 48 66 0
-20.3728 25.5756 -36.0962 -0.372 -0.872 0.318 120 32 46 0
-20.1952 25.4966 -36.1498 -0.321 -0.861 0.394 119 31 45 0
-20.0211 25.3856 -36.1920 -0.306 -0.879 0.366 118 30 44 0
-19.8493 25.2544 -36.2267 -0.481 -0.807 0.341 119 31 45 0
-16.3012 23.8850 -37.3646 -0.042 -0.994 0.097 109 26 39 0
-13.6956 23.7694 -38.4793 -0.025 -0.999 -0.026 99 22 38 0
-13.3567 24.6481 -38.9045 -0.079 -0.858 0.508 97 19 35 0
-11.6951 24.3382 -39.5412 -0.233 -0.954 0.191 94 19 31 0
-11.2438 23.7021 -39.5411 -0.240 -0.959 0.154 96 21 32 0
-9.5735 23.4547 -40.2014 -0.749 -0.644 -0.154 88 15 26 0
-0.0227 33.2110 -47.4791 0.588 -0.704 -0.399 71 46 38 0
2.0811 36.7073 -49.5046 -0.219 -0.601 -0.769 86 68 42 0
3.1895 35.1440 -49.5041 -0.223 -0.896 -0.385 144 128 45 0
4.0086 35.6167 -50.0141 -0.456 -0.850 -0.263 160 145 49 0
4.1675 35.4033 -50.0174 0.123 -0.902 -0.413 167 151 50 0
10.7561 42.5698 -55.1746 0.527 -0.803 -0.280 200 193 61 0
13.5993 46.3789 -57.6248 0.173 -0.752 0.635 198 192 65 0
13.7193 41.3174 -56.0908 0.638 -0.564 -0.525 180 176 57 0
11.8616 12.8524 -46.3452 0.602 -0.745 -0.289 192 182 170 0
20.2365 25.2591 -53.9346 0.223 -0.928 -0.300 186 180 166 0
23.3217 25.5704 -55.3949 -0.188 -0.911 -0.367 182 172 163 0
35.4557 31.8050 -62.7095 -0.619 -0.421 -0.664 173 159 150 0
35.2212 29.4281 -61.8606 -0.054 -0.931 0.360 171 157 148 0
33.0768 24.8681 -59.4837 0.680 -0.709 0.186 169 155 146 0
33.5207 25.1968 -59.7828 0.677 -0.711 0.191 168 154 145 0
-67.8986 59.4520 -25.9976 -0.404 -0.833 -0.379 236 224 221 0
-29.4895 50.7542 -40.2382 -0.039 -0.996 0.080 213 202 196 0
-29.0449 50.8526 -40.4659 -0.748 -0.661 0.068 210 200 191 0
-28.8220 50.9111 -40.5830 -0.577 -0.813 0.077 210 197 189 0
-28.5952 51.1883 -40.7708 -0.741 -0.669 0.064 208 195 185 0
-28.3770 50.9037 -40.7775 -0.736 -0.673 0.069 207 190 180 0
-28.1578 50.7071 -40.8123 -0.666 -0.743 -0.057 208 184 176 0
-27.9391 50.5138 -40.8480 -0.666 -0.743 -0.057 193 162 159 0
-27.7195 50.3825 -40.9037 -0.618 -0.785 -0.048 172 135 133 0
-27.5997 46.1397 -39.6172 -0.990 -0.120 -0.070 166 124 125 0
-24.8885 31.7880 -36.2853 -0.603 -0.778 0.178 130 52 64 0
-24.7141 31.4544 -36.2571 0.004 -1.000 -0.029 133 52 67 0
-24.3438 31.2088 -36.3433 -0.744 -0.575 0.339 132 48 64 0
-23.3053 29.5149 -36.2678 -0.529 -0.764 0.369 141 53 70 0
-23.1241 29.3887 -36.3081 -0.540 -0.761 0.360 129 40 58 0
-20.2782 25.3796 -36.3011 -0.527 -0.849 -0.031 120 32 46 0
-20.0993 25.3155 -36.3599 -0.301 -0.880 0.368 118 30 44 0
-19.9253 25.2049 -36.4020 -0.329 -0.875 0.355 117 29 43 0
-19.7684 24.9367 -36.3867 -0.233 -0.888 0.397 119 30 44 0
-19.4268 24.6749 -36.4551 -0.433 -0.881 0.190 119 27 42 0
-19.2726 24.4005 -36.4367 -0.192 -0.950 0.248 118 27 42 0
-16.1792 25.2263 -38.0654 -0.542 -0.747 -0.384 107 26 38 0
-16.2681 23.2984 -37.4175 0.053 -0.979 0.199 105 23 35 0
-15.7290 23.1779 -37.6178 -0.224 -0.930 0.292 102 20 32 0
-15.2025 24.1859 -38.1689 -0.233 -0.821 0.521 101 19 33 0
-11.5778 24.3045 -39.8094 -0.434 -0.869 0.239 93 20 31 0
-11.4784 23.8230 -39.7014 -0.485 -0.845 0.224 93 20 31 0
-11.3052 23.7321 -39.7493 -0.299 -0.951 0.082 98 24 35 0
-9.6681 24.2386 -40.6332 -0.332 -0.548 0.767 90 18 29 0
-9.4496 23.4481 -40.4802 -0.390 -0.831 -0.397 88 18 28 0
-5.5977 27.3900 -43.4283 0.812 -0.557 0.175 73 21 27 0
-0.1832 33.6713 -47.8059 -0.601 -0.794 -0.096 70 44 37 0
6.4504 49.4531 -55.7221 -0.578 -0.634 -0.514 114 97 48 0
3.2876 35.7019 -49.9820 -0.146 -0.947 -0.285 144 128 45 0
3.5112 35.6967 -50.0792 -0.146 -0.947 -0.285 150 135 46 0
3.7537 35.7525 -50.2041 -0.145 -0.970 -0.196 155 140 47 0
4.2087 35.7635 -50.4087 -0.191 -0.966 -0.177 166 151 50 0
4.3339 35.4417 -50.3625 0.116 -0.926 -0.360 170 157 52 0
13.4630 43.4653 -56.9330 0.582 -0.812 -0.037 187 183 63 0
21.2616 41.7050 -59.8263 -0.808 -0.495 0.319 192 183 168 0
11.6903 11.4033 -46.0268 0.179 -0.648 0.740 190 182 170 0
20.5657 25.5843 -54.4291 0.319 -0.818 -0.479 185 179 165 0
18.9348 9.4189 -48.6043 -0.552 -0.797 -0.246 177 164 155 0
35.9653 30.7090 -62.8575 -0.587 -0.475 -0.655 171 157 148 0
32.5484 24.1148 -59.2645 0.694 -0.477 0.539 168 155 146 0
32.9113 24.3187 -59.4894 0.671 -0.473 0.571 166 153 144 0
-67.9411 59.2194 -26.1776 -0.558 -0.809 -0.186 236 224 221 0
-29.3650 50.2088 -40.3948 -0.050 -0.994 -0.093 213 204 196 0
-28.9135 50.9430 -40.8281 -0.577 -0.802 0.157 211 198 189 0
-28.6943 50.7071 -40.8502 -0.589 -0.799 0.120 209 196 186 0
-28.4691 50.8796 -41.0047 -0.650 -0.760 -0.003 207 191 180 0
-28.2484 50.7640 -41.0657 -0.686 -0.718 -0.119 208 186 178 0
-28.0283 50.6235 -41.1185 -0.680 -0.722 -0.129 207 179 175 0
-27.8097 50.4295 -41.1536 -0.685 -0.720 -0.111 179 145 143 0
-27.6678 46.9918 -40.1237 -0.988 -0.127 -0.083 168 128 128 0
-27.4944 45.2754 -39.6549 -0.985 -0.134 -0.105 163 117 120 0
-27.3396 43.0866 -39.0277 -0.977 -0.140 -0.159 161 106 112 0
-24.5900 31.6071 -36.5961 -0.380 -0.911 0.160 134 53 68 0
-24.4114 31.3621 -36.5974 -0.256 -0.863 0.436 133 50 65 0
-24.2016 31.6571 -36.7841 -0.344 -0.619 0.706 133 51 65 0
-22.2369 27.1497 -36.2212 -0.500 -0.866 0.014 127 39 55 0
-22.0586 27.0449 -36.2669 -0.500 -0.866 0.008 128 39 55 0
-20.1562 25.4520 -36.6029 -0.483 -0.873 -0.063 118 30 44 0
-19.9714 25.4413 -36.6813 -0.527 -0.848 -0.062 116 28 43 0
-19.8366 24.9597 -36.5879 -0.529 -0.790 0.311 118 30 44 0
-16.2072 25.5220 -38.3738 -0.612 -0.737 -0.286 106 24 38 0
-15.9934 25.6910 -38.5222 -0.650 -0.663 -0.372 105 23 35 0
-15.2534 24.3030 -38.4086 -0.171 -0.876 0.451 101 21 34 0
-14.1195 24.3118 -38.9135 0.449 -0.891 -0.070 97 20 34 0
-11.9671 23.6087 -39.6431 -0.268 -0.959 -0.090 92 18 31 0
-11.7524 23.7390 -39.7796 -0.273 -0.950 0.155 93 19 31 0
-11.5673 23.7106 -39.8525 -0.468 -0.841 0.273 95 20 32 0
-10.2078 24.7636 -40.7892 0.066 -0.941 -0.333 92 19 29 0
-10.0328 24.6720 -40.8376 -0.360 -0.926 -0.112 91 18 29 0
-9.8296 24.7180 -40.9422 -0.514 -0.852 -0.096 89 17 28 0
-8.8114 24.9333 -41.4615 -0.005 -0.396 0.918 86 17 28 0
-2.2036 28.1232 -45.4014 0.065 -0.704 0.707 66 41 36 0
-1.1472 31.2154 -46.8520 0.251 -0.725 -0.641 69 44 38 0
-0.0105 33.7629 -48.1652 0.337 -0.744 -0.577 73 51 42 0
2.2287 38.5164 -50.6677 0.139 -0.557 -0.819 82 66 46 0
2.9252 40.1354 -51.4907 0.058 -0.549 -0.834 85 68 44 0
5.9715 49.8150 -55.9165 -0.535 -0.768 -0.351 88 71 44 0
6.1076 49.4181 -55.8506 -0.477 -0.765 -0.433 104 87 52 0
6.4952 49.8794 -56.1689 -0.440 -0.796 -0.416 113 96 53 0
4.5614 38.6184 -51.7330 -0.223 -0.947 0.230 155 140 50 0
4.7969 38.6311 -51.8413 -0.103 -0.991 0.083 160 145 51 0
4.9733 38.4532 -51.8629 -0.095 -0.994 0.047 167 151 53 0
5.4640 38.5394 -52.1076 -0.049 -0.997 -0.061 174 161 56 0
8.6864 44.8733 -55.5478 -0.033 -0.846 -0.533 187 177 62 0
13.2391 37.8995 -55.3470 -0.715 -0.486 0.502 169 165 67 0
19.9293 48.4749 -61.6710 -0.135 -0.988 -0.078 152 146 88 0
21.5869 43.7698 -60.9094 -0.458 -0.443 0.771 194 183 166 0
10.8664 7.1621 -44.5257 -0.199 -0.361 0.911 186 182 165 0
18.1403 9.8139 -48.5895 -0.515 -0.835 -0.194 175 166 154 0
33.7941 29.6776 -61.8352 0.218 -0.821 0.528 175 162 153 0
36.2216 30.8113 -63.2704 -0.493 -0.455 -0.741 170 156 147 0
40.5165 37.2493 -67.2187 0.508 -0.527 0.682 169 155 146 0
40.9407 37.5028 -67.4870 0.503 -0.514 0.695 167 154 145 0
40.4181 35.0270 -66.4687 -0.429 -0.856 0.289 165 152 143 0
-68.3363 61.0031 -26.8458 0.469 -0.467 0.750 236 224 220 0
-30.3392 49.7897 -40.1027 -0.639 -0.620 0.455 221 210 209 0
-30.1202 49.6413 -40.1523 -0.661 -0.686 0.304 219 208 207 0
-29.8962 50.5303 -40.5362 -0.194 -0.935 0.296 217 206 203 0
-29.6756 50.4605 -40.6117 -0.194 -0.935 0.296 216 205 201 0
-29.4587 49.9612 -40.5480 -0.716 -0.651 0.251 215 205 197 0
-29.0057 50.9252 -41.0574 -0.582 -0.804 0.123 209 199 189 0
-28.7801 51.1410 -41.2265 -0.718 -0.693 -0.067 210 197 187 0
-28.5625 50.7799 -41.2073 -0.626 -0.780 -0.013 208 193 182 0
-28.1188 50.6806 -41.3723 -0.683 -0.721 -0.119 210 184 179 0
-27.8989 50.5331 -41.4226 -0.630 -0.775 -0.048 195 164 161 0
-27.7450 47.5023 -40.5208 -0.990 -0.113 -0.088 175 139 138 0
-27.4094 43.6951 -39.4511 -0.990 -0.111 -0.082 161 111 116 0
-24.6643 31.6522 -36.8139 -0.389 -0.906 0.164 136 58 73 0
-24.4880 31.3610 -36.7989 -0.282 -0.807 0.519 133 53 68 0
-20.0009 24.0730 -36.4557 -0.280 -0.924 0.262 117 29 45 0
-19.8230 24.0182 -36.5170 -0.234 -0.928 0.289 118 30 45 0
-19.1875 24.7583 -37.0357 -0.334 -0.772 -0.540 118 29 43 0
-16.0037 26.1102 -38.8798 -0.406 -0.902 0.149 106 22 35 0
-15.3330 24.2322 -38.5761 -0.171 -0.876 0.451 101 21 34 0
-13.8220 23.1128 -38.8878 0.156 -0.920 0.359 94 20 36 0
-13.6835 22.8254 -38.8572 0.099 -0.895 0.435 92 18 34 0
-13.4848 22.8909 -38.9662 0.162 -0.898 0.409 93 19 34 0
-12.9156 23.9885 -39.5699 -0.367 -0.358 0.859 92 18 33 0
-12.7570 23.8126 -39.5839 -0.248 -0.788 0.563 92 19 31 0
-11.7782 23.9604 -40.0651 0.212 -0.909 0.358 94 17 31 0
-11.6480 23.6406 -40.0205 -0.460 -0.853 0.247 96 19 31 0
-10.0561 24.8900 -41.1262 -0.202 -0.966 -0.158 92 20 29 0
-9.0971 24.8248 -41.5304 0.058 -0.390 0.919 87 16 27 0
-4.8832 27.5502 -44.2709 0.656 -0.683 0.321 70 23 31 0
-4.7312 27.3439 -44.2722 -0.161 -0.929 -0.334 70 25 31 0
-2.1139 28.7019 -45.8672 0.211 -0.715 0.667 69 44 40 0
-0.0025 34.0480 -48.5142 0.335 -0.745 -0.576 75 53 43 0
4.7329 38.6614 -52.0901 -0.216 -0.751 0.624 161 144 56 0
5.0015 38.7796 -52.2470 -0.098 -0.888 0.448 168 151 59 0
5.4063 38.5882 -52.3653 -0.019 -0.926 0.378 173 160 58 0
5.6814 38.7233 -52.5305 0.141 -0.963 0.228 177 164 60 0
7.2979 41.5676 -54.1574 -0.625 -0.704 0.337 186 175 64 0
19.8277 48.4107 -61.9024 -0.138 -0.989 -0.051 152 146 91 0
11.4411 12.7015 -46.7559 0.596 -0.750 -0.286 193 183 173 0
11.4329 11.0803 -46.2334 0.313 -0.616 0.723 191 182 169 0
11.6300 11.0934 -46.3250 0.303 -0.574 0.761 188 180 167 0
28.4848 32.4293 -60.6258 -0.659 -0.712 0.243 182 172 160 0
28.5830 32.1627 -60.5840 -0.637 -0.752 0.171 181 171 159 0
29.0532 32.5744 -60.9242 -0.622 -0.781 0.046 180 171 158 0
18.1343 10.2312 -48.9326 -0.402 -0.707 -0.582 178 169 157 0
39.8436 36.2727 -66.8916 -0.421 -0.899 0.122 169 155 146 0
40.3364 34.9899 -66.6996 -0.429 -0.856 0.289 164 151 143 0
-30.2114 49.7528 -40.4205 -0.672 -0.679 0.294 220 209 208 0
-29.1149 49.4319 -40.8038 0.335 -0.923 0.189 212 200 191 0
-28.8706 51.2614 -41.5017 -0.718 -0.693 -0.067 211 198 189 0
-28.6513 50.9895 -41.5115 -0.724 -0.688 -0.059 210 195 187 0
-27.8134 48.4470 -41.0641 -0.987 -0.120 -0.103 191 158 156 0
-27.6410 46.4695 -40.5035 -0.988 -0.118 -0.098 168 129 130 0
-27.4739 44.5529 -39.9602 -0.990 -0.111 -0.083 163 117 121 0
-24.5745 31.1838 -36.9394 -0.322 -0.780 0.536 137 58 71 0
-22.2229 26.8143 -36.5754 -0.374 -0.923 0.090 131 44 60 0
-22.0283 26.9095 -36.6924 -0.453 -0.891 0.018 130 42 58 0
-20.2378 24.2362 -36.6259 0.010 -0.991 0.132 116 31 47 0
-20.0694 24.0874 -36.6526 -0.228 -0.935 0.272 116 31 46 0
-19.8969 23.9814 -36.6950 -0.234 -0.928 0.289 117 30 46 0
-14.2182 24.5484 -39.3985 0.333 -0.933 -0.139 97 20 37 0
-13.8665 23.2502 -39.1362 0.206 -0.906 0.371 96 19 37 0
-13.7398 22.8906 -39.0766 0.007 -0.895 0.447 95 18 37 0
-13.5489 22.9102 -39.1677 0.182 -0.895 0.408 95 19 36 0
-13.1332 24.2202 -39.7743 -0.360 -0.821 0.443 94 17 35 0
-12.4199 23.9497 -40.0037 -0.320 -0.384 0.866 95 19 31 0
-11.6954 23.7459 -40.2597 0.420 -0.884 0.205 95 17 31 0
-10.0882 25.0659 -41.3984 0.061 -0.944 -0.324 91 21 31 0
-5.0012 27.3491 -44.3921 0.647 -0.673 0.358 73 27 34 0
-4.7582 27.5084 -44.5514 -0.200 -0.908 -0.368 71 26 32 0
-4.5506 27.5237 -44.6484 -0.244 -0.964 0.103 74 30 33 0
4.9010 38.6921 -52.4424 -0.098 -0.888 0.448 165 150 57 0
5.1022 38.5924 -52.4996 -0.036 -0.913 0.407 169 156 60 0
5.2687 38.3827 -52.5060 -0.270 -0.823 0.499 170 160 62 0
7.0919 41.1597 -54.2100 0.610 -0.711 0.350 184 176 66 0
13.3361 47.2059 -58.9299 -0.591 -0.570 -0.571 193 187 65 0
19.5104 48.4639 -62.0759 -0.138 -0.989 -0.051 152 145 91 0
19.7615 48.4342 -62.1778 -0.138 -0.989 -0.051 154 147 99 0
26.5525 22.0462 -56.6897 0.084 -0.733 -0.675 175 165 155 0
38.9542 32.9178 -65.6976 -0.345 -0.825 -0.448 165 152 144 0
-67.6711 56.3887 -26.1981 -0.044 -0.955 -0.294 235 224 220 0
-30.7182 34.1000 -35.3909 -0.479 -0.220 0.850 223 213 211 0
-28.4545 55.0813 -43.2030 -0.965 -0.161 -0.207 210 192 185 0
-27.8790 49.5929 -41.6784 -0.986 -0.121 -0.111 205 175 172 0
-27.5332 45.6703 -40.5597 -0.987 -0.119 -0.105 166 122 124 0
-24.6422 31.3444 -37.1974 -0.662 -0.718 -0.215 140 60 74 0
-23.9532 30.0275 -37.0764 -0.799 -0.601 -0.020 135 52 67 0
-23.2623 28.9720 -37.0411 -0.881 -0.464 0.093 135 52 67 0
-22.1042 26.8718 -36.8745 -0.520 -0.827 0.215 130 44 59 0
-21.5693 26.5693 -37.0141 -0.521 -0.760 0.388 122 38 51 0
-20.1503 23.9848 -36.8064 -0.197 -0.950 0.242 116 32 47 0
-19.9722 23.9321 -36.8684 -0.197 -0.950 0.242 118 31 47 0
-19.7678 24.1234 -37.0213 0.491 -0.860 0.138 118 30 46 0
-18.6965 25.3895 -37.9081 -0.477 -0.861 0.178 120 29 46 0
-18.1854 24.9679 -37.9985 -0.490 -0.859 0.149 113 26 41 0
-18.0087 24.8839 -38.0498 -0.485 -0.863 0.140 112 25 40 0
-14.3110 23.2434 -39.1610 0.120 -0.915 -0.386 97 19 37 0
-13.8213 22.8080 -39.2374 0.184 -0.875 0.447 94 17 35 0
-13.6184 22.8985 -39.3570 0.342 -0.923 0.174 94 17 35 0
-13.1631 24.4417 -40.0599 -0.180 -0.979 -0.101 94 17 35 0
-11.8032 23.5327 -40.3694 0.472 -0.874 0.116 95 18 31 0
-10.1330 25.1807 -41.6463 0.083 -0.947 -0.309 89 19 29 0
-9.9381 25.1810 -41.7330 -0.125 -0.989 -0.082 90 20 30 0
-5.1143 27.1673 -44.5212 0.645 -0.673 0.363 74 27 34 0
-4.6061 27.5738 -44.8789 -0.150 -0.954 -0.260 78 35 38 0
5.1531 38.2467 -52.6783 -0.081 -0.944 0.319 170 160 67 0
28.8845 32.9353 -61.5023 -0.632 -0.666 -0.396 182 172 163 0
26.7877 22.5412 -57.1987 0.084 -0.733 -0.675 174 164 154 0
38.3592 34.5049 -66.2223 -0.553 -0.630 0.545 170 157 148 0
38.6804 34.6059 -66.3978 -0.689 -0.601 0.405 169 156 147 0
38.8541 32.8502 -65.9055 -0.116 -0.759 -0.641 167 155 145 0
-68.4559 59.5307 -27.1425 -0.108 -0.978 -0.177 235 224 222 0
-29.9568 49.3470 -40.9480 -0.263 -0.587 0.766 218 207 202 0
-29.3026 48.8828 -41.0875 0.179 -0.942 0.285 212 201 192 0
-29.0321 53.2426 -42.6317 0.263 -0.965 0.012 210 200 191 0
-27.9492 50.5997 -42.2504 -0.985 -0.133 -0.106 208 181 177 0
-27.7672 48.7501 -41.7274 -0.985 -0.135 -0.109 184 151 150 0
-27.4269 44.8673 -40.6109 -0.988 -0.117 -0.100 166 116 121 0
-25.7537 34.0267 -37.8153 -0.362 -0.765 0.532 143 66 82 0
-24.5464 30.9891 -37.3605 -0.636 -0.696 0.333 140 57 73 0
-24.3630 30.8383 -37.3929 -0.635 -0.694 0.339 136 55 70 0
-24.1984 30.3817 -37.3170 -0.757 -0.641 0.124 135 55 68 0
-24.0047 30.4191 -37.4154 -0.731 -0.621 0.283 135 54 66 0
-23.4773 29.7046 -37.4168 -0.167 -0.781 -0.602 130 47 60 0
-23.3132 29.3165 -37.3630 -0.612 -0.773 -0.171 133 50 63 0
-22.3584 26.9409 -37.0121 -0.518 -0.836 0.181 128 43 57 0
-21.4412 26.7221 -37.3488 -0.871 -0.491 -0.022 123 36 51 0
-19.8323 24.1765 -37.2334 0.398 -0.909 0.122 118 31 48 0
-13.6844 22.9070 -39.5545 -0.390 -0.914 -0.110 94 17 35 0
-13.3045 22.9309 -39.7313 -0.208 -0.977 -0.056 96 19 35 0
-12.7087 23.1020 -40.0524 0.473 -0.842 0.260 97 21 32 0
-12.0774 23.4446 -40.4452 0.602 -0.790 0.117 92 16 29 0
-11.0014 25.0659 -41.4534 -0.623 -0.778 -0.085 89 18 26 0
-10.6038 25.1137 -41.6459 0.067 -0.928 -0.366 91 21 29 0
-10.4052 25.1346 -41.7411 0.056 -0.955 -0.291 91 21 30 0
-10.2620 24.8788 -41.7213 -0.149 -0.890 0.431 90 20 30 0
-10.0727 24.8539 -41.7974 -0.157 -0.891 0.427 91 21 31 0
-8.2791 25.0203 -42.6499 -0.405 -0.879 -0.251 82 20 31 0
-7.4283 26.1717 -43.4045 -0.121 -0.078 0.990 78 21 29 0
0.2966 35.1059 -49.7594 0.599 -0.643 -0.476 81 66 57 0
2.7269 42.9907 -53.4157 -0.218 -0.547 -0.808 82 68 60 0
5.0145 38.0370 -52.8160 -0.024 -0.948 0.318 170 159 70 0
5.2957 38.1950 -52.9927 0.515 -0.816 0.263 172 162 70 0
5.5433 38.2441 -53.1189 0.034 -0.638 0.770 175 167 70 0
6.6177 39.4116 -53.9782 0.003 -0.745 0.667 185 174 70 0
11.6854 44.3965 -57.8611 -0.339 -0.872 -0.352 192 187 68 0
13.1429 42.2579 -57.8113 0.534 -0.544 0.648 176 173 68 0
14.6188 17.1661 -50.2740 0.040 -0.836 -0.548 191 182 171 0
21.3653 26.8530 -56.4394 0.353 -0.929 0.113 189 177 169 0
16.2285 12.4090 -49.4367 -0.247 -0.629 -0.737 183 172 159 0
16.6746 12.5021 -49.6657 -0.247 -0.629 -0.737 183 174 161 0
23.3556 18.5959 -54.6285 -0.012 -0.905 -0.426 178 168 156 0
27.3851 23.2685 -57.9475 -0.072 -0.682 -0.728 174 164 154 0
38.2307 34.3927 -66.4062 -0.692 -0.653 0.308 169 156 147 0
38.4492 34.3299 -66.4829 -0.653 -0.701 0.286 168 155 146 0
39.0639 33.2683 -66.4098 -0.121 -0.762 -0.636 168 155 145 0
-68.1034 56.4697 -26.5676 -0.092 -0.941 -0.325 234 223 220 0
-67.9247 56.5442 -26.6717 -0.149 -0.936 -0.317 234 223 221 0
-68.5692 59.5520 -27.3734 -0.092 -0.983 -0.161 234 223 221 0
-57.3449 50.8363 -29.5088 -0.878 -0.364 -0.311 229 224 217 0
-29.3922 49.0144 -41.3634 -0.531 -0.830 0.171 214 203 197 0
-27.6604 47.7576 -41.7218 -0.987 -0.118 -0.106 174 137 139 0
-25.8612 33.3649 -37.7919 -0.236 -0.859 0.453 144 68 84 0
-25.5915 35.0298 -38.4594 -0.878 -0.309 -0.367 141 63 79 0
-23.9020 30.2123 -37.6284 -0.856 -0.331 0.396 132 52 63 0
-23.7305 29.9021 -37.6028 -0.167 -0.781 -0.602 130 49 61 0
-22.4275 26.9889 -37.2256 -0.697 -0.714 -0.064 123 40 54 0
-21.7069 26.6541 -37.4366 -0.482 -0.866 -0.132 121 36 52 0
-21.0121 26.0682 -37.5535 -0.886 -0.463 0.004 118 35 49 0
-20.4859 25.7188 -37.6731 -0.535 -0.844 -0.022 116 33 47 0
-19.0200 25.4381 -38.2339 -0.001 -0.806 -0.592 117 28 45 0
-16.2616 23.6179 -38.8645 -0.566 -0.821 -0.079 100 22 35 0
-14.1899 24.8248 -40.1842 0.390 -0.907 -0.157 97 20 37 0
-13.3712 22.9355 -39.9278 -0.179 -0.983 -0.051 97 20 36 0
-13.1731 22.9918 -40.0346 0.140 -0.988 0.059 96 20 31 0
-12.7918 23.0149 -40.2121 0.478 -0.843 0.248 95 19 30 0
-12.1793 23.2590 -40.5652 0.555 -0.832 0.019 93 17 30 0
-11.9602 23.4150 -40.7141 0.541 -0.832 -0.124 92 18 30 0
-10.8882 28.0733 -42.7231 0.370 -0.897 -0.243 90 18 29 0
-11.0549 25.1431 -41.6855 -0.567 -0.823 -0.026 90 20 29 0
-10.8528 25.1834 -41.7888 0.080 -0.935 -0.347 91 23 31 0
-10.6995 24.9745 -41.7885 -0.262 -0.886 0.383 89 22 30 0
-10.5235 24.8828 -41.8367 -0.266 -0.806 0.528 89 22 31 0
-10.3512 24.7734 -41.8775 -0.288 -0.811 0.510 89 20 30 0
-10.1706 24.7065 -41.9360 -0.284 -0.819 0.499 88 18 29 0
0.0308 35.2089 -49.9335 0.362 -0.721 -0.591 80 65 58 0
5.2206 38.1885 -53.2252 0.514 -0.826 0.233 171 160 69 0
8.0391 41.8131 -55.6725 -0.289 -0.213 0.933 188 178 69 0
17.2388 14.0302 -50.6377 -0.101 -0.594 -0.798 184 171 163 0
23.2416 18.1106 -54.6534 0.096 -0.980 0.174 178 167 155 0
28.1633 24.2993 -58.8807 -0.139 -0.721 -0.678 175 164 154 0
29.5750 24.3412 -59.5234 -0.568 -0.660 0.492 175 163 155 0
29.6494 24.0796 -59.4706 -0.554 -0.677 0.485 175 162 155 0
37.3930 33.1427 -65.8999 -0.733 -0.610 0.303 169 156 147 0
38.3770 34.3078 -66.7213 -0.574 -0.701 0.423 168 155 146 0
38.5131 34.1137 -66.7182 -0.669 -0.692 0.273 169 155 146 0
39.1495 34.3045 -67.0644 -0.351 -0.904 0.244 168 155 146 0
39.7299 34.4028 -67.3553 -0.551 -0.781 0.294 167 155 145 0
-68.0267 56.5331 -26.8910 -0.171 -0.933 -0.316 234 223 221 0
-68.6909 59.6023 -27.6104 -0.092 -0.983 -0.161 235 224 222 0
-56.2107 48.7160 -29.5749 -0.913 -0.314 -0.262 230 227 220 0
-33.1494 47.2755 -39.3851 -0.304 -0.075 0.950 231 225 225 0
-31.1455 33.0157 -35.5600 -0.346 -0.255 0.903 224 217 211 0
-29.9187 49.6206 -41.6022 -0.737 -0.629 -0.249 220 209 204 0
-28.6426 46.5388 -41.1516 0.367 -0.840 0.400 214 195 188 0
-28.2007 47.0533 -41.5190 0.097 -0.936 0.339 210 189 182 0
-25.6443 35.6428 -38.8833 -0.876 -0.312 -0.369 142 66 81 0
-24.1567 30.4180 -37.8178 -0.424 -0.833 0.356 133 53 64 0
-23.7729 30.4227 -37.9906 -0.621 -0.754 -0.212 130 51 62 0
-23.5949 30.2084 -37.9991 -0.603 -0.765 -0.226 131 51 62 0
-22.4163 28.0655 -37.8157 -0.569 -0.544 0.616 123 41 54 0
-22.3189 26.9210 -37.4804 -0.608 -0.769 -0.197 122 40 52 0
-20.5242 26.0566 -37.9949 -0.359 -0.758 -0.544 116 33 47 0
-19.0675 25.6452 -38.5085 0.000 -0.804 -0.595 119 31 46 0
-17.1101 24.7555 -39.0872 0.241 -0.841 0.484 104 25 37 0
-13.4050 23.1305 -40.2022 -0.778 -0.628 -0.002 97 20 35 0
-13.2515 22.9298 -40.2043 0.558 -0.682 0.474 96 20 33 0
-13.0766 22.8531 -40.2569 0.532 -0.604 0.593 96 20 31 0
-12.8761 22.9202 -40.3686 0.532 -0.604 0.593 95 19 31 0
-12.2420 23.2847 -40.7720 0.654 -0.740 0.157 95 19 32 0
-12.0237 23.4361 -40.9195 0.592 -0.804 0.063 93 19 31 0
-7.8116 25.0756 -43.3410 -0.625 0.038 0.779 75 22 28 0
-5.4734 26.5362 -44.8673 0.429 -0.674 0.601 71 27 31 0
0.0459 35.5277 -50.3048 0.318 -0.728 -0.607 89 74 67 0
0.3683 35.8878 -50.5678 0.318 -0.728 -0.607 97 83 75 0
7.5471 42.7627 -56.0451 -0.466 -0.586 0.663 182 173 72 0
11.4957 44.2864 -58.3107 -0.296 -0.849 -0.437 186 181 71 0
21.3607 27.5328 -57.1669 -0.366 -0.888 -0.277 191 178 170 0
13.7973 6.2556 -46.7520 0.419 -0.874 -0.247 181 171 164 0
27.7973 24.1604 -58.9221 -0.246 -0.597 -0.764 174 164 152 0
25.9122 19.7975 -56.6374 0.331 -0.782 -0.529 175 162 153 0
26.4717 20.3691 -57.0761 0.303 -0.783 -0.544 173 161 152 0
27.2525 21.3079 -57.7351 0.473 -0.779 -0.412 172 162 152 0
28.6848 23.3295 -59.0430 0.719 -0.646 0.256 170 160 152 0
28.4155 22.4978 -58.6477 -0.108 -0.974 0.199 172 161 155 0
28.7244 22.6324 -58.8299 0.049 -0.980 0.194 171 159 153 0
33.2542 26.9774 -62.2884 0.584 -0.386 0.714 171 158 150 0
34.3273 27.9243 -63.0805 0.810 -0.472 0.348 168 155 147 0
-49.5093 56.9697 -35.5753 0.631 -0.594 0.500 231 226 221 0
-49.3222 57.1766 -35.7278 0.619 -0.597 0.511 232 227 222 0
-29.3321 51.3766 -42.7236 0.159 -0.746 0.647 214 203 198 0
-28.7268 46.8632 -41.4905 -0.198 -0.508 0.838 214 195 189 0
-28.5108 46.8265 -41.5747 0.138 -0.613 0.778 213 193 186 0
-28.2910 46.9997 -41.7306 0.021 -0.701 0.712 211 190 184 0
-27.4400 46.2575 -41.8635 -0.966 -0.139 -0.218 175 129 134 0
-25.8890 36.4858 -39.3011 -0.833 -0.334 -0.442 144 72 85 0
-25.6971 36.2764 -39.3170 -0.870 -0.317 -0.379 142 68 83 0
-25.5989 34.0037 -38.6038 -0.517 -0.774 -0.365 141 64 80 0
-25.3883 34.2984 -38.7961 -0.619 -0.761 -0.194 142 63 79 0
-24.2382 30.3276 -37.9870 -0.484 -0.786 0.386 134 53 65 0
-23.8409 30.5482 -38.2379 -0.621 -0.754 -0.212 133 55 65 0
-22.7188 27.5428 -37.7379 -0.656 -0.673 -0.343 121 40 53 0
-22.5875 26.8114 -37.5529 -0.501 -0.862 -0.075 122 40 53 0
-21.6710 26.5849 -37.8868 -0.576 -0.805 -0.143 118 37 53 0
-21.4594 26.8592 -38.0727 -0.236 -0.905 -0.355 119 38 54 0
-20.6879 27.0516 -38.4813 0.390 -0.800 -0.456 116 35 50 0
-20.3749 26.3965 -38.4029 -0.369 -0.711 -0.598 118 31 48 0
-20.2070 26.1972 -38.4115 -0.123 -0.698 -0.706 118 31 48 0
-18.4923 24.7577 -38.6978 0.220 -0.919 0.326 116 30 44 0
-18.3097 24.7213 -38.7672 -0.006 -0.947 0.321 115 30 43 0
-18.1573 24.4409 -38.7419 0.411 -0.619 0.669 112 29 42 0
-17.0060 24.6514 -39.3262 0.116 -0.952 -0.283 103 25 37 0
-15.1667 24.3266 -40.0395 0.652 -0.729 0.207 98 21 39 0
-13.1454 22.8454 -40.4488 0.290 -0.954 0.079 97 21 33 0
-12.9381 22.9508 -40.5765 0.287 -0.954 0.082 95 19 33 0
-12.3096 23.2838 -40.9681 0.566 -0.824 0.035 95 18 34 0
-12.0992 23.3937 -41.0987 0.581 -0.813 0.048 93 18 32 0
-10.5633 28.4221 -43.4597 0.367 -0.844 -0.390 90 20 30 0
-10.4018 28.2197 -43.4644 0.362 -0.757 -0.544 90 20 30 0
-10.6044 25.1633 -42.3558 -0.427 -0.282 0.859 86 18 30 0
-9.8272 27.0862 -43.3434 -0.828 -0.455 0.327 88 18 31 0
-1.8401 32.8692 -48.8369 0.057 -0.980 -0.188 75 48 47 0
4.7178 46.5652 -56.3281 0.347 -0.938 0.001 89 82 68 0
7.3084 46.9373 -57.6091 -0.530 -0.796 0.292 160 150 78 0
7.4111 42.5749 -56.2018 -0.448 -0.601 0.662 180 170 73 0
11.4804 45.1762 -58.8857 -0.196 -0.797 -0.571 187 181 71 0
21.3051 25.7398 -56.7991 -0.301 -0.515 -0.802 185 174 168 0
26.5892 20.6557 -57.4655 0.312 -0.785 -0.536 175 162 153 0
27.3555 21.5697 -58.1122 0.473 -0.779 -0.412 173 161 153 0
27.9339 22.1613 -58.5676 0.473 -0.779 -0.412 171 160 153 0
28.3729 22.5153 -58.8816 0.018 -1.000 -0.015 172 160 154 0
34.1347 27.3172 -63.0545 0.812 -0.512 0.280 167 156 147 0
34.2373 27.0956 -63.0264 0.835 -0.440 0.331 167 156 148 0
-68.4946 56.7340 -27.2868 -0.107 -0.941 -0.320 234 224 222 0
-68.9373 59.7123 -28.0875 -0.138 -0.961 -0.240 235 226 220 0
-49.2178 57.2522 -36.0805 0.612 -0.622 0.489 233 228 222 0
-30.3226 49.3994 -41.8967 -0.179 -0.772 0.610 220 211 205 0
-30.1028 49.3966 -41.9941 -0.191 -0.455 0.870 220 209 206 0
-29.4300 50.8067 -42.7677 0.155 -0.977 0.148 215 204 198 0
-29.2100 50.5216 -42.7705 0.087 -0.948 0.306 215 201 195 0
-28.3880 46.5642 -41.8111 0.325 -0.786 0.527 213 191 185 0
-27.4874 47.9190 -42.6681 -0.967 -0.134 -0.215 182 141 145 0
-25.4921 33.7678 -38.8155 -0.932 -0.274 0.235 143 65 80 0
-23.8831 31.0931 -38.6382 -0.724 -0.671 0.160 132 52 64 0
-21.5375 26.7985 -38.2471 -0.278 -0.887 -0.368 119 38 55 0
-20.7783 26.8660 -38.6092 -0.289 -0.806 -0.517 116 34 50 0
-20.0681 26.4202 -38.7773 -0.459 -0.837 0.298 120 32 49 0
-19.8107 27.0793 -39.1134 0.152 -0.738 0.657 120 32 49 0
-19.4616 26.7923 -39.1732 -0.246 -0.887 0.391 122 33 48 0
-18.5720 24.6801 -38.8628 0.220 -0.919 0.326 115 29 41 0
-18.3867 24.6672 -38.9414 -0.016 -0.944 0.330 114 29 42 0
-18.1836 24.7971 -39.0757 -0.022 -0.932 0.361 114 30 44 0
-17.6577 24.5096 -39.2145 0.266 -0.902 0.339 107 25 39 0
-17.4708 24.5056 -39.2967 0.208 -0.928 0.308 106 27 40 0
-17.0675 24.7141 -39.5470 0.098 -0.951 -0.294 102 25 38 0
-16.2499 23.8382 -39.6189 0.371 -0.915 -0.157 97 24 36 0
-16.1008 23.5733 -39.5967 -0.098 -0.933 -0.346 97 23 36 0
-13.4164 22.7589 -40.5241 -0.069 -0.918 0.391 99 22 38 0
-13.2152 22.8327 -40.6388 0.176 -0.972 0.153 96 19 35 0
-13.0291 22.8186 -40.7172 0.168 -0.974 0.155 95 18 34 0
-12.8568 22.7275 -40.7638 0.636 -0.766 0.094 95 18 35 0
-11.2402 25.2498 -42.3324 -0.031 -0.923 -0.383 89 20 32 0
-10.3911 28.6416 -43.8493 0.473 -0.746 -0.469 88 20 31 0
-10.0993 29.1057 -44.1354 0.460 -0.766 -0.449 87 19 30 0
-9.8493 29.3479 -44.3284 0.467 -0.765 -0.443 87 19 31 0
-9.9320 26.9114 -43.4745 -0.592 -0.563 0.577 88 18 32 0
-7.4359 27.3556 -44.7396 0.295 -0.115 0.949 77 26 31 0
-7.6800 25.3822 -43.9687 0.117 -0.216 0.969 77 26 33 0
-1.9434 32.7486 -49.0039 0.048 -0.988 -0.145 75 50 50 0
-1.0043 33.8231 -49.7841 0.358 -0.717 -0.598 79 62 58 0
-0.5315 34.7579 -50.3090 0.304 -0.673 -0.674 90 76 70 0
-0.3332 34.6740 -50.3695 -0.260 -0.629 -0.733 99 85 77 0
3.2802 46.1025 -55.8172 -0.437 -0.819 -0.373 101 92 83 0
3.7019 44.1484 -55.3506 0.835 -0.482 0.264 99 91 80 0
4.9547 45.9581 -56.5176 0.444 -0.839 -0.314 96 88 72 0
7.1309 46.6172 -57.7117 -0.490 -0.762 0.423 159 149 84 0
7.4616 42.2145 -56.3833 -0.316 -0.620 0.718 180 171 76 0
31.5603 27.9291 -62.3695 -0.527 -0.798 0.293 173 160 153 0
31.6069 27.6064 -62.2822 -0.651 -0.709 0.271 170 159 152 0
41.9342 41.6079 -71.5949 0.144 -0.668 -0.731 169 157 149 0
-68.6317 56.8439 -27.5321 -0.095 -0.942 -0.321 234 224 221 0
-68.4888 57.0453 -27.6640 -0.089 -0.935 -0.344 235 225 221 0
-69.0471 59.7189 -28.3164 -0.144 -0.951 -0.272 235 226 220 0
-32.9535 35.4586 -36.2884 -0.144 -0.908 -0.394 230 224 223 0
-30.6347 50.6641 -42.4582 -0.179 -0.713 0.678 222 213 206 0
-30.4144 49.2708 -42.0866 -0.179 -0.772 0.610 222 212 207 0
-30.1939 49.6039 -42.2978 -0.056 -0.807 0.588 220 210 207 0
-29.9748 49.3174 -42.2991 -0.000 -0.806 0.592 218 206 204 0
-29.7538 49.4737 -42.4509 -0.057 -0.804 0.591 218 205 202 0
-29.5194 51.1807 -43.1319 0.187 -0.980 0.066 217 205 199 0
-29.2995 50.7944 -43.1000 0.157 -0.956 0.247 217 203 197 0
-28.7029 45.9473 -41.7313 0.407 -0.883 0.234 214 194 187 0
-28.4905 45.7771 -41.7689 0.508 -0.854 0.111 213 193 186 0
-27.3443 48.4348 -43.1790 -0.977 -0.138 -0.164 171 129 131 0
-27.1745 46.5845 -42.6306 -0.977 -0.138 -0.164 167 119 123 0
-21.9387 27.3623 -38.4874 0.288 -0.913 -0.290 120 40 57 0
-21.5999 26.9184 -38.4894 -0.278 -0.887 -0.368 118 38 55 0
-20.2675 27.0317 -39.1241 0.281 -0.641 0.714 119 34 50 0
-20.0894 26.9189 -39.1657 0.279 -0.633 0.722 121 34 50 0
-19.9333 26.5968 -39.1270 0.246 -0.717 0.652 122 35 51 0
-19.2161 26.2330 -39.3253 -0.182 -0.779 0.600 123 35 49 0
-19.0631 25.9123 -39.2856 -0.229 -0.827 0.514 121 35 48 0
-18.6261 24.8180 -39.1119 0.221 -0.939 0.265 114 30 40 0
-18.4641 24.6082 -39.1136 -0.016 -0.944 0.330 113 29 42 0
-18.2560 24.7810 -39.2651 -0.154 -0.934 0.321 113 29 43 0
-18.0593 24.8557 -39.3784 -0.077 -0.941 0.330 112 30 44 0
-17.9284 24.4036 -39.2844 0.266 -0.902 0.339 107 26 40 0
-17.7386 24.4249 -39.3766 0.266 -0.902 0.339 107 26 39 0
-17.5503 24.4325 -39.4634 0.208 -0.928 0.308 106 27 40 0
-16.6213 25.7298 -40.3172 0.560 -0.812 -0.166 100 24 36 0
-16.5035 23.8595 -39.7387 -0.374 -0.903 -0.212 99 26 38 0
-16.3176 23.8482 -39.8181 0.343 -0.939 0.015 97 24 37 0
-13.7149 25.9034 -41.6770 0.099 -0.911 -0.400 98 22 35 0
-13.4808 22.7770 -40.7267 -0.289 -0.957 -0.008 95 20 36 0
-13.2815 22.8396 -40.8370 -0.046 -0.994 0.095 95 20 35 0
-13.0646 22.9996 -40.9882 -0.097 -0.927 -0.363 94 19 35 0
-12.8935 22.8987 -41.0307 0.584 -0.801 -0.131 94 19 36 0
-12.3103 21.9654 -40.9768 0.077 -0.882 -0.464 93 21 35 0
-11.6194 23.6187 -41.8441 -0.953 -0.265 0.147 91 20 33 0
-5.6811 29.0729 -46.3435 0.056 -0.743 0.667 74 29 34 0
-5.4733 29.0780 -46.4383 0.051 -0.744 0.666 74 31 35 0
-0.9363 34.3437 -50.2466 0.296 -0.698 -0.652 86 72 66 0
-0.6132 34.7237 -50.5195 -0.290 -0.729 -0.620 95 82 76 0
3.8469 46.6613 -56.5452 -0.052 -0.308 0.950 112 105 95 0
2.8143 42.1397 -54.5569 0.662 -0.719 -0.213 113 105 95 0
3.7549 44.6090 -55.8114 0.870 -0.476 0.131 111 104 94 0
7.1793 45.4241 -57.6196 -0.739 -0.480 0.473 166 155 90 0
7.3025 45.0284 -57.5412 -0.753 -0.434 0.495 169 159 90 0
7.6184 44.4688 -57.4938 -0.752 -0.443 0.489 174 165 84 0
7.7145 43.9995 -57.3785 -0.457 -0.751 0.477 177 167 82 0
7.4470 40.9154 -56.2178 -0.325 -0.373 0.869 182 172 77 0
7.6423 40.0534 -56.0144 -0.516 -0.323 0.793 185 174 77 0
10.8824 44.6099 -59.0028 -0.693 -0.670 -0.267 182 177 75 0
25.7064 31.7750 -61.3080 0.015 -0.811 -0.585 185 172 164 0
25.8605 31.6087 -61.3209 -0.257 -0.806 -0.533 185 172 164 0
31.6490 27.7696 -62.6168 -0.565 -0.763 0.314 171 161 152 0
-50.0116 56.8366 -36.1464 0.347 -0.213 0.913 231 228 222 0
-30.7269 50.2478 -42.5529 -0.293 -0.749 0.594 223 214 208 0
-30.2857 49.6272 -42.5398 0.087 -0.598 0.797 222 211 209 0
-29.8468 49.2369 -42.6040 -0.034 -0.811 0.584 220 206 204 0
-29.6171 50.5250 -43.1445 0.160 -0.977 0.144 218 204 199 0
-29.3980 50.1377 -43.1111 0.275 -0.716 0.642 217 202 197 0
-28.7959 45.6525 -41.8575 0.362 -0.836 0.413 214 195 188 0
-28.5842 45.4651 -41.8888 0.495 -0.857 0.142 213 194 188 0
-27.2301 47.8224 -43.2965 -0.979 -0.142 -0.146 167 126 126 0
-26.9113 43.8358 -42.0852 -0.986 -0.118 -0.114 163 112 115 0
-23.5837 32.1084 -39.5933 -0.000 -0.876 -0.482 129 51 64 0
-21.5934 27.8376 -39.0347 0.341 -0.930 -0.140 117 38 54 0
-20.0082 26.5706 -39.3149 0.128 -0.725 0.677 120 34 47 0
-19.8339 26.4293 -39.3451 0.049 -0.700 0.712 119 32 46 0
-19.6491 26.3897 -39.4145 0.049 -0.699 0.714 118 31 45 0
-19.4632 26.3594 -39.4875 0.040 -0.680 0.732 117 31 44 0
-19.2992 26.1308 -39.4834 -0.182 -0.779 0.600 118 32 45 0
-18.9576 25.8092 -39.5273 -0.489 -0.811 0.322 115 32 43 0
-16.3881 23.8397 -40.0101 0.326 -0.944 0.062 96 25 35 0
-13.7748 25.9647 -41.9033 0.123 -0.904 -0.408 102 25 37 0
-12.2865 24.5260 -42.0818 0.519 -0.821 -0.239 92 20 35 0
-12.0917 23.5007 -41.8208 -0.447 -0.880 -0.159 91 21 35 0
-12.0067 22.9362 -41.6672 -0.491 -0.871 -0.010 90 21 34 0
-11.6571 22.7756 -41.7693 -0.846 -0.508 -0.164 89 20 33 0
-10.4387 27.0628 -43.7718 0.130 -0.990 -0.055 88 20 33 0
-7.7728 26.4640 -44.7634 0.340 -0.152 0.928 76 25 31 0
-6.6770 28.6287 -45.9899 0.845 -0.463 0.267 75 27 33 0
-5.6932 29.3175 -46.6649 -0.041 -0.956 0.289 72 30 35 0
-0.5992 35.0443 -50.8937 -0.295 -0.725 -0.623 98 87 81 0
2.8264 45.9207 -56.1237 -0.112 -0.615 0.781 108 98 91 0
3.6834 46.3633 -56.6582 -0.135 -0.283 0.950 119 112 104 0
3.1292 43.5286 -55.4469 0.864 -0.484 0.135 122 115 105 0
3.5704 44.2359 -55.8849 0.865 -0.482 0.141 124 118 107 0
3.7153 43.8972 -55.8348 0.779 -0.422 0.463 124 118 108 0
7.1005 45.4216 -57.8701 0.053 -0.281 0.958 160 149 95 0
10.3771 43.3603 -58.6387 -0.776 -0.600 -0.196 179 173 79 0
14.0846 15.8940 -50.9709 -0.658 -0.647 0.384 188 180 167 0
14.2178 15.7518 -50.9823 -0.658 -0.647 0.384 188 180 168 0
25.7128 31.9047 -61.6218 -0.451 -0.812 -0.371 185 173 167 0
25.8477 31.7008 -61.6130 -0.434 -0.835 -0.340 185 172 165 0
23.8220 27.3960 -59.2428 -0.707 -0.574 -0.414 187 174 166 0
24.1958 27.2250 -59.3522 -0.666 -0.587 -0.460 186 174 168 0
31.3580 27.7788 -62.7509 -0.369 -0.537 0.759 171 161 151 0
-33.1140 35.2855 -36.6430 0.218 -0.428 0.877 231 226 223 0
-32.9116 34.8406 -36.5817 0.348 -0.489 0.799 229 224 221 0
-30.5981 49.8826 -42.7626 0.036 -0.506 0.862 224 213 209 0
-30.3777 49.6375 -42.7777 0.026 -0.473 0.881 223 212 209 0
-30.1581 49.3243 -42.7692 0.190 -0.751 0.632 221 210 208 0
-28.6853 44.6501 -41.8322 0.685 -0.721 0.100 213 196 189 0
-28.4786 44.2676 -41.7942 0.473 -0.727 0.498 210 192 187 0
-28.2564 44.7630 -42.0633 0.509 -0.757 0.410 207 188 184 0
-27.8112 45.5304 -42.5254 0.636 -0.772 0.002 204 180 176 0
-22.6762 27.0318 -38.5059 -0.022 -0.998 -0.064 122 44 58 0
-20.2640 26.6264 -39.4499 -0.210 -0.972 -0.107 118 34 47 0
-20.0757 26.6184 -39.5317 -0.208 -0.973 -0.100 119 34 47 0
-19.8922 26.5620 -39.5947 -0.210 -0.972 -0.107 119 33 46 0
-18.6835 25.5341 -39.7858 -0.524 -0.748 0.408 113 33 42 0
-18.5304 25.2356 -39.7525 -0.570 -0.748 0.341 114 32 44 0
-17.3968 25.2468 -40.2651 -0.303 -0.884 -0.357 103 24 37 0
-17.1379 25.7741 -40.5616 -0.224 -0.916 -0.332 102 24 37 0
-13.7923 26.2853 -42.2379 0.682 -0.727 0.084 103 26 38 0
-12.6844 25.9362 -42.6157 -0.232 -0.858 -0.458 94 21 35 0
-11.7389 23.7036 -42.2768 -0.953 -0.267 0.146 87 23 34 0
-10.8454 26.3465 -43.5814 0.582 -0.811 -0.058 86 19 32 0
-10.4914 27.1512 -44.0154 0.284 -0.958 0.045 88 21 34 0
-9.3653 25.8524 -44.0767 0.209 -0.964 -0.163 84 24 36 0
-9.1538 25.9182 -44.1942 0.209 -0.964 -0.163 80 22 34 0
-2.7448 33.8423 -49.7797 -0.245 -0.842 0.481 72 44 46 0
-2.5497 33.7530 -49.8367 -0.245 -0.842 0.481 72 47 48 0
-2.3834 33.5527 -49.8429 -0.343 -0.805 0.484 72 48 48 0
-2.2749 33.1317 -49.7476 -0.540 -0.841 -0.027 72 51 50 0
-2.1218 32.8871 -49.7327 -0.545 -0.837 -0.045 75 56 55 0
-1.9398 32.7550 -49.7693 -0.553 -0.832 0.033 83 66 63 0
-1.0821 35.1692 -50.9795 0.383 -0.605 -0.699 87 74 68 0
4.1247 43.9118 -56.3053 0.792 -0.554 0.256 133 130 115 0
4.4203 44.0959 -56.5009 0.826 -0.533 0.182 131 129 112 0
6.3914 45.7825 -57.9622 0.150 -0.291 0.945 123 114 81 0
11.0702 44.8732 -59.7512 -0.501 -0.724 -0.473 177 171 82 0
13.4388 15.0885 -50.6316 -0.638 -0.576 0.511 190 182 169 0
14.0606 15.9546 -51.2068 -0.728 -0.604 0.324 189 181 168 0
14.1297 15.6808 -51.1442 -0.761 -0.598 0.250 188 180 168 0
24.2701 31.0938 -60.9646 -0.107 -0.781 -0.615 184 175 167 0
15.8210 3.3810 -47.6982 -0.012 -0.297 0.955 174 164 155 0
-32.9985 35.0707 -36.8639 0.436 -0.533 0.725 229 224 221 0
-30.6909 50.3971 -43.1743 0.322 -0.609 0.725 223 214 209 0
-30.2504 49.0935 -42.9237 0.326 -0.630 0.705 221 210 208 0
-29.0110 42.7557 -41.2999 0.376 -0.903 0.206 213 199 192 0
-28.8280 40.9440 -40.7588 0.498 -0.867 0.012 213 198 192 0
-28.3749 43.0987 -41.7038 0.385 -0.902 0.197 209 190 185 0
-28.1431 44.1351 -42.1646 0.654 -0.754 -0.066 207 185 180 0
-27.9041 45.3258 -42.6817 0.630 -0.777 -0.003 206 182 177 0
-26.7389 41.3522 -41.8380 -0.987 -0.121 -0.106 159 104 109 0
-24.8409 33.4179 -39.9609 -0.838 -0.288 -0.464 140 62 79 0
-22.5631 27.0164 -38.7819 0.472 -0.879 -0.062 124 46 60 0
-22.0991 28.0998 -39.3631 -0.087 -0.980 -0.178 121 45 58 0
-21.9075 28.1168 -39.4551 -0.113 -0.883 0.456 119 43 56 0
-21.6947 28.3799 -39.6412 -0.151 -0.739 0.656 118 41 55 0
-15.9437 23.9713 -40.7087 -0.241 -0.934 -0.264 100 26 37 0
-15.7513 23.9975 -40.8041 -0.264 -0.932 -0.248 100 25 37 0
-13.8771 26.1975 -42.4033 0.683 -0.727 0.074 102 26 38 0
-13.6247 23.1228 -41.4588 -0.413 -0.908 0.063 101 25 37 0
-9.7712 27.1166 -44.5645 -0.528 -0.794 -0.300 84 22 34 0
-9.3007 26.4945 -44.5619 -0.545 -0.831 0.107 82 22 34 0
-9.1363 26.3297 -44.5791 -0.547 -0.832 0.087 78 21 32 0
-8.6760 26.6210 -44.8862 0.406 -0.912 0.053 78 27 34 0
-8.0216 25.9612 -44.9533 0.314 -0.145 0.938 74 25 34 0
-2.8747 33.6159 -49.8998 -0.369 -0.879 0.303 70 43 46 0
-2.6875 33.4969 -49.9430 -0.383 -0.876 0.292 73 48 51 0
-2.5086 33.3469 -49.9718 -0.172 -0.914 -0.368 72 51 52 0
-1.8726 33.2831 -50.2357 -0.541 -0.831 -0.131 86 72 69 0
-0.8009 36.5073 -51.8266 0.360 -0.614 -0.703 90 78 72 0
4.2232 44.5225 -56.8421 0.530 -0.823 -0.203 141 138 124 0
5.4754 46.2910 -58.0133 0.353 -0.869 -0.347 142 137 118 0
5.8470 45.8776 -58.0380 0.109 -0.742 0.661 135 128 104 0
6.2411 45.5459 -58.1009 -0.129 -0.411 0.902 134 124 96 0
6.6963 43.8302 -57.7152 -0.099 -0.018 0.995 135 123 84 0
14.1420 18.3722 -52.3016 0.748 -0.614 0.251 189 185 170 0
14.1511 15.8341 -51.4323 -0.759 -0.617 0.208 188 181 168 0
23.7627 27.0662 -59.6161 -0.862 -0.444 0.245 185 172 166 0
-30.7833 50.1828 -43.3363 0.285 -0.621 0.730 223 214 210 0
-30.5619 50.3931 -43.5087 0.316 -0.629 0.711 224 214 210 0
-30.3402 50.2106 -43.5452 0.310 -0.630 0.712 222 211 208 0
-29.2364 49.5135 -43.8005 0.138 -0.592 0.794 215 202 196 0
-28.4658 42.8634 -41.8444 0.389 -0.907 0.163 210 191 186 0
-27.2766 47.9414 -44.1378 -0.996 -0.086 -0.029 183 145 144 0
-24.8798 34.1921 -40.4552 -0.514 -0.518 0.684 139 62 77 0
-24.4955 33.9567 -40.5465 -0.479 -0.277 0.833 136 59 72 0
-24.0187 31.9923 -40.0809 -0.031 -0.865 0.502 135 59 72 0
-22.8324 32.1473 -40.6682 0.479 -0.762 0.436 124 47 61 0
-22.6444 26.9144 -38.9408 0.470 -0.880 -0.066 121 43 57 0
-22.1652 28.1989 -39.6012 -0.004 -0.958 -0.288 119 43 56 0
-21.7861 28.1765 -39.7640 -0.224 -0.796 0.562 117 41 54 0
-21.5813 28.3396 -39.9126 -0.262 -0.538 0.801 118 40 53 0
-19.6196 26.9215 -40.3041 -0.605 -0.486 0.631 117 33 47 0
-12.6261 25.9539 -43.1156 -0.747 -0.588 0.309 96 23 37 0
-11.2229 26.1297 -43.8078 0.632 -0.771 -0.080 90 23 36 0
-2.5618 33.4212 -50.2294 -0.214 -0.894 -0.393 73 52 53 0
3.4290 44.5683 -56.7847 -0.634 -0.757 -0.158 136 132 122 0
4.6454 45.4091 -57.6232 0.715 -0.696 -0.067 150 148 130 0
