ply
format ascii 1.0
element vertex 822
property float x
property float y
property float z
property float nx
property float ny
property float nz
property uchar diffuse_red
property uchar diffuse_green
property uchar diffuse_blue
property uchar class
end_header
-26.9964 37.7276 -32.3944 -0.662 -0.433 0.612 150 88 96 0
-25.7595 35.1838 -32.2399 0.265 -0.458 0.849 130 58 69 0
-24.3079 31.1330 -31.7652 -0.530 -0.751 -0.394 131 51 64 0
-24.1272 31.0229 -31.8146 -0.558 -0.763 -0.326 127 47 60 0
-23.6472 29.9637 -31.7348 -0.842 -0.531 0.093 128 48 61 0
-22.1753 27.6985 -31.7607 -0.382 -0.554 0.740 127 37 52 0
-22.0068 27.5321 -31.7893 -0.278 -0.677 0.681 126 38 52 0
-21.8374 27.3783 -31.8217 -0.281 -0.685 0.672 128 38 53 0
-21.6643 27.2633 -31.8665 -0.281 -0.685 0.672 129 38 53 0
-21.5042 27.0287 -31.8725 -0.358 -0.653 0.667 127 35 50 0
-21.1781 26.6319 -31.9073 -0.731 -0.603 0.320 127 35 49 0
-18.7646 23.9274 -32.2279 0.330 -0.920 0.213 120 26 44 0
-18.5309 24.2973 -32.4330 -0.588 -0.780 0.212 123 26 45 0
-18.3771 24.0908 -32.4440 0.551 -0.835 0.005 123 27 46 0
-17.9880 24.2522 -32.6603 -0.390 -0.850 0.355 121 26 46 0
-17.7629 24.5360 -32.8378 -0.142 -0.910 0.390 122 28 46 0
-17.5782 24.5398 -32.9204 -0.210 -0.813 0.542 123 29 47 0
-15.2378 24.1370 -33.8427 -0.649 -0.465 0.602 110 23 40 0
-13.4574 23.6862 -34.5046 -0.711 -0.415 0.568 99 16 32 0
-12.9492 24.3739 -34.9184 -0.636 -0.581 -0.508 98 15 31 0
-11.4995 23.1820 -35.2302 -0.493 -0.836 -0.242 92 14 30 0
-11.2696 23.3783 -35.3857 0.154 -0.967 0.205 90 13 31 0
-10.2235 22.9926 -35.7414 -0.168 -0.985 -0.038 88 12 24 0
-10.0854 22.7699 -35.7410 -0.149 -0.987 0.052 90 14 26 0
-9.9408 22.5791 -35.7523 0.176 -0.766 0.618 92 16 28 0
-9.7551 22.5675 -35.8311 0.316 -0.749 0.583 91 15 27 0
-9.5637 22.5798 -35.9190 0.316 -0.749 0.583 90 14 26 0
-9.3854 21.7406 -35.7665 -0.205 -0.975 -0.085 88 12 24 0
-9.0991 22.1535 -36.0067 0.268 -0.768 0.581 89 13 25 0
-8.3397 22.1717 -36.3470 0.546 -0.837 0.043 90 12 25 0
3.3166 32.8968 -44.4471 0.641 -0.635 -0.430 87 66 32 0
4.5152 35.1683 -45.6019 -0.452 -0.889 -0.078 109 88 35 0
4.6998 35.0512 -45.6512 -0.447 -0.890 -0.091 130 111 42 0
5.0006 30.8085 -44.6154 0.112 -0.993 -0.028 187 173 51 0
9.5111 42.2208 -49.7500 0.634 -0.745 0.207 195 182 56 0
9.9443 42.7555 -50.0885 0.459 -0.821 0.341 198 185 57 0
10.1909 42.7674 -50.2007 0.357 -0.836 0.416 200 187 59 0
10.6150 43.2666 -50.5254 0.572 -0.807 0.149 202 189 58 0
12.8472 47.3250 -52.6287 0.417 -0.714 -0.562 207 198 69 0
14.5396 49.8066 -54.0594 0.533 -0.661 -0.528 213 203 78 0
14.8192 49.1786 -54.0099 0.556 -0.755 -0.346 215 205 88 0
22.4707 49.3057 -57.4230 0.313 -0.835 -0.452 155 145 65 0
22.0883 47.8420 -56.8510 -0.303 -0.876 0.376 152 143 69 0
22.4011 47.9530 -57.0197 -0.077 -0.902 0.425 151 142 75 0
23.2549 46.9263 -57.1139 -0.036 -0.449 0.893 191 182 152 0
25.1429 31.9854 -53.8324 -0.714 -0.560 -0.421 187 176 164 0
20.6700 15.6330 -47.3539 0.725 -0.584 0.365 178 168 157 0
39.8575 31.7802 -60.2724 -0.292 -0.913 -0.286 161 144 134 0
40.0825 31.7355 -60.3594 -0.292 -0.913 -0.286 160 144 133 0
40.3039 31.6856 -60.4435 -0.281 -0.913 -0.295 102 93 87 0
40.5314 31.6444 -60.5326 -0.281 -0.913 -0.295 50 50 49 0
40.6806 31.4889 -60.5556 -0.314 -0.911 -0.266 246 246 244 0
40.9006 31.4372 -60.6385 -0.314 -0.911 -0.266 254 255 255 0
-58.7445 35.4929 -17.9815 -0.782 -0.432 -0.449 235 228 218 0
-58.3594 34.5676 -17.8949 -0.781 -0.461 -0.420 235 226 219 0
-31.7168 48.6564 -33.5830 0.448 -0.470 0.761 234 225 216 0
-31.5044 48.6516 -33.6756 0.454 -0.467 0.758 233 225 216 0
-30.4903 45.4028 -33.2222 -0.393 -0.747 0.536 228 219 210 0
-30.2691 46.1570 -33.5293 -0.550 -0.773 0.315 227 218 209 0
-29.8541 45.9576 -33.6574 -0.359 -0.933 -0.033 224 215 206 0
-28.9052 58.2062 -37.4763 0.073 -0.838 0.541 222 212 202 0
-28.9434 48.5237 -34.7722 0.293 -0.928 0.231 220 210 200 0
-28.7182 48.8761 -34.9696 0.249 -0.951 0.185 219 206 196 0
-28.5086 48.6839 -35.0089 0.489 -0.859 -0.153 218 201 193 0
-28.2870 48.8699 -35.1585 0.495 -0.853 -0.163 218 196 191 0
-28.0637 49.0803 -35.3156 0.484 -0.856 -0.183 203 176 173 0
-27.6128 49.5398 -35.6424 0.318 -0.937 -0.142 162 119 124 0
-27.3139 36.8797 -32.2609 -0.382 -0.785 0.488 154 97 103 0
-27.0714 37.8617 -32.6406 -0.750 -0.534 0.390 152 92 98 0
-24.1984 31.0801 -32.0285 -0.542 -0.789 -0.288 130 50 63 0
-23.5424 29.8649 -31.9813 -0.671 -0.742 0.005 129 49 61 0
-22.2533 27.6446 -31.9349 -0.447 -0.757 0.476 123 35 48 0
-22.1015 27.3116 -31.9096 -0.043 -0.913 0.406 122 34 48 0
-21.9255 27.2248 -31.9633 0.062 -0.915 0.398 123 35 50 0
-21.7429 27.2026 -32.0379 0.016 -0.978 0.207 123 33 48 0
-21.4119 26.8383 -32.0831 -0.696 -0.693 0.189 125 34 48 0
-19.9725 23.5356 -31.8028 -0.214 -0.785 -0.581 124 34 48 0
-18.8427 23.8613 -32.3926 0.330 -0.920 0.213 120 27 45 0
-13.2709 24.0342 -34.9037 0.104 -0.938 -0.332 99 16 32 0
-12.9592 24.6707 -35.2182 -0.640 -0.578 -0.506 98 15 31 0
-10.3040 22.9283 -35.9084 -0.184 -0.981 -0.057 86 12 25 0
-10.1555 22.7514 -35.9249 -0.173 -0.984 -0.042 91 15 27 0
-10.0373 22.4443 -35.8919 0.176 -0.766 0.618 93 17 29 0
-9.8525 22.4297 -35.9696 0.239 -0.791 0.563 92 16 28 0
-9.6628 22.4358 -36.0551 0.256 -0.794 0.552 91 15 27 0
-9.4344 21.8076 -35.9817 -0.200 -0.975 -0.097 88 12 24 0
-9.1957 22.0216 -36.1467 0.252 -0.824 0.508 87 11 23 0
-8.1958 22.2500 -36.6521 0.546 -0.837 0.043 90 15 26 0
-6.5944 24.0213 -37.8516 -0.349 -0.790 0.504 87 16 26 0
-6.4271 23.9185 -37.8970 -0.349 -0.790 0.504 89 20 29 0
-6.2691 23.7816 -37.9289 -0.252 -0.865 0.434 86 20 28 0
-6.0958 23.7035 -37.9838 -0.252 -0.865 0.434 84 19 27 0
-5.8787 23.7889 -38.1035 -0.005 -0.873 0.487 82 17 25 0
-5.6950 23.7488 -38.1736 -0.005 -0.873 0.487 81 16 25 0
-5.5043 23.7345 -38.2539 0.181 -0.870 0.459 79 15 24 0
1.7133 31.5153 -43.6041 0.578 -0.753 -0.315 69 43 32 0
1.7124 30.8441 -43.4174 0.615 -0.771 -0.165 71 49 32 0
3.1788 33.3553 -44.7626 0.439 -0.793 -0.423 83 64 34 0
4.4608 35.2173 -45.8461 -0.395 -0.914 0.092 112 92 35 0
4.6562 35.1315 -45.9087 -0.398 -0.914 0.081 136 117 44 0
4.6589 32.5293 -45.1877 -0.355 -0.690 0.631 168 151 46 0
5.4341 32.8573 -45.6214 -0.101 -0.993 0.066 183 169 47 0
4.9302 30.7996 -44.8275 0.177 -0.984 0.002 187 173 51 0
4.6216 29.3164 -44.2795 -0.324 -0.881 0.346 191 177 53 0
9.5018 42.4033 -50.0690 0.288 -0.913 0.288 195 181 55 0
9.8534 42.7104 -50.3097 0.135 -0.983 0.125 196 184 55 0
10.1216 42.7819 -50.4481 0.127 -0.979 0.157 199 187 57 0
10.3695 42.7959 -50.5615 0.127 -0.979 0.157 199 189 58 0
10.8586 43.4706 -50.9650 0.671 -0.735 -0.094 202 192 61 0
11.2618 43.9028 -51.2632 0.676 -0.732 -0.089 205 195 64 0
13.9893 49.2355 -53.9490 0.605 -0.637 -0.477 211 200 69 0
14.5294 49.9887 -54.3968 0.607 -0.640 -0.472 211 200 72 0
17.0606 48.4904 -55.0999 0.382 -0.923 -0.046 202 192 59 0
21.9691 47.7412 -57.0619 -0.289 -0.888 0.359 151 142 70 0
22.2953 47.8828 -57.2454 -0.072 -0.946 0.316 151 141 76 0
22.5915 47.9553 -57.3965 -0.084 -0.949 0.304 151 142 85 0
22.9473 46.9896 -57.2857 0.065 -0.473 0.879 189 181 146 0
23.0699 46.6814 -57.2544 -0.054 -0.466 0.883 191 182 152 0
23.6382 47.3493 -57.6910 0.205 -0.431 0.879 191 182 155 0
22.7438 25.5252 -51.2385 -0.734 -0.439 0.519 182 173 158 0
36.1163 31.5634 -58.8259 0.042 -0.925 0.377 174 162 148 0
32.1911 23.2841 -54.7929 0.785 -0.347 0.513 168 155 139 0
39.8629 31.8708 -60.5675 -0.292 -0.913 -0.286 161 144 134 0
40.0843 31.8204 -60.6514 -0.281 -0.913 -0.295 160 144 133 0
40.3121 31.7792 -60.7407 -0.281 -0.913 -0.295 103 95 88 0
40.5399 31.7380 -60.8299 -0.281 -0.913 -0.295 50 50 49 0
40.6805 31.5695 -60.8453 -0.321 -0.892 -0.319 246 246 244 0
40.9023 31.5198 -60.9296 -0.321 -0.892 -0.319 254 255 255 0
-65.6907 60.7731 -22.1963 -0.385 -0.780 0.493 234 223 217 0
-65.4923 60.7925 -22.2895 -0.534 -0.613 0.583 234 224 216 0
-30.5644 46.3177 -33.7020 -0.590 -0.786 0.184 229 220 211 0
-29.0007 58.2575 -37.7332 -0.011 -0.848 0.531 222 212 202 0
-28.8202 48.4545 -35.0716 0.320 -0.858 0.402 216 204 195 0
-28.5990 48.6596 -35.2268 0.440 -0.894 0.079 218 203 195 0
-28.3789 48.8038 -35.3646 0.406 -0.912 0.066 218 200 193 0
-28.1559 49.0111 -35.5213 0.496 -0.867 0.044 211 188 183 0
-27.9193 49.5737 -35.7834 0.329 -0.933 -0.147 177 144 144 0
-27.7028 49.5438 -35.8708 0.318 -0.937 -0.142 162 122 126 0
-27.4830 49.5925 -35.9817 0.228 -0.974 0.010 159 113 119 0
-24.8168 31.4249 -32.0811 -0.279 -0.888 0.366 125 46 59 0
-24.4385 31.4135 -32.2454 -0.516 -0.851 0.095 127 47 58 0
-24.2615 31.2463 -32.2770 -0.420 -0.876 0.235 126 46 58 0
-22.1796 27.2543 -32.0821 -0.061 -0.914 0.401 122 34 48 0
-22.0027 27.1770 -32.1388 0.016 -0.978 0.207 123 35 50 0
-21.8192 27.1637 -32.2163 0.016 -0.978 0.207 123 35 50 0
-21.6367 27.1392 -32.2902 -0.081 -0.992 0.099 121 32 47 0
-13.7842 22.6782 -34.5185 -0.636 -0.771 0.015 99 16 32 0
-12.9747 24.9415 -35.5098 -0.670 -0.574 -0.471 98 15 31 0
-12.6464 25.6490 -35.8529 -0.605 -0.640 -0.473 98 15 31 0
-12.5135 25.3545 -35.8294 -0.407 -0.811 -0.419 98 15 31 0
-11.2127 23.3860 -35.8547 0.071 -0.972 0.226 89 11 27 0
-11.0333 23.3431 -35.9221 0.024 -0.876 0.482 89 11 27 0
-10.8892 23.1387 -35.9287 -0.139 -0.985 -0.104 90 12 27 0
-10.7046 23.1207 -36.0054 -0.139 -0.985 -0.104 89 12 26 0
-10.5198 23.1026 -36.0821 -0.139 -0.985 -0.104 88 12 26 0
-10.3369 23.0758 -36.1556 -0.153 -0.983 -0.105 88 14 27 0
-10.1784 22.9410 -36.1880 -0.165 -0.981 -0.099 91 15 27 0
-9.9397 23.1586 -36.3545 0.033 -0.990 0.138 91 15 27 0
-9.8543 22.7066 -36.2659 -0.427 -0.795 0.432 91 15 27 0
-9.6783 22.6509 -36.3283 -0.385 -0.786 0.483 91 15 27 0
-8.2932 24.4628 -37.4481 -0.668 -0.671 0.321 86 13 24 0
-8.1396 24.2993 -37.4704 -0.668 -0.671 0.321 86 13 24 0
-7.9861 24.1378 -37.4932 -0.664 -0.666 0.340 89 17 28 0
-7.8094 24.0714 -37.5528 -0.687 -0.637 0.350 89 17 26 0
-5.3085 24.6966 -38.8346 -0.034 -0.997 -0.072 78 13 20 0
-2.6200 27.8462 -40.9055 0.226 -0.974 -0.017 69 20 23 0
0.5349 28.6957 -42.5395 0.319 -0.909 -0.267 69 40 33 0
1.8121 32.0405 -44.0403 0.547 -0.745 -0.383 69 43 31 0
2.1785 32.5077 -44.3331 0.537 -0.746 -0.394 71 50 32 0
2.6725 32.6886 -44.6024 0.609 -0.640 -0.468 79 59 33 0
3.1359 33.4373 -45.0169 0.525 -0.770 -0.363 84 65 35 0
5.3458 32.8012 -45.8172 -0.063 -0.998 0.025 183 169 47 0
4.8614 30.7955 -45.0419 0.109 -0.994 -0.002 188 174 51 0
4.6026 29.4501 -44.5510 -0.222 -0.912 0.345 192 178 53 0
9.5218 42.6688 -50.4252 0.234 -0.952 0.199 194 181 53 0
9.8229 42.8336 -50.6046 0.186 -0.979 0.086 195 185 54 0
11.2035 43.9487 -51.5276 0.646 -0.740 -0.190 203 193 60 0
12.1797 45.9315 -52.5142 0.681 -0.645 -0.345 204 194 61 0
13.7612 48.8331 -54.0257 0.391 -0.692 -0.607 210 199 67 0
14.3215 48.9563 -54.3081 0.579 -0.747 -0.327 212 202 77 0
16.8653 47.5490 -55.0406 -0.299 -0.952 -0.071 200 191 59 0
16.6417 46.3563 -54.6080 0.032 -0.974 0.223 199 190 58 0
21.0652 47.0476 -56.7594 -0.046 -0.894 0.446 154 146 63 0
21.8261 47.5863 -57.2468 -0.267 -0.887 0.377 151 143 69 0
22.2161 47.8723 -57.4994 -0.080 -0.981 0.175 150 142 75 0
22.4837 47.8805 -57.6202 -0.088 -0.976 0.199 151 142 85 0
22.7291 47.8387 -57.7171 -0.088 -0.976 0.199 154 146 95 0
22.9661 47.7781 -57.8051 -0.350 -0.874 0.336 175 168 125 0
23.1800 47.6663 -57.8685 -0.338 -0.892 0.298 190 182 147 0
22.8855 46.4372 -57.3944 -0.054 -0.466 0.883 190 181 151 0
23.4529 47.1053 -57.8324 0.164 -0.567 0.807 190 180 153 0
39.8683 31.9616 -60.8634 -0.292 -0.913 -0.286 160 143 133 0
40.0922 31.9143 -60.9493 -0.281 -0.913 -0.295 160 144 133 0
40.3202 31.8731 -61.0387 -0.281 -0.913 -0.295 103 95 88 0
40.5483 31.8319 -61.1281 -0.281 -0.913 -0.295 50 50 49 0
40.7054 31.6868 -61.1571 -0.319 -0.889 -0.329 247 247 245 0
40.9121 31.6145 -61.2284 -0.313 -0.892 -0.325 254 255 255 0
-65.9505 60.5736 -22.2945 -0.373 -0.916 -0.146 236 224 219 0
-65.6082 61.6687 -22.7548 -0.542 -0.608 0.580 236 226 217 0
-31.6881 48.1374 -33.9756 0.434 -0.589 0.682 231 224 214 0
-30.0197 46.5008 -34.2539 -0.308 -0.916 0.256 224 215 206 0
-29.5567 58.4196 -37.8177 0.196 -0.837 0.510 223 213 205 0
-29.3275 58.3204 -37.8913 0.129 -0.814 0.566 222 212 203 0
-29.1007 58.1304 -37.9383 -0.011 -0.848 0.531 222 212 203 0
-29.0961 49.5373 -35.5189 0.075 -0.937 0.340 219 209 200 0
-28.6978 48.3582 -35.3632 0.409 -0.891 -0.195 217 204 195 0
-28.4737 48.6457 -35.5435 0.306 -0.930 -0.204 215 201 192 0
-28.2523 48.8175 -35.6900 0.430 -0.902 -0.035 213 193 187 0
-28.0073 49.6378 -36.0298 0.353 -0.928 -0.117 183 154 153 0
-27.7955 49.4753 -36.0779 0.206 -0.978 -0.022 163 125 128 0
-27.5741 49.5688 -36.2023 0.228 -0.974 0.010 159 115 120 0
-25.6545 34.4102 -32.7817 -0.652 -0.730 -0.204 127 57 67 0
-24.8919 31.4401 -32.2827 -0.287 -0.890 0.354 125 48 61 0
-24.6963 31.5245 -32.3932 -0.538 -0.773 0.335 128 49 61 0
-24.4998 31.6138 -32.5054 -0.482 -0.860 0.169 127 47 58 0
-24.3247 31.4147 -32.5269 -0.499 -0.803 0.326 122 42 54 0
-22.2601 27.1734 -32.2469 -0.112 -0.981 0.158 122 35 50 0
-22.0758 27.1694 -32.3274 -0.125 -0.978 0.166 123 35 51 0
-13.7943 22.9774 -34.8166 -0.250 -0.904 -0.347 99 16 32 0
-12.9306 25.5232 -35.9168 0.183 -0.849 -0.495 98 15 31 0
-12.7183 25.6330 -36.0418 -0.474 -0.769 -0.429 98 15 31 0
-12.5527 25.5030 -36.0786 -0.407 -0.811 -0.419 98 15 31 0
-12.3987 25.3164 -36.0942 -0.440 -0.837 -0.327 96 13 29 0
-12.3282 23.7804 -35.6927 0.022 -0.942 0.335 95 12 28 0
-12.1763 22.6910 -35.4530 -0.048 -0.977 -0.208 93 12 27 0
-11.2622 23.4662 -36.0766 -0.100 -0.816 0.569 89 13 26 0
-10.9657 23.0924 -36.1027 0.318 -0.913 0.254 91 13 26 0
-10.7941 23.0154 -36.1571 0.233 -0.969 0.083 91 13 26 0
-10.5963 23.0566 -36.2563 0.224 -0.969 0.107 91 13 26 0
-10.4010 23.0853 -36.3509 0.162 -0.975 0.151 91 13 27 0
-10.2156 23.0687 -36.4284 0.146 -0.985 0.087 92 15 28 0
-7.8899 24.0137 -37.7255 -0.427 -0.433 0.794 91 20 31 0
-7.2097 23.6465 -37.9235 0.490 -0.663 0.566 88 15 28 0
-6.7950 24.5087 -38.3503 -0.332 -0.932 0.142 90 16 31 0
-6.5784 24.5915 -38.4696 -0.520 -0.754 0.402 89 17 28 0
-6.4169 24.4615 -38.5046 -0.520 -0.754 0.402 88 18 28 0
-6.2677 24.2857 -38.5211 -0.522 -0.804 0.284 88 20 28 0
-6.0953 24.1996 -38.5733 -0.500 -0.815 0.292 85 18 25 0
-5.7108 24.9090 -38.9436 0.228 -0.969 0.092 82 15 21 0
-5.4498 25.1478 -39.1265 0.327 -0.750 0.575 81 15 21 0
-5.2979 24.9793 -39.1464 0.042 -0.984 -0.174 80 15 21 0
-5.1130 24.9336 -39.2154 0.046 -0.989 -0.139 81 16 22 0
-4.9415 24.8391 -39.2648 -0.676 -0.608 0.416 79 17 22 0
-4.7613 24.7766 -39.3271 -0.369 -0.731 0.573 78 17 22 0
-4.6004 24.6450 -39.3613 -0.383 -0.733 0.561 74 15 19 0
-4.4357 24.5283 -39.4014 -0.383 -0.733 0.561 73 17 20 0
-2.4846 27.8393 -41.1992 0.360 -0.932 -0.051 66 21 23 0
0.4835 28.7454 -42.7700 0.319 -0.909 -0.267 71 42 35 0
1.7959 32.2071 -44.3271 0.545 -0.750 -0.376 71 45 33 0
3.2196 33.9078 -45.4374 0.561 -0.784 -0.264 85 64 33 0
4.3018 32.5298 -45.5287 -0.501 -0.781 0.374 166 148 45 0
9.4226 42.6003 -50.6360 0.234 -0.952 0.199 192 181 52 0
9.7418 42.8161 -50.8383 0.189 -0.979 0.081 194 184 52 0
14.4359 50.1597 -54.9881 0.393 -0.686 -0.612 208 198 69 0
14.6130 49.9393 -55.0045 0.198 -0.722 -0.663 209 199 75 0
16.8731 48.4051 -55.5739 -0.592 -0.803 0.075 201 193 60 0
16.3888 46.5505 -54.8366 0.007 -0.958 -0.288 200 192 59 0
16.6827 46.6448 -54.9934 0.029 -0.992 0.123 199 190 59 0
22.1989 49.2032 -58.1592 0.268 -0.882 -0.388 152 145 65 0
22.1458 47.8819 -57.7634 -0.088 -0.976 0.199 150 142 76 0
22.3911 47.8400 -57.8603 -0.088 -0.976 0.199 151 142 86 0
22.6399 47.8056 -57.9608 -0.350 -0.883 0.314 153 145 97 0
22.8772 47.7456 -58.0491 -0.355 -0.876 0.327 175 167 126 0
23.0708 47.5887 -58.0907 -0.350 -0.883 0.314 190 182 147 0
23.2971 47.5048 -58.1674 -0.395 -0.868 0.300 190 181 151 0
23.2302 46.7785 -57.9330 0.125 -0.404 0.906 190 181 154 0
22.3241 24.5568 -51.2697 -0.714 -0.640 -0.283 181 174 160 0
40.1000 32.0085 -61.2480 -0.281 -0.913 -0.295 160 145 134 0
40.3284 31.9673 -61.3375 -0.281 -0.913 -0.295 103 95 89 0
40.5568 31.9260 -61.4271 -0.281 -0.913 -0.295 50 50 49 0
40.7234 31.7941 -61.4638 -0.319 -0.889 -0.329 247 247 245 0
40.9521 31.7534 -61.5537 -0.277 -0.886 -0.371 254 255 255 0
-32.1934 53.5520 -35.5511 -0.706 -0.383 0.595 233 226 217 0
-30.5271 46.6225 -34.3233 -0.574 -0.776 0.261 228 219 210 0
-30.1099 46.4123 -34.4487 -0.287 -0.775 0.564 224 215 207 0
-29.6671 57.7714 -37.8702 0.509 -0.766 0.392 223 213 206 0
-29.4305 58.0524 -38.0550 0.194 -0.831 0.521 222 211 205 0
-29.2006 58.0035 -38.1431 -0.011 -0.848 0.531 221 210 203 0
-28.3401 48.8802 -35.9348 0.224 -0.950 -0.220 215 198 190 0
-28.0958 49.6938 -36.2742 0.149 -0.903 0.403 197 170 168 0
-27.8856 49.4771 -36.3059 0.305 -0.891 0.337 167 131 133 0
-27.6718 49.3724 -36.3711 0.263 -0.943 0.206 163 120 123 0
-24.9811 31.2550 -32.4214 -0.314 -0.917 0.248 127 49 62 0
-24.7816 31.3989 -32.5508 -0.541 -0.792 0.282 128 49 62 0
-24.5824 31.5280 -32.6759 -0.444 -0.866 0.230 125 45 58 0
-24.4066 31.3372 -32.6997 -0.484 -0.819 0.309 121 41 54 0
-22.3461 27.0365 -32.3931 -0.093 -0.993 -0.069 122 34 50 0
-22.1627 27.0247 -32.4711 -0.093 -0.993 -0.069 123 35 51 0
-20.8198 25.8088 -32.7219 -0.564 -0.749 0.346 127 35 50 0
-20.1703 26.6200 -33.2404 0.119 -0.837 0.533 122 30 45 0
-13.8556 23.0085 -35.0174 -0.073 -0.953 -0.295 99 16 32 0
-12.5965 25.6299 -36.3205 -0.420 -0.840 -0.342 98 15 31 0
-12.7755 23.7626 -35.7109 0.134 -0.795 0.592 96 13 29 0
-10.8313 23.1480 -36.3991 0.385 -0.670 0.635 95 15 26 0
-10.6372 23.1716 -36.4920 0.385 -0.670 0.635 93 13 26 0
-10.0735 23.1524 -36.7367 0.378 -0.792 0.479 95 16 29 0
-8.5913 24.5823 -37.8004 -0.126 -0.387 0.913 88 12 25 0
-8.4334 24.4344 -37.8285 -0.179 -0.378 0.908 86 14 25 0
-7.9773 23.9275 -37.8870 -0.387 -0.441 0.810 88 18 28 0
-6.8318 24.6236 -38.5930 -0.400 -0.785 0.473 90 16 30 0
-6.6658 24.5099 -38.6344 -0.440 -0.767 0.467 94 22 34 0
-6.5065 24.3715 -38.6658 -0.521 -0.769 0.371 99 28 39 0
-6.3430 24.2504 -38.7040 -0.492 -0.821 0.288 98 29 38 0
-6.1777 24.1369 -38.7451 -0.492 -0.821 0.288 89 22 29 0
-5.9247 24.3545 -38.9192 0.292 -0.887 0.358 83 17 22 0
-2.7885 27.7299 -41.2693 0.233 -0.972 -0.010 68 19 23 0
-2.5360 27.8948 -41.4281 0.398 -0.915 -0.062 67 22 23 0
2.0999 32.0198 -44.6566 0.644 -0.651 -0.403 77 57 33 0
4.1764 32.3636 -45.6757 -0.506 -0.782 0.363 167 149 46 0
9.3240 42.5332 -50.8474 0.326 -0.934 -0.145 192 182 51 0
11.4495 45.7191 -52.6952 0.515 -0.823 -0.240 200 190 56 0
14.4753 50.4767 -55.3887 0.309 -0.704 -0.640 208 198 71 0
16.2506 45.7589 -54.8371 -0.311 -0.892 -0.328 199 190 59 0
15.6248 42.3587 -53.5941 -0.719 -0.625 -0.302 193 184 55 0
22.0747 47.8899 -58.0267 -0.208 -0.978 0.018 150 142 80 0
22.3275 47.8645 -58.1317 -0.365 -0.908 0.204 151 142 87 0
22.5457 47.7616 -58.1994 -0.365 -0.908 0.204 156 148 99 0
22.7586 47.6470 -58.2613 -0.477 -0.836 0.271 180 172 131 0
22.9627 47.5135 -58.3140 -0.477 -0.836 0.271 189 182 147 0
23.1213 47.2802 -58.3181 -0.508 -0.809 0.297 189 182 152 0
23.2938 47.0793 -58.3376 0.169 -0.555 0.815 189 181 154 0
27.1819 37.6721 -57.3923 -0.576 -0.378 0.725 189 177 165 0
22.3290 24.6694 -51.5470 -0.758 -0.591 -0.276 181 174 159 0
22.4627 24.5033 -51.5592 -0.758 -0.591 -0.276 182 173 161 0
36.2230 31.6053 -59.6821 0.437 -0.540 0.719 170 158 147 0
38.7876 34.7868 -61.7235 -0.973 -0.224 -0.061 171 159 147 0
39.1658 34.9691 -61.9431 -0.963 -0.268 0.033 169 157 145 0
39.9209 32.2059 -61.4937 -0.357 -0.889 -0.286 160 146 135 0
40.1079 32.1030 -61.5475 -0.281 -0.913 -0.295 159 144 133 0
40.3366 32.0617 -61.6372 -0.281 -0.913 -0.295 102 94 87 0
40.5653 32.0203 -61.7270 -0.281 -0.913 -0.295 50 50 49 0
40.7413 31.9017 -61.7714 -0.319 -0.889 -0.329 247 247 245 0
40.9650 31.8530 -61.8568 -0.319 -0.889 -0.329 254 255 255 0
-32.0685 52.8928 -35.6921 -0.781 -0.556 0.284 232 225 216 0
-31.2996 40.9133 -32.6071 -0.821 -0.538 0.191 229 222 214 0
-30.1105 51.3049 -36.1080 -0.638 -0.525 0.563 224 216 207 0
-29.5321 57.8353 -38.2329 -0.221 -0.808 0.546 222 212 205 0
-29.2986 57.9546 -38.3708 -0.249 -0.808 0.534 221 211 205 0
-29.0424 50.2191 -36.2720 0.115 -0.932 0.343 216 204 197 0
-28.4290 48.9140 -36.1713 0.224 -0.950 -0.220 215 199 191 0
-27.9801 49.3587 -36.4979 0.276 -0.820 0.501 173 141 140 0
-27.7684 49.1989 -36.5463 0.251 -0.854 0.456 165 126 128 0
-25.7101 36.1056 -33.7157 -0.954 -0.241 0.178 128 58 69 0
-25.5604 35.3391 -33.5629 -0.962 -0.092 0.258 126 56 69 0
-24.6492 31.6603 -32.9156 -0.355 -0.887 -0.296 126 46 59 0
-22.4157 27.0650 -32.5935 -0.064 -0.997 -0.041 123 36 52 0
-22.2196 27.1811 -32.7139 -0.267 -0.917 0.297 124 37 53 0
-21.8587 27.0906 -32.8484 0.192 -0.888 0.418 132 44 58 0
-21.4396 27.5465 -33.1650 -0.148 -0.904 0.402 125 35 49 0
-21.3128 26.9971 -33.0642 0.221 -0.969 0.111 122 31 47 0
-21.0121 26.3678 -33.0178 -0.214 -0.640 0.738 127 34 51 0
-20.8674 26.0155 -32.9813 -0.537 -0.786 0.306 126 33 50 0
-20.4457 26.4660 -33.2976 0.193 -0.801 0.566 122 29 47 0
-20.2551 26.5096 -33.3948 0.119 -0.837 0.533 121 29 46 0
-18.5575 23.9663 -33.4216 0.471 -0.873 0.125 120 26 43 0
-18.1939 23.9483 -33.5780 0.194 -0.975 -0.106 119 25 41 0
-10.9598 23.7327 -36.7308 0.185 -0.624 0.759 94 14 27 0
-10.7972 23.6079 -36.7674 0.182 -0.612 0.770 98 18 31 0
-10.6261 23.5230 -36.8191 0.082 -0.745 0.662 109 29 42 0
-10.4435 23.4904 -36.8910 0.079 -0.748 0.659 111 32 45 0
-10.2627 23.4491 -36.9594 0.079 -0.748 0.659 105 25 36 0
-10.0778 23.4262 -37.0351 0.073 -0.750 0.657 95 15 25 0
-9.4474 22.8637 -37.1543 -0.313 -0.916 -0.249 89 12 22 0
-9.3064 22.6566 -37.1577 -0.335 -0.912 -0.237 90 13 23 0
-9.0818 22.8031 -37.2994 -0.072 -0.987 -0.141 90 14 24 0
-8.8921 22.8012 -37.3832 -0.072 -0.987 -0.141 92 19 30 0
-8.4468 23.0656 -37.6567 0.188 -0.964 -0.187 86 15 25 0
-8.2163 23.2251 -37.8047 0.171 -0.974 -0.150 85 15 24 0
-7.6500 23.1874 -38.0456 -0.022 -0.983 0.184 87 16 25 0
-6.9141 24.5616 -38.7657 -0.400 -0.785 0.473 90 19 29 0
-6.7467 24.4533 -38.8091 -0.414 -0.795 0.443 100 31 41 0
-6.5853 24.3226 -38.8434 -0.413 -0.801 0.433 117 49 59 0
-6.4178 24.2166 -38.8875 -0.492 -0.821 0.290 106 38 47 0
-6.2525 24.1031 -38.9285 -0.492 -0.821 0.290 89 22 31 0
-6.0211 24.2397 -39.0704 0.300 -0.903 0.309 83 17 24 0
2.7320 34.8949 -46.0077 0.159 -0.976 0.150 75 55 33 0
4.8295 35.8220 -47.2049 0.485 -0.825 -0.290 155 138 48 0
4.0550 32.2091 -45.8273 -0.268 -0.797 0.541 168 151 48 0
12.6405 47.8157 -54.1065 0.512 -0.682 -0.523 205 193 60 0
15.6160 45.6304 -54.8035 -0.506 -0.500 0.703 201 193 60 0
21.8222 48.0857 -58.2636 -0.479 -0.878 0.001 150 143 75 0
22.2496 47.8574 -58.3882 -0.506 -0.862 0.035 151 143 89 0
22.4583 47.7325 -58.4452 -0.506 -0.862 0.035 158 150 102 0
22.6667 47.6078 -58.5022 -0.506 -0.862 0.035 183 176 135 0
22.8608 47.4520 -58.5439 -0.519 -0.854 0.013 188 181 147 0
23.1254 47.4525 -58.6616 -0.486 -0.836 0.254 188 181 152 0
22.9603 46.5086 -58.3182 -0.075 -0.718 0.692 189 180 154 0
30.0629 40.7937 -59.8396 0.244 -0.467 0.850 185 176 165 0
30.3295 40.8047 -59.9612 0.191 -0.430 0.882 184 175 163 0
22.7603 24.7372 -52.0018 -0.266 -0.712 -0.650 183 173 162 0
23.0815 24.9090 -52.1937 -0.185 -0.731 -0.657 182 172 162 0
39.9277 32.2997 -61.7934 -0.357 -0.889 -0.286 161 145 135 0
40.1158 32.1977 -61.8478 -0.281 -0.913 -0.295 161 144 133 0
40.3448 32.1563 -61.9377 -0.281 -0.913 -0.295 103 94 88 0
40.5739 32.1150 -62.0277 -0.281 -0.913 -0.295 50 50 49 0
40.7519 31.9987 -62.0735 -0.309 -0.892 -0.331 247 247 245 0
40.9778 31.9527 -62.1607 -0.309 -0.892 -0.331 254 255 255 0
-31.7871 40.3439 -32.4741 0.574 -0.726 0.379 232 225 217 0
-29.9731 51.8577 -36.5992 -0.593 -0.579 0.560 223 215 205 0
-28.0754 49.2152 -36.6821 0.289 -0.843 0.454 186 157 154 0
-27.8632 49.0704 -36.7347 0.251 -0.854 0.456 168 131 133 0
-27.4353 48.8928 -36.8739 0.289 -0.878 0.381 160 115 117 0
-26.8233 39.0891 -34.3210 -0.919 -0.393 -0.019 145 83 93 0
-26.2277 35.3164 -33.4988 -0.974 -0.215 0.069 133 66 78 0
-22.4736 27.2160 -32.8348 -0.267 -0.917 0.297 122 35 52 0
-22.2957 27.1451 -32.8935 -0.267 -0.917 0.297 125 37 54 0
-21.5192 27.4807 -33.3357 -0.086 -0.894 0.440 125 35 50 0
-21.3966 26.8893 -33.2199 0.192 -0.974 0.120 124 33 48 0
-21.0742 26.4536 -33.2378 -0.273 -0.658 0.702 125 32 50 0
-20.9078 26.2892 -33.2644 -0.280 -0.656 0.700 125 32 50 0
-20.7777 25.8138 -33.1853 -0.565 -0.763 0.315 122 29 48 0
-20.1719 26.2517 -33.5810 -0.611 -0.763 -0.211 120 26 43 0
-18.0678 24.0312 -33.8773 0.176 -0.973 -0.152 122 30 44 0
-17.9658 23.4728 -33.7617 -0.341 -0.921 -0.189 122 30 44 0
-17.8220 23.2094 -33.7498 -0.107 -0.992 -0.064 121 29 44 0
-10.9045 23.4227 -36.8891 0.182 -0.612 0.770 100 20 33 0
-10.3529 23.3440 -37.1118 0.133 -0.746 0.653 113 33 44 0
-10.1744 23.2929 -37.1765 0.073 -0.750 0.657 98 18 29 0
-9.3544 22.7319 -37.3797 -0.335 -0.912 -0.237 91 14 24 0
-8.9267 22.9313 -37.6274 -0.077 -0.987 -0.138 95 22 33 0
-8.4872 23.1698 -37.8917 0.170 -0.969 -0.178 87 17 27 0
-7.7238 23.1549 -38.2271 -0.022 -0.983 0.184 87 15 26 0
-6.9941 24.5083 -38.9417 -0.414 -0.795 0.443 92 22 33 0
-6.8273 24.3978 -38.9841 -0.414 -0.795 0.443 104 36 45 0
-6.6654 24.2691 -39.0191 -0.413 -0.801 0.433 114 47 56 0
-6.4899 24.1935 -39.0754 -0.492 -0.821 0.290 92 25 34 0
-6.3245 24.0799 -39.1162 -0.492 -0.821 0.290 83 17 25 0
-6.1393 24.0422 -39.1878 -0.353 -0.906 0.235 81 16 24 0
-2.8664 27.9298 -41.7643 0.832 -0.554 -0.015 67 18 25 0
-1.8550 27.8737 -42.1981 0.405 -0.776 -0.483 64 23 25 0
2.5482 34.5416 -46.0787 -0.019 -0.998 -0.061 76 55 33 0
4.4623 35.6123 -47.2389 0.511 -0.801 -0.311 150 131 52 0
4.9068 30.4563 -45.9508 -0.661 -0.341 0.669 192 181 52 0
15.3958 45.9055 -55.0697 -0.244 -0.907 0.343 200 192 58 0
14.7397 43.6126 -54.1171 -0.498 -0.720 0.483 200 192 59 0
16.2723 39.5315 -53.6229 0.641 -0.747 0.178 166 160 56 0
22.1865 47.8835 -58.6611 -0.506 -0.862 0.035 151 143 89 0
22.3953 47.7586 -58.7180 -0.506 -0.862 0.035 162 155 106 0
22.5997 47.6243 -58.7702 -0.497 -0.867 0.041 185 178 137 0
22.7816 47.4410 -58.7984 -0.503 -0.864 0.006 189 181 147 0
23.0397 47.4271 -58.9092 -0.486 -0.836 0.254 190 181 153 0
22.8255 46.3736 -58.5103 -0.049 -0.869 0.493 190 180 155 0
30.1001 40.5035 -60.0553 0.193 -0.440 0.877 182 172 162 0
27.3632 20.4315 -53.0534 -0.189 -0.778 -0.599 177 160 152 0
24.7783 13.6310 -49.9436 0.401 -0.813 -0.422 171 159 147 0
31.1134 22.3889 -55.2860 0.445 -0.868 -0.221 170 156 145 0
31.5273 22.6685 -55.5508 0.445 -0.868 -0.221 168 154 143 0
40.1237 32.2927 -62.1490 -0.281 -0.913 -0.295 160 143 132 0
40.2492 32.0981 -62.1488 -0.432 -0.863 -0.262 102 92 86 0
40.5824 32.2099 -62.3292 -0.281 -0.913 -0.295 51 50 49 0
40.7612 32.0942 -62.3754 -0.307 -0.891 -0.335 247 247 245 0
40.9881 32.0491 -62.4634 -0.307 -0.891 -0.335 254 255 255 0
-66.3340 60.4053 -23.1543 -0.346 -0.921 -0.176 236 225 219 0
-30.1607 46.6635 -35.2801 0.252 -0.961 0.111 223 215 205 0
-29.0553 48.4100 -36.2796 0.393 -0.905 0.160 217 204 198 0
-28.8375 48.4974 -36.4020 0.395 -0.904 0.165 215 202 195 0
-28.3858 49.1277 -36.7862 0.385 -0.894 -0.229 215 196 190 0
-28.1641 49.2602 -36.9234 0.375 -0.890 -0.259 197 170 166 0
-27.9418 49.3923 -37.0608 0.368 -0.888 -0.276 169 136 136 0
-22.5493 27.1852 -33.0162 -0.279 -0.912 0.299 123 35 52 0
-22.3718 27.1091 -33.0732 -0.267 -0.917 0.297 124 37 53 0
-22.1545 27.4337 -33.2643 -0.310 -0.925 0.218 124 36 51 0
-21.9762 27.3602 -33.3224 -0.310 -0.925 0.218 124 36 50 0
-21.7956 27.3106 -33.3884 -0.319 -0.921 0.223 125 36 50 0
-21.5861 27.5355 -33.5471 0.315 -0.923 0.222 124 34 49 0
-21.4024 27.5092 -33.6212 0.435 -0.859 0.271 123 33 49 0
-21.1640 26.2903 -33.3736 -0.595 -0.757 0.270 121 33 49 0
-20.5866 26.4864 -33.6878 -0.118 -0.797 0.593 124 30 48 0
-20.4157 26.3619 -33.7277 -0.145 -0.777 0.613 122 28 46 0
-20.2802 25.9446 -33.6670 -0.059 -0.788 0.612 121 28 44 0
-14.4687 24.8526 -35.9390 -0.729 -0.536 0.425 100 18 33 0
-14.3109 24.6823 -35.9599 -0.740 -0.515 0.432 99 18 33 0
-14.1823 24.3547 -35.9220 -0.745 -0.525 0.411 99 19 34 0
-14.4354 21.9690 -35.1167 -0.774 -0.445 0.450 98 20 34 0
-11.1836 23.3163 -36.9565 0.190 -0.622 0.759 93 13 26 0
-7.5501 24.1113 -38.8060 0.141 -0.881 0.451 85 15 25 0
-6.9103 24.3326 -39.1552 -0.417 -0.809 0.414 96 27 36 0
-6.7431 24.2243 -39.1983 -0.417 -0.809 0.414 97 30 39 0
-6.5679 24.1477 -39.2541 -0.460 -0.831 0.314 86 19 28 0
-6.4012 24.0392 -39.2969 -0.460 -0.831 0.314 81 16 24 0
-6.2121 24.0161 -39.3744 -0.358 -0.902 0.242 81 16 24 0
2.3587 34.1692 -46.1403 0.053 -0.993 -0.101 76 55 34 0
2.9219 29.2674 -44.9681 0.665 -0.712 0.227 169 151 48 0
11.8211 47.3857 -54.1926 0.594 -0.651 -0.474 201 191 59 0
14.6228 43.5047 -54.3141 -0.581 -0.706 0.406 200 192 57 0
14.3828 41.0483 -53.4941 0.446 -0.729 -0.519 193 184 53 0
22.3395 47.8008 -58.9991 -0.500 -0.863 -0.067 167 160 111 0
22.5274 47.6292 -59.0330 -0.535 -0.845 -0.004 186 179 138 0
22.7204 47.4700 -59.0728 -0.544 -0.839 -0.011 189 180 147 0
22.9643 47.4243 -59.1681 -0.500 -0.866 0.019 191 181 153 0
22.8984 46.6959 -58.9273 -0.476 -0.864 0.162 190 179 155 0
30.1577 40.7331 -60.4303 0.270 -0.358 0.894 183 173 163 0
24.0062 15.4827 -50.3594 0.691 -0.712 -0.126 178 163 153 0
27.3144 20.4364 -53.2713 -0.329 -0.744 -0.582 176 161 151 0
30.7590 22.2787 -55.3406 0.511 -0.846 -0.154 171 157 146 0
40.2533 32.1869 -62.4468 -0.422 -0.870 -0.256 103 93 87 0
40.4555 32.1055 -62.5133 -0.432 -0.863 -0.262 50 50 49 0
40.7866 32.2134 -62.6921 -0.276 -0.912 -0.302 247 247 245 0
41.0148 32.1697 -62.7811 -0.276 -0.927 -0.253 254 255 255 0
-66.5232 60.7345 -23.4363 -0.359 -0.930 -0.074 236 225 218 0
-29.4169 55.3778 -38.4219 -0.024 -0.935 0.353 220 211 204 0
-28.8840 50.0531 -37.1024 -0.644 -0.762 0.071 215 202 194 0
-28.4754 49.1489 -37.0203 0.385 -0.894 -0.229 215 197 191 0
-28.2547 49.2540 -37.1494 0.386 -0.889 -0.246 208 184 180 0
-28.0311 49.4256 -37.2994 0.375 -0.890 -0.259 173 142 142 0
-26.6936 36.9625 -34.2512 -0.930 -0.314 0.193 142 76 85 0
-25.2515 31.7779 -33.3783 -0.135 -0.978 0.158 128 50 64 0
-25.0691 31.6610 -33.4254 -0.204 -0.979 0.012 130 52 65 0
-24.8721 31.7556 -33.5410 -0.325 -0.946 0.001 130 51 64 0
-24.7083 31.3819 -33.5047 -0.321 -0.946 0.050 135 54 67 0
-24.5422 31.0560 -33.4835 -0.519 -0.853 0.064 130 48 62 0
-23.9637 31.1631 -33.7729 -0.649 -0.509 0.565 126 44 58 0
-22.5669 27.7634 -33.4017 0.206 -0.976 0.064 125 36 53 0
-22.3869 27.7013 -33.4639 0.238 -0.956 0.169 124 36 52 0
-22.2122 27.5865 -33.5083 -0.092 -0.962 0.259 124 36 52 0
-22.0348 27.5004 -33.5622 -0.078 -0.967 0.241 124 36 51 0
-21.8507 27.4814 -33.6388 0.286 -0.931 0.226 123 35 50 0
-21.6660 27.4673 -33.7170 0.315 -0.923 0.222 123 34 50 0
-20.6689 26.3948 -33.8482 0.095 -0.692 0.716 123 30 48 0
-20.5174 26.1051 -33.8310 -0.200 -0.612 0.766 122 30 47 0
-20.3614 25.8611 -33.8293 -0.067 -0.772 0.632 120 30 45 0
-19.8455 25.5463 -33.9673 0.193 -0.622 0.759 124 33 50 0
-18.4325 25.0415 -34.4500 -0.303 -0.949 0.082 120 29 43 0
-18.2914 24.7286 -34.4214 -0.410 -0.753 0.514 125 33 46 0
-18.1159 24.6628 -34.4805 -0.572 -0.661 0.486 122 32 44 0
-12.9187 22.5109 -36.1695 -0.032 -0.956 -0.291 101 23 37 0
-10.5569 23.0256 -37.3735 0.149 -0.733 0.664 96 18 31 0
-10.3013 23.3204 -37.5738 -0.316 -0.949 -0.006 92 14 27 0
-7.6211 24.0927 -38.9952 0.127 -0.892 0.434 85 15 23 0
-7.6771 23.0984 -38.6794 0.452 -0.756 0.473 86 16 24 0
-6.8379 24.1136 -39.3507 -0.410 -0.805 0.428 88 21 30 0
-6.6709 24.0057 -39.3936 -0.410 -0.805 0.428 84 17 26 0
-6.4749 24.0098 -39.4823 -0.460 -0.831 0.314 81 16 24 0
-0.3185 29.9648 -43.9700 0.252 -0.886 -0.389 64 35 30 0
2.2945 34.1907 -46.3714 0.062 -0.993 -0.100 77 56 35 0
4.4263 35.2553 -47.6337 0.367 -0.804 -0.467 156 140 42 0
4.7404 30.9860 -46.5252 -0.601 -0.776 0.192 189 178 54 0
5.0501 30.6272 -46.5585 -0.700 -0.551 0.455 194 185 56 0
11.4736 47.3394 -54.3113 0.498 -0.698 -0.514 197 189 57 0
16.4516 47.6599 -56.6256 0.318 -0.769 -0.555 198 190 55 0
22.2879 47.8529 -59.2854 -0.500 -0.863 -0.067 171 163 116 0
22.4747 47.6782 -59.3177 -0.528 -0.845 -0.085 184 176 136 0
22.6486 47.4756 -59.3360 -0.555 -0.821 -0.131 187 178 146 0
22.8090 47.2446 -59.3400 -0.576 -0.814 -0.078 190 180 154 0
14.7124 7.6998 -44.1635 0.190 -0.945 -0.265 180 170 158 0
16.9229 8.2230 -45.3026 0.534 -0.741 -0.408 179 167 155 0
18.2470 9.7972 -46.3536 0.540 -0.742 -0.397 179 167 155 0
26.3746 17.6201 -52.2669 0.506 -0.736 -0.449 174 161 149 0
27.2588 18.6667 -52.9674 0.521 -0.755 -0.398 174 161 150 0
25.0558 13.8833 -50.5858 -0.301 -0.949 0.096 171 159 147 0
30.4232 21.4877 -55.2039 -0.065 -0.997 0.041 169 155 144 0
40.0539 32.3562 -62.6784 -0.429 -0.870 -0.245 163 146 135 0
40.2556 32.2734 -62.7442 -0.422 -0.870 -0.256 104 94 89 0
40.4525 32.1838 -62.8058 -0.417 -0.872 -0.257 50 50 49 0
40.8129 32.3341 -63.0105 -0.274 -0.914 -0.298 247 247 245 0
41.0349 32.2807 -63.0939 -0.275 -0.917 -0.288 254 255 255 0
-30.2658 50.9955 -37.0327 -0.039 -0.690 0.723 223 215 206 0
-28.9747 50.0723 -37.3375 -0.627 -0.778 0.047 215 202 195 0
-28.7647 49.7763 -37.3440 -0.590 -0.764 -0.261 213 199 192 0
-28.5530 49.5673 -37.3770 -0.472 -0.807 -0.355 214 196 190 0
-28.3374 49.4919 -37.4511 -0.463 -0.811 -0.357 214 191 187 0
-28.1205 49.4574 -37.5378 0.375 -0.890 -0.259 189 162 160 0
-27.8952 49.6541 -37.6964 0.370 -0.890 -0.265 169 134 135 0
-24.0498 31.0359 -33.9292 -0.702 -0.451 0.551 125 43 57 0
-22.4642 27.6581 -33.6424 -0.111 -0.803 0.585 125 37 53 0
-22.2849 27.5897 -33.7023 -0.111 -0.803 0.585 126 38 54 0
-21.9185 27.5310 -33.8487 0.027 -0.971 0.236 126 38 54 0
-21.7336 27.5171 -33.9272 0.027 -0.971 0.236 123 35 51 0
-21.5620 27.3757 -33.9622 -0.165 -0.974 0.157 122 34 50 0
-18.3498 24.8103 -34.6411 -0.390 -0.818 0.422 118 28 42 0
-18.1773 24.7216 -34.6920 -0.603 -0.679 0.419 119 30 43 0
-17.9949 24.7031 -34.7681 -0.571 -0.728 0.379 115 26 40 0
-17.8157 23.4089 -34.4669 -0.149 -0.981 0.124 121 32 44 0
-15.5613 23.6694 -35.5505 -0.621 -0.783 0.029 100 18 30 0
-15.3917 23.5754 -35.5986 -0.620 -0.784 0.033 101 20 33 0
-15.2124 23.5379 -35.6676 -0.611 -0.791 0.013 104 24 37 0
-14.4892 24.4554 -36.2609 -0.681 -0.581 0.445 97 19 32 0
-13.2971 22.8209 -36.3118 0.043 -0.595 0.803 96 18 31 0
-13.0893 22.9292 -36.4366 0.383 -0.715 0.584 94 16 30 0
-12.9687 22.5954 -36.3921 -0.009 -0.963 -0.271 96 18 32 0
-10.6740 23.6564 -37.7296 -0.536 -0.810 -0.239 92 14 27 0
-10.1860 23.2836 -37.8377 -0.316 -0.949 -0.006 91 13 26 0
-5.2805 26.5374 -40.9873 -0.086 -0.963 0.255 79 18 26 0
-3.8138 26.7406 -41.7023 0.505 -0.713 -0.487 72 19 25 0
-2.1061 29.1244 -43.1672 0.870 -0.490 -0.064 67 25 26 0
-1.6659 29.9169 -43.5973 0.862 -0.483 0.152 66 26 25 0
2.5110 34.3980 -46.7830 0.065 -0.984 -0.167 84 64 37 0
3.1896 34.4348 -47.0970 0.094 -0.970 -0.223 127 107 46 0
10.7407 46.2085 -53.9380 -0.427 -0.736 -0.526 196 187 57 0
11.5088 47.6560 -54.7075 0.498 -0.698 -0.514 198 189 58 0
22.4073 47.6942 -59.5866 -0.551 -0.825 -0.125 185 176 140 0
22.6140 47.5644 -59.6407 -0.551 -0.825 -0.125 187 178 149 0
22.7379 47.2516 -59.6039 -0.568 -0.818 -0.086 190 180 154 0
19.5386 38.5143 -55.6010 0.602 -0.748 0.279 190 180 156 0
13.8180 8.8979 -44.3212 0.408 -0.503 0.762 181 170 164 0
18.6102 11.1547 -47.1265 0.681 -0.382 0.625 181 169 157 0
19.4393 11.8769 -47.7096 0.705 -0.425 0.567 179 167 155 0
25.6262 15.1725 -51.4438 -0.709 -0.587 0.392 173 161 149 0
25.6038 14.8067 -51.3260 -0.715 -0.573 0.401 171 159 147 0
26.2243 15.4363 -51.7886 -0.685 -0.715 -0.142 170 156 147 0
30.3287 21.4218 -55.3851 -0.043 -0.991 0.129 169 155 146 0
40.0536 32.4396 -62.9744 -0.429 -0.870 -0.245 162 145 134 0
40.2498 32.3482 -63.0352 -0.417 -0.872 -0.257 103 94 88 0
40.4551 32.2704 -63.1039 -0.417 -0.872 -0.257 50 50 49 0
40.8111 32.4141 -63.3053 -0.275 -0.917 -0.288 247 247 245 0
41.0346 32.3624 -63.3899 -0.284 -0.911 -0.300 254 255 255 0
-32.1364 35.7060 -31.9307 0.009 -0.608 0.794 231 225 219 0
-29.1568 55.2182 -39.0531 0.339 -0.513 0.789 218 205 200 0
-29.0674 50.0186 -37.5502 -0.525 -0.844 -0.107 216 203 197 0
-28.6387 49.7384 -37.6588 -0.409 -0.805 -0.429 215 197 191 0
-28.4226 49.6649 -37.7336 -0.463 -0.811 -0.357 216 194 189 0
-28.2058 49.6153 -37.8158 -0.423 -0.822 -0.381 206 180 178 0
-28.0014 49.2160 -37.7888 -0.325 -0.803 -0.500 182 149 149 0
-24.2138 32.3815 -34.4874 -0.679 -0.494 0.543 126 44 58 0
-22.3758 27.4070 -33.8333 -0.421 -0.894 -0.154 126 38 54 0
-22.0080 27.3668 -33.9858 -0.043 -0.978 -0.205 127 39 55 0
-21.4358 27.4924 -34.2790 0.044 -0.881 -0.472 128 36 53 0
-21.4073 26.0336 -33.8589 -0.725 -0.596 0.345 124 31 49 0
-20.9014 25.6150 -33.9609 -0.379 -0.817 0.434 124 32 50 0
-20.7241 25.5553 -34.0225 -0.380 -0.818 0.432 122 31 48 0
-20.5538 25.4375 -34.0637 -0.462 -0.819 0.339 117 29 44 0
-20.1661 25.5955 -34.2840 -0.635 -0.521 0.570 118 30 46 0
-19.4295 25.5670 -34.6050 -0.885 -0.462 -0.065 117 28 43 0
-19.1115 26.5817 -35.0483 -0.865 -0.478 0.152 119 28 44 0
-18.2531 24.6802 -34.8680 -0.603 -0.679 0.419 113 25 39 0
-17.8645 23.5449 -34.7049 -0.109 -0.970 0.219 116 28 40 0
-17.6909 23.4786 -34.7628 -0.294 -0.919 0.261 115 28 40 0
-15.8970 23.1830 -35.4774 -0.271 -0.875 -0.401 104 22 34 0
-15.6968 23.2741 -35.5939 -0.262 -0.881 -0.394 103 21 33 0
-15.4154 23.8353 -35.8863 -0.629 -0.751 -0.204 103 21 33 0
-15.2538 23.6926 -35.9162 -0.646 -0.733 -0.211 102 21 34 0
-14.5597 24.4453 -36.4500 -0.687 -0.578 0.440 98 20 33 0
-11.2677 22.9784 -37.4870 -0.293 -0.956 0.009 95 16 29 0
-10.3963 22.6449 -37.7778 -0.388 -0.922 -0.010 92 15 28 0
-8.5154 24.1502 -39.0656 -0.022 -0.975 0.220 85 15 26 0
-8.3377 24.0844 -39.1255 -0.033 -0.988 0.148 84 16 26 0
-5.2675 26.8403 -41.3164 -0.358 -0.855 0.376 78 18 26 0
-3.6098 26.9840 -42.1004 0.583 -0.748 -0.318 70 21 26 0
-3.4117 26.2538 -41.9723 0.672 -0.737 0.066 67 24 25 0
-2.0908 27.9908 -43.0784 0.569 -0.819 -0.080 66 27 25 0
3.1516 34.5364 -47.3653 0.089 -0.972 -0.215 133 113 50 0
10.4938 46.4373 -54.1803 -0.396 -0.748 -0.532 195 186 60 0
10.9001 46.8757 -54.4921 -0.475 -0.733 -0.487 196 187 59 0
11.4511 47.7135 -54.9871 0.499 -0.702 -0.508 198 189 60 0
25.5233 34.3244 -57.3076 0.870 -0.493 0.006 189 176 167 0
20.5440 12.4490 -48.5896 0.651 -0.254 0.715 182 166 156 0
25.1332 16.8418 -51.9455 0.664 -0.732 -0.150 175 163 153 0
25.4387 14.9561 -51.5225 0.505 -0.852 0.140 171 159 147 0
25.5903 14.8608 -51.5621 -0.719 -0.510 0.472 171 159 147 0
26.2090 15.4877 -52.0248 -0.686 -0.714 -0.138 172 158 149 0
41.0157 37.5480 -65.1927 -0.937 -0.176 0.301 169 155 146 0
39.6967 32.7614 -63.1824 -0.112 -0.975 -0.194 165 148 138 0
39.8499 32.6047 -63.2045 -0.429 -0.870 -0.245 164 147 137 0
40.2502 32.4323 -63.3324 -0.430 -0.867 -0.250 104 95 89 0
40.4555 32.3539 -63.4009 -0.426 -0.867 -0.257 50 50 49 0
40.6594 32.2737 -63.4683 -0.426 -0.867 -0.257 247 247 245 0
41.0447 32.4593 -63.6957 -0.286 -0.913 -0.292 254 255 255 0
-31.8166 39.5700 -33.4666 0.110 -0.737 0.667 229 223 217 0
-28.9352 50.1985 -37.9335 -0.402 -0.804 -0.438 217 202 195 0
-28.7239 49.9366 -37.9499 -0.409 -0.805 -0.429 217 200 193 0
-28.5052 49.9332 -38.0468 -0.446 -0.793 -0.415 215 196 190 0
-28.2890 49.8488 -38.1184 -0.416 -0.827 -0.379 212 189 185 0
-28.0821 49.4977 -38.1061 -0.465 -0.674 -0.574 189 159 157 0
-27.8667 49.4087 -38.1759 -0.465 -0.674 -0.574 171 133 133 0
-26.6932 37.8689 -35.2525 -0.989 -0.128 0.080 143 77 87 0
-26.2018 35.9151 -34.8886 -0.933 -0.136 0.333 140 66 82 0
-26.0540 35.0584 -34.6987 -0.734 -0.338 0.588 140 63 79 0
-25.8880 34.5589 -34.6238 -0.774 -0.309 0.553 138 61 76 0
-25.4774 34.8859 -34.9054 -0.577 -0.098 0.811 134 56 72 0
-25.3304 34.1288 -34.7449 -0.876 -0.103 0.471 133 55 68 0
-24.5101 32.0186 -34.4815 -0.508 -0.651 0.565 126 46 58 0
-23.5795 29.3697 -34.1066 -0.322 -0.604 0.729 127 40 56 0
-23.2216 31.3412 -34.8561 0.092 -0.720 0.688 128 40 55 0
-23.0430 31.1898 -34.8908 -0.061 -0.600 0.797 126 38 54 0
-22.8631 31.0574 -34.9318 -0.055 -0.604 0.795 125 37 53 0
-22.7018 30.7243 -34.9045 -0.312 -0.499 0.809 125 36 53 0
-22.4515 27.3795 -34.0169 -0.204 -0.977 -0.069 125 37 53 0
-22.0766 27.4101 -34.1939 -0.093 -0.985 -0.145 127 39 56 0
-20.9711 25.6288 -34.1565 -0.725 -0.677 -0.126 125 36 52 0
-20.6310 25.3854 -34.2361 -0.654 -0.755 -0.048 119 31 47 0
-19.1919 26.5134 -35.2176 -0.690 -0.684 -0.236 118 27 44 0
-17.9041 23.7454 -34.9671 -0.406 -0.909 0.089 115 27 41 0
-14.4056 23.6005 -36.4904 -0.429 -0.870 0.242 99 21 34 0
-11.6245 22.5024 -37.4075 -0.324 -0.927 0.187 92 13 27 0
-8.5399 25.1416 -39.5776 -0.050 -0.983 0.179 85 13 26 0
-8.3121 25.2762 -39.7199 -0.300 -0.707 -0.640 85 14 27 0
-3.8629 26.3242 -42.0254 0.551 -0.834 0.013 69 21 29 0
-3.5499 26.0039 -42.0699 0.454 -0.885 -0.103 66 24 25 0
10.2860 46.0680 -54.2623 -0.164 -0.914 -0.371 195 186 59 0
10.7867 46.7756 -54.6980 -0.430 -0.736 -0.523 197 188 59 0
13.8174 46.7553 -56.0491 -0.561 -0.550 0.619 204 195 66 0
14.0516 46.7012 -56.1378 -0.541 -0.602 0.587 202 193 62 0
10.3845 14.8654 -44.9807 0.119 -0.573 -0.811 192 182 165 0
27.9795 38.6069 -59.9555 0.871 -0.492 0.012 188 177 168 0
18.5855 10.6042 -47.3795 0.782 -0.347 0.518 176 163 154 0
19.2139 11.3239 -47.8760 0.784 -0.337 0.522 177 165 153 0
20.0349 12.0217 -48.4522 0.787 -0.325 0.524 179 165 154 0
23.2242 15.2224 -50.8370 0.288 -0.942 -0.175 176 163 155 0
27.5316 19.6884 -54.1006 0.020 -0.989 0.145 173 161 150 0
24.6496 14.7947 -51.3475 0.495 -0.543 0.678 172 160 148 0
25.2453 14.7303 -51.5950 0.505 -0.858 0.098 172 160 148 0
25.5101 14.8113 -51.7378 -0.719 -0.510 0.472 171 159 147 0
39.6786 32.8196 -63.4647 -0.112 -0.975 -0.194 165 148 138 0
39.8494 32.6887 -63.5020 -0.429 -0.870 -0.245 164 147 137 0
40.2515 32.5179 -63.6310 -0.430 -0.867 -0.250 104 96 90 0
40.4585 32.4415 -63.7009 -0.426 -0.867 -0.257 50 50 49 0
40.6370 32.3236 -63.7456 -0.398 -0.891 -0.218 247 247 245 0
41.0232 32.5102 -63.9743 -0.297 -0.914 -0.275 254 255 255 0
-66.9440 59.1308 -23.8512 -0.575 -0.818 -0.026 235 223 222 0
-30.7711 50.2686 -37.4026 -0.207 -0.595 0.777 226 217 208 0
-29.1303 54.7999 -39.5023 0.561 -0.695 0.449 216 203 196 0
-29.0272 50.1783 -38.1573 -0.574 -0.818 -0.047 216 202 195 0
-28.3787 49.8903 -38.3614 -0.415 -0.762 -0.497 211 192 185 0
-28.1622 49.8133 -38.4353 -0.422 -0.760 -0.494 199 175 170 0
-27.9462 49.7220 -38.5047 -0.420 -0.762 -0.493 178 145 143 0
-27.3434 48.3616 -38.3655 -0.811 -0.577 0.096 166 113 118 0
-25.5875 34.3913 -34.9474 -0.551 -0.115 0.827 135 59 72 0
-25.4051 34.1922 -34.9692 -0.868 -0.097 0.487 136 59 72 0
-23.4465 31.8559 -35.1441 -0.656 -0.199 0.728 128 41 57 0
-23.3155 31.1331 -34.9852 0.002 -0.660 0.751 128 40 56 0
-22.9973 30.4013 -34.9076 0.128 -0.517 0.846 125 37 54 0
-22.5096 27.5347 -34.2634 -0.240 -0.969 0.058 124 36 53 0
-22.3305 27.4623 -34.3219 -0.193 -0.975 0.111 126 37 55 0
-21.7804 27.3758 -34.5425 -0.194 -0.972 0.135 128 38 56 0
-21.5913 27.3991 -34.6343 -0.157 -0.982 0.102 126 36 54 0
-21.4129 27.3209 -34.6908 -0.222 -0.971 0.087 125 35 53 0
-21.3379 26.2948 -34.4155 -0.563 -0.755 -0.336 123 35 51 0
-18.8645 23.9354 -34.8143 0.207 -0.925 0.319 118 27 42 0
-18.6961 23.8265 -34.8570 -0.209 -0.820 0.533 115 25 40 0
-18.5179 23.7894 -34.9257 -0.143 -0.969 0.203 116 28 42 0
-18.3372 23.7695 -35.0008 0.029 -0.997 -0.076 114 26 41 0
-18.1615 23.7143 -35.0629 0.064 -0.991 -0.118 114 26 40 0
-15.2176 24.6982 -36.6791 -0.581 -0.626 -0.520 101 19 31 0
-14.4796 23.5679 -36.6697 -0.429 -0.874 0.228 98 20 33 0
-14.3548 23.2288 -36.6236 -0.198 -0.951 -0.236 97 19 33 0
-14.0465 22.8813 -36.6573 -0.122 -0.964 -0.238 98 17 31 0
-11.6802 22.5536 -37.6196 -0.247 -0.928 -0.280 96 18 32 0
-9.8689 23.8807 -38.8313 -0.360 -0.927 -0.105 91 15 28 0
-8.5739 25.2831 -39.8341 -0.147 -0.989 0.034 86 12 26 0
-3.9094 26.3977 -42.2610 0.475 -0.773 0.422 69 21 29 0
-3.3483 26.2358 -42.4639 0.646 -0.691 0.325 65 25 25 0
-1.4620 29.1736 -44.1940 0.347 -0.937 -0.036 62 31 28 0
3.3576 34.2356 -47.8788 0.262 -0.848 -0.461 149 132 40 0
6.4772 42.3113 -51.7085 -0.792 -0.516 -0.328 160 146 42 0
9.6173 45.8044 -54.1680 0.303 -0.789 -0.534 191 179 57 0
10.0736 46.3972 -54.5510 -0.270 -0.915 -0.300 194 183 59 0
13.5997 47.0579 -56.3310 -0.439 -0.585 0.682 204 195 66 0
16.3236 45.5345 -57.0937 -0.208 -0.962 -0.178 183 176 57 0
16.2444 44.7100 -56.8101 -0.030 -0.994 0.107 180 172 56 0
26.3354 36.1026 -58.7436 0.867 -0.429 0.255 188 176 165 0
18.1005 9.8683 -47.1540 0.783 -0.340 0.521 175 164 154 0
23.2710 15.3790 -51.1312 0.234 -0.955 -0.183 176 163 154 0
25.0125 14.7743 -51.7300 0.408 -0.913 -0.017 171 158 148 0
25.5671 15.3078 -52.1393 -0.692 -0.698 -0.183 170 158 148 0
39.6666 32.8872 -63.7531 -0.098 -0.978 -0.185 165 150 139 0
39.8489 32.7728 -63.8004 -0.429 -0.870 -0.245 164 149 138 0
40.0527 32.6911 -63.8672 -0.429 -0.870 -0.245 164 149 138 0
40.2569 32.6099 -63.9343 -0.426 -0.867 -0.257 105 97 91 0
40.4614 32.5294 -64.0017 -0.426 -0.867 -0.257 50 50 49 0
40.6300 32.3961 -64.0372 -0.388 -0.889 -0.241 247 247 245 0
41.0278 32.5996 -64.2768 -0.297 -0.914 -0.275 254 255 255 0
-67.0759 59.2312 -24.0912 -0.575 -0.818 -0.026 235 223 223 0
-31.0790 50.4137 -37.5790 -0.486 -0.547 0.681 227 218 211 0
-30.8636 50.2289 -37.6196 -0.489 -0.550 0.677 226 217 210 0
-29.1136 50.3789 -38.4508 -0.284 -0.952 0.113 213 201 193 0
-28.6729 50.4303 -38.6642 -0.605 -0.793 -0.066 212 199 190 0
-28.4575 50.2875 -38.7176 -0.592 -0.803 -0.076 209 193 185 0
-28.0230 50.1286 -38.8645 -0.580 -0.811 -0.080 192 162 159 0
-27.8075 50.0054 -38.9239 -0.572 -0.816 -0.081 173 135 134 0
-27.3771 49.7600 -39.0428 -0.549 -0.836 0.004 165 115 119 0
-26.4867 37.2997 -35.6648 -0.991 -0.065 0.114 145 74 87 0
-24.8562 32.0157 -34.7949 -0.580 -0.604 0.546 133 55 68 0
-24.4828 31.8753 -34.9200 -0.470 -0.582 0.664 124 45 56 0
-23.4055 30.9693 -35.1289 0.002 -0.660 0.751 130 42 58 0
-23.2472 30.5877 -35.0843 -0.308 -0.494 0.813 130 41 58 0
-19.3413 23.6265 -34.7274 0.311 -0.873 0.376 121 30 45 0
-19.1225 23.8975 -34.9078 0.080 -0.963 0.258 120 29 44 0
-18.4198 23.6759 -35.1561 -0.382 -0.921 0.081 116 29 42 0
-18.2359 23.6783 -35.2394 -0.313 -0.935 0.167 116 28 42 0
-17.5411 24.6403 -35.8430 -0.382 -0.916 0.124 114 26 40 0
-16.2260 23.5521 -36.1035 -0.111 -0.989 -0.096 111 23 37 0
-15.7360 24.2622 -36.5388 -0.231 -0.955 -0.185 107 22 35 0
-14.5581 23.5108 -36.8398 -0.402 -0.872 0.280 100 19 34 0
-14.4053 23.3240 -36.8518 -0.347 -0.786 0.512 98 17 32 0
-14.2494 23.1566 -36.8710 -0.183 -0.979 -0.094 98 17 32 0
-14.0618 23.1616 -36.9567 -0.091 -0.983 -0.157 98 18 31 0
-13.8760 23.1556 -37.0383 -0.100 -0.984 -0.146 97 17 30 0
-13.1514 23.9950 -37.6181 -0.590 -0.738 -0.328 93 17 29 0
-12.2728 22.7343 -37.6304 -0.343 -0.936 -0.085 91 18 29 0
-12.0989 22.6668 -37.6880 -0.157 -0.919 -0.361 92 18 30 0
-11.1880 24.2917 -38.5896 -0.719 -0.401 0.569 91 13 27 0
-1.8455 28.8145 -44.1551 0.461 -0.870 -0.173 65 30 29 0
-1.5355 29.1570 -44.3982 0.366 -0.928 -0.069 64 33 30 0
3.1962 34.6439 -48.1860 -0.093 -0.851 -0.518 144 127 39 0
3.2447 34.1070 -48.0450 0.295 -0.870 -0.394 150 134 40 0
6.4345 42.4119 -51.9949 -0.750 -0.566 -0.343 160 146 42 0
9.6147 46.0208 -54.5168 0.297 -0.787 -0.542 191 179 58 0
9.3867 44.6516 -53.9993 0.585 -0.711 -0.390 193 182 59 0
12.4202 49.6507 -56.8768 0.680 -0.632 -0.372 202 189 62 0
14.3799 45.3109 -56.4410 0.630 -0.715 -0.303 193 188 59 0
16.2204 45.4652 -57.3140 -0.174 -0.960 -0.217 182 175 58 0
16.1318 44.6164 -57.0169 -0.038 -0.989 0.140 179 172 58 0
19.9695 48.2522 -59.8421 -0.814 -0.560 0.152 152 148 70 0
20.7914 13.7855 -49.7616 -0.115 -0.828 -0.549 174 163 153 0
33.8191 29.8134 -60.4698 0.152 -0.472 0.869 174 161 152 0
34.0999 29.8660 -60.6118 0.430 -0.561 0.708 173 160 151 0
34.5282 30.1498 -60.8901 0.415 -0.552 0.724 173 160 151 0
39.6618 32.9658 -64.0487 -0.107 -0.973 -0.203 165 151 138 0
39.8498 32.8594 -64.1008 -0.426 -0.867 -0.257 163 149 137 0
40.0547 32.7787 -64.1683 -0.426 -0.867 -0.257 163 149 137 0
40.4638 32.6165 -64.3028 -0.421 -0.868 -0.264 50 50 49 0
40.6599 32.5233 -64.3626 -0.383 -0.888 -0.253 247 247 245 0
41.0405 32.7011 -64.5874 -0.290 -0.918 -0.269 254 255 255 0
-67.2086 59.3338 -24.3321 -0.583 -0.812 -0.027 235 223 223 0
-31.1796 49.5530 -37.5420 -0.280 -0.593 0.755 227 218 212 0
-30.9566 50.1499 -37.8245 -0.472 -0.525 0.708 226 217 210 0
-30.5993 44.9169 -36.3873 -0.210 -0.598 0.774 222 213 206 0
-30.0910 49.8482 -38.1215 -0.555 -0.614 0.561 222 210 204 0
-29.1880 51.0615 -38.8978 -0.280 -0.956 0.089 212 202 193 0
-28.9930 50.1136 -38.6961 -0.597 -0.802 0.030 211 201 192 0
-28.7621 50.5198 -38.9239 -0.605 -0.793 -0.066 210 199 190 0
-28.5446 50.4323 -38.9950 -0.548 -0.828 -0.121 208 195 186 0
