ply
format ascii 1.0
element vertex 813
property float x
property float y
property float z
property float nx
property float ny
property float nz
property uchar diffuse_red
property uchar diffuse_green
property uchar diffuse_blue
property uchar class
end_header
-6.8338 32.8823 -51.4044 0.280 -0.844 -0.458 80 51 59 0
-4.2074 39.6001 -55.2000 -0.682 -0.496 -0.537 79 60 64 0
-1.5061 45.4665 -58.7196 -0.297 -0.949 0.105 99 83 88 0
-1.2852 45.3867 -58.8013 -0.026 -0.981 0.194 104 90 93 0
-6.4732 21.2174 -47.2889 -0.718 -0.694 0.053 155 149 149 0
-2.8758 27.0550 -51.2486 -0.120 -0.909 0.398 173 174 167 0
-1.8674 28.1142 -52.1460 -0.437 -0.823 -0.363 178 179 171 0
7.1981 40.7227 -61.3500 -0.045 -0.989 0.140 183 184 170 0
7.9252 41.3078 -61.9312 -0.621 -0.406 0.670 185 186 172 0
8.0904 33.4263 -59.1111 -0.629 -0.459 0.627 180 182 171 0
24.5111 29.7951 -66.0325 0.841 -0.496 0.215 177 169 158 0
25.3601 30.7858 -66.8244 0.820 -0.549 0.159 175 166 156 0
25.2995 30.2657 -66.6023 0.758 -0.648 -0.077 174 164 155 0
18.5749 13.4951 -57.0426 0.272 -0.912 0.307 170 157 149 0
19.7249 14.9363 -58.1518 0.535 -0.824 0.184 169 156 148 0
22.4091 18.3728 -60.7677 0.632 -0.733 0.251 166 153 144 0
23.9225 19.6192 -61.9880 0.619 -0.747 0.243 166 155 143 0
22.0341 14.0798 -58.9977 -0.814 -0.542 0.209 162 147 140 0
16.0392 3.2565 -51.9957 -0.713 -0.680 -0.170 157 143 132 0
15.6155 2.3714 -51.4566 -0.782 -0.609 -0.134 157 143 132 0
15.6010 2.0742 -51.3398 -0.857 -0.514 -0.035 156 144 132 0
-31.0171 40.1326 -42.1718 0.416 -0.625 0.661 225 212 212 0
-27.8133 52.9836 -48.5483 -0.089 -0.774 0.627 210 194 194 0
-25.6469 38.5948 -44.3068 0.300 -0.949 -0.095 151 80 93 0
-25.4838 38.1982 -44.2419 0.439 -0.713 0.547 149 76 89 0
-25.2032 38.8982 -44.6427 0.203 -0.964 0.169 150 75 86 0
-24.3107 32.6864 -42.7901 -0.828 -0.420 -0.372 143 67 80 0
-24.1793 32.1640 -42.6626 -0.588 -0.765 -0.263 147 70 85 0
-20.8480 28.2869 -42.9036 0.115 -0.965 -0.235 119 41 55 0
-20.5872 28.6981 -43.1874 0.131 -0.974 -0.183 119 41 55 0
-20.1796 28.8122 -43.4350 0.638 -0.748 0.184 117 39 53 0
-18.8881 28.3897 -43.9289 -0.323 -0.931 -0.170 109 32 48 0
-15.5458 28.3274 -45.5893 -0.200 -0.896 0.397 95 33 46 0
-7.3543 32.8502 -51.3914 0.327 -0.886 -0.330 79 46 54 0
-7.1100 32.9468 -51.5502 0.334 -0.881 -0.336 80 49 57 0
-7.0745 32.3131 -51.3333 0.552 -0.833 -0.038 81 54 61 0
-6.7542 32.6731 -51.6280 0.617 -0.787 -0.023 80 56 62 0
-6.4564 32.9502 -51.8807 0.500 -0.849 -0.171 81 60 65 0
-4.1558 40.0565 -55.6732 -0.677 -0.498 -0.542 83 64 68 0
-4.1376 39.3286 -55.4125 -0.602 -0.491 -0.630 86 69 72 0
-1.6614 45.2371 -58.8496 -0.279 -0.954 0.108 103 88 93 0
-1.5593 44.7667 -58.7266 0.014 -0.981 -0.194 108 96 99 0
-3.1751 37.1790 -55.1007 -0.712 -0.702 -0.019 125 115 116 0
-2.2898 26.5060 -51.5910 -0.538 -0.700 -0.469 179 181 170 0
8.4481 33.8821 -59.7332 -0.613 -0.656 0.440 180 182 171 0
7.8246 25.2074 -56.2042 -0.428 -0.885 0.183 182 177 166 0
8.2299 21.8545 -55.1657 -0.967 -0.120 0.225 180 178 166 0
9.2524 15.0344 -53.1531 -0.693 -0.647 0.318 184 175 167 0
13.2833 19.3578 -56.7857 -0.735 -0.665 0.136 180 173 162 0
14.6849 21.5091 -58.2889 0.881 -0.285 0.378 180 173 161 0
13.5088 18.9696 -56.7554 -0.651 -0.696 0.302 180 173 162 0
9.0556 7.4019 -50.2253 -0.207 -0.146 0.968 179 169 159 0
15.7860 10.2201 -54.6597 -0.946 -0.146 0.288 170 157 150 0
19.6065 14.8380 -58.2955 0.529 -0.823 0.208 168 155 147 0
21.4325 17.3101 -60.1314 0.642 -0.733 -0.223 167 154 146 0
22.2253 18.1779 -60.8523 0.671 -0.702 0.240 166 153 144 0
22.1944 17.7800 -60.6893 0.520 -0.390 0.760 163 153 142 0
22.8727 18.4643 -61.2846 0.560 -0.624 0.546 164 154 142 0
23.7482 19.4418 -62.0878 0.606 -0.765 0.218 163 153 141 0
14.6492 1.6058 -50.8945 -0.059 -0.732 -0.679 159 145 135 0
15.4447 2.4706 -51.6158 -0.804 -0.529 0.272 157 143 132 0
15.5751 2.1018 -51.5448 -0.821 -0.520 0.234 155 143 131 0
34.7067 27.1066 -70.4481 -0.945 -0.327 -0.003 247 247 246 0
-29.8229 41.1628 -43.4186 -0.281 -0.485 0.828 221 207 207 0
-27.9913 43.4595 -45.1988 -0.144 -0.912 0.384 205 186 184 0
-25.7924 42.0947 -45.7991 -0.920 -0.132 -0.369 160 97 108 0
-25.7977 37.9723 -44.2593 0.462 -0.618 0.636 153 83 96 0
-25.5417 38.4632 -44.5715 -0.161 -0.497 0.853 150 79 91 0
-25.2945 38.8520 -44.8411 -0.108 -0.562 0.820 151 78 89 0
-25.0907 38.8296 -44.9356 -0.846 -0.314 -0.430 151 78 89 0
-24.3427 33.0886 -43.1722 -0.828 -0.420 -0.372 140 63 79 0
-24.2426 32.3047 -42.9304 -0.588 -0.765 -0.263 139 62 80 0
-24.0489 32.2852 -43.0209 -0.847 -0.474 -0.240 136 59 76 0
-18.9578 28.4285 -44.1508 -0.325 -0.923 -0.208 109 32 50 0
-17.7400 27.6226 -44.4646 0.156 -0.977 -0.147 104 33 47 0
-17.5511 27.5879 -44.5469 0.071 -0.989 -0.129 102 32 47 0
-17.3393 27.6681 -44.6836 -0.590 -0.782 0.199 100 31 46 0
-15.6343 28.2682 -45.7674 -0.200 -0.896 0.397 96 34 47 0
-7.6082 32.9938 -51.5778 0.195 -0.756 -0.625 79 47 55 0
-1.6454 43.1726 -58.3808 0.046 -0.961 -0.271 125 114 115 0
-2.7020 26.1360 -51.4954 0.606 -0.703 0.372 179 180 173 0
5.7978 35.1149 -59.1307 -0.871 -0.388 0.302 182 182 171 0
7.7504 32.9736 -59.3172 -0.669 -0.744 0.008 180 181 172 0
9.0428 29.5291 -58.6847 -0.987 -0.110 0.119 179 177 166 0
8.5919 13.1231 -52.3400 0.865 -0.386 0.320 183 174 166 0
10.3045 15.1661 -53.9656 0.785 -0.617 -0.056 180 168 163 0
10.1134 14.4273 -53.5937 0.873 -0.450 0.187 179 167 162 0
8.8168 7.7551 -50.4519 -0.299 -0.135 0.945 178 169 160 0
9.2978 7.9137 -50.7536 0.435 -0.873 -0.219 179 169 159 0
9.9511 8.3651 -51.2515 -0.094 -0.987 -0.133 178 168 156 0
19.3188 14.4776 -58.2558 0.066 -0.998 -0.013 167 154 146 0
21.9182 17.4439 -60.6729 0.520 -0.390 0.760 164 154 144 0
22.2895 17.6622 -60.9416 0.567 -0.627 0.535 164 154 144 0
21.1406 14.5619 -59.2061 -0.681 -0.511 0.524 160 150 142 0
23.9355 16.6991 -61.4127 0.423 -0.118 0.898 160 145 137 0
25.7088 18.9552 -63.1484 0.472 -0.220 0.854 159 145 136 0
-27.8222 44.0567 -45.7786 -0.188 -0.735 0.651 205 184 185 0
-25.6016 54.2837 -50.7368 -0.902 -0.157 -0.402 189 149 159 0
-25.5856 45.0701 -47.2885 -0.910 -0.141 -0.389 165 107 117 0
-25.9673 37.1601 -44.1285 0.313 -0.629 0.712 157 92 103 0
-25.7399 37.3952 -44.3316 0.195 -0.696 0.691 155 87 98 0
-24.5467 37.1305 -44.8350 -0.849 -0.295 -0.439 151 78 89 0
-24.3062 32.4459 -43.1991 -0.588 -0.765 -0.263 141 63 80 0
-22.8381 33.0884 -44.1817 -0.764 -0.398 -0.507 131 54 70 0
-20.9143 28.8322 -43.5568 -0.080 -0.997 -0.007 122 43 56 0
-20.4122 28.3451 -43.6277 0.606 -0.793 0.063 122 41 56 0
-20.1939 28.4891 -43.7920 0.603 -0.796 0.057 118 39 53 0
-16.8549 27.5236 -45.1165 -0.586 -0.727 0.358 99 37 52 0
-16.1750 29.8762 -46.3424 -0.285 -0.747 -0.601 97 36 51 0
-15.8472 29.5152 -46.3726 -0.858 -0.311 -0.409 97 36 51 0
-15.7228 28.2090 -45.9454 -0.200 -0.896 0.397 98 37 49 0
-15.4401 28.5973 -46.2339 0.312 -0.857 -0.410 97 35 48 0
-14.1464 28.1044 -46.7024 0.116 -0.949 0.294 97 35 48 0
-12.5492 29.7159 -48.1138 -0.085 -0.766 0.637 92 38 46 0
-6.7480 33.2324 -52.3633 0.251 -0.876 -0.412 89 68 75 0
-2.8457 38.7673 -56.4107 -0.454 -0.874 0.176 134 124 125 0
-2.2896 39.8100 -57.0827 -0.322 -0.946 0.033 137 129 130 0
7.2983 38.4652 -61.4213 -0.723 -0.676 -0.142 182 182 172 0
3.0338 5.1945 -46.7865 0.605 -0.691 0.396 181 172 165 0
9.8395 17.1758 -54.7188 -0.677 -0.313 0.666 182 173 166 0
10.0898 15.2636 -54.1278 0.467 -0.147 0.872 180 169 163 0
8.1371 10.5141 -51.3598 0.877 -0.280 0.390 180 170 162 0
7.3599 6.6342 -49.5118 0.747 -0.648 0.148 177 171 159 0
8.7329 7.3596 -50.4774 -0.374 -0.113 0.921 177 166 157 0
9.8151 8.2212 -51.3473 -0.212 -0.975 -0.060 176 167 154 0
8.0567 4.5359 -49.0766 -0.660 -0.614 0.432 175 165 153 0
8.0287 1.6753 -47.9894 0.560 -0.803 -0.204 171 161 152 0
9.2451 2.7585 -49.0101 0.561 -0.785 -0.264 169 159 151 0
18.4403 13.5379 -57.6985 0.235 -0.817 0.527 167 154 146 0
18.8184 13.7872 -57.9830 0.227 -0.685 0.693 166 153 145 0
18.3249 12.3583 -57.1978 0.629 -0.260 0.732 165 153 145 0
20.5304 13.3972 -58.7015 -0.698 -0.561 0.445 161 148 140 0
-30.6947 39.8173 -42.9979 0.351 -0.415 0.840 226 211 214 0
-27.9650 43.4142 -45.7361 -0.035 -0.836 0.547 208 187 189 0
-27.2348 49.7224 -48.4861 -0.852 -0.432 0.296 207 185 189 0
-25.3065 53.5286 -50.8980 -0.901 -0.147 -0.408 180 135 145 0
-25.1023 38.4155 -45.2977 -0.810 -0.330 0.485 155 84 98 0
-24.5885 37.5047 -45.2139 -0.461 -0.826 0.323 151 78 89 0
-24.3878 37.4678 -45.3015 -0.479 -0.840 0.254 147 72 83 0
-20.9700 28.9688 -43.8230 -0.055 -0.998 -0.034 122 42 55 0
-16.1962 30.1504 -46.6837 -0.286 -0.749 -0.597 96 38 51 0
-16.5008 26.7506 -45.2466 -0.209 -0.969 -0.133 96 38 50 0
-15.4941 28.7008 -46.4918 0.312 -0.857 -0.410 98 37 49 0
-14.2369 28.0390 -46.8780 0.116 -0.949 0.294 97 37 49 0
-12.6628 29.5611 -48.2487 -0.087 -0.773 0.628 95 44 50 0
-12.1277 30.0697 -48.7113 0.459 -0.841 -0.287 90 41 47 0
-11.8729 30.2648 -48.9138 -0.372 -0.825 -0.426 92 42 50 0
-11.4886 30.1418 -49.0618 -0.101 -0.961 -0.256 91 41 52 0
-1.8758 41.4118 -58.1776 -0.527 -0.850 -0.007 141 135 136 0
-1.7249 41.1307 -58.1479 -0.560 -0.825 -0.080 146 142 143 0
-1.4691 38.9466 -57.4530 0.333 -0.309 0.891 160 156 158 0
-1.2862 38.7855 -57.4847 0.141 -0.237 0.961 162 159 160 0
-7.5058 17.6931 -46.3785 -0.125 -0.687 0.716 169 165 164 0
-1.9732 21.6275 -50.6620 -0.418 -0.853 -0.313 183 184 175 0
5.9643 30.7347 -58.1141 -0.610 -0.550 -0.571 179 181 170 0
3.7989 21.9868 -53.7173 -0.777 -0.578 0.247 179 179 170 0
7.3472 25.0908 -56.6837 -0.225 -0.965 0.132 176 178 166 0
7.1017 23.5879 -55.9923 -0.707 -0.705 0.051 172 175 164 0
4.0932 8.0924 -48.6226 -0.165 -0.153 0.974 184 175 166 0
9.7966 14.8253 -54.0486 0.468 -0.147 0.871 180 169 163 0
10.0039 14.0555 -53.8629 0.397 -0.482 0.781 179 169 160 0
7.1585 6.3672 -49.5221 0.752 -0.643 0.144 176 168 157 0
8.0475 4.9305 -49.4296 -0.754 -0.589 0.291 174 164 152 0
7.2626 2.9441 -48.2829 -0.894 -0.442 0.077 174 164 152 0
8.1553 2.5766 -48.5958 -0.362 -0.931 0.051 172 162 151 0
9.1938 2.7534 -49.1878 0.583 -0.783 -0.216 166 157 148 0
17.9234 12.8178 -57.4019 0.647 -0.187 0.740 166 153 144 0
27.4976 22.8147 -66.0178 -0.563 -0.495 0.662 156 142 134 0
24.1001 17.4422 -62.2716 -0.581 -0.736 0.348 155 142 133 0
38.2147 31.8715 -74.8569 -0.707 -0.695 -0.129 254 255 255 0
-28.1144 45.3730 -46.6751 -0.682 -0.728 0.075 208 192 194 0
-25.1289 53.9856 -51.4573 -0.903 -0.146 -0.404 179 134 143 0
-24.8125 36.2928 -44.9004 -0.612 -0.104 0.784 151 78 90 0
-24.4913 37.3111 -45.4497 -0.062 -0.735 0.676 148 73 85 0
-24.3649 33.2967 -43.9896 -0.523 -0.814 0.255 143 66 81 0
-24.1477 33.4508 -44.1582 -0.747 -0.562 0.354 141 63 78 0
-22.9629 34.8708 -45.2975 -0.133 -0.356 0.925 133 56 72 0
-22.7524 34.9299 -45.4265 0.116 -0.334 0.935 132 55 71 0
-22.5682 34.7935 -45.4681 -0.354 -0.309 0.882 131 54 70 0
-22.0635 28.6609 -43.3955 -0.513 -0.693 0.506 124 46 61 0
-15.1116 29.8985 -47.3870 -0.199 -0.714 -0.671 99 38 49 0
-12.7832 29.3772 -48.3686 -0.020 -0.880 0.474 99 47 55 0
-12.3754 29.3674 -48.5714 0.166 -0.933 0.320 92 42 49 0
-4.2252 40.1521 -56.7946 -0.021 -0.815 0.580 106 93 102 0
-3.9965 40.1353 -56.9041 -0.023 -0.805 0.593 108 97 105 0
-3.7858 40.0568 -56.9810 -0.084 -0.934 0.347 118 108 114 0
-2.6564 39.9149 -57.4993 -0.186 -0.862 -0.471 141 135 136 0
-2.3336 40.1986 -57.7705 -0.275 -0.911 -0.308 144 140 141 0
-5.1189 29.1059 -52.1481 -0.059 -0.958 -0.281 156 153 156 0
-2.5954 36.3900 -56.1919 0.387 -0.736 0.556 158 155 158 0
1.9697 25.4836 -54.3637 0.312 -0.414 0.855 183 184 174 0
7.6424 36.6923 -61.4929 -0.523 -0.781 -0.341 180 180 171 0
5.1608 30.0742 -57.7231 -0.213 -0.897 -0.388 180 180 170 0
6.0776 30.0814 -58.1903 -0.335 -0.855 -0.396 179 180 167 0
3.8823 21.8411 -53.9497 -0.759 -0.627 0.174 176 176 167 0
3.9955 21.6134 -53.9207 -0.607 -0.736 0.300 177 177 168 0
7.1260 23.3082 -56.1499 -0.843 -0.537 -0.016 174 176 167 0
13.5241 34.0137 -63.4554 -0.484 -0.835 -0.262 178 173 167 0
14.6782 34.3680 -64.1746 -0.728 -0.662 -0.178 179 173 166 0
3.6526 8.0768 -48.6077 -0.468 -0.303 0.830 182 173 163 0
3.7865 7.9682 -48.6343 -0.452 -0.301 0.840 183 174 164 0
4.2381 8.4839 -49.0588 -0.181 -0.083 0.980 183 174 164 0
4.1990 8.0351 -48.8686 -0.158 -0.098 0.983 182 173 162 0
14.1784 17.0845 -57.3596 -0.702 -0.424 -0.572 177 164 157 0
9.1301 6.2191 -50.6771 -0.684 -0.634 -0.361 173 163 151 0
8.1995 2.7310 -48.8814 -0.362 -0.927 0.095 171 161 150 0
8.3450 2.6639 -48.9297 -0.343 -0.938 0.048 171 161 150 0
8.6558 2.8701 -49.1654 0.549 -0.834 0.062 169 161 149 0
8.8568 2.8936 -49.2761 0.594 -0.798 0.103 167 159 147 0
9.1744 2.8006 -49.4017 0.590 -0.784 -0.195 164 155 145 0
30.4066 34.0158 -72.0085 0.765 -0.420 0.488 163 152 144 0
16.5867 11.8118 -56.5778 0.775 -0.260 0.576 166 153 144 0
17.4679 11.5304 -56.9173 0.648 -0.177 0.741 163 150 141 0
32.0802 30.0831 -71.3632 0.774 -0.456 0.440 155 142 133 0
34.4820 28.2318 -71.8770 -0.947 -0.321 0.029 152 132 122 0
38.2355 31.9879 -75.2045 -0.701 -0.703 -0.121 254 255 255 0
-31.4048 54.3068 -48.6936 -0.616 -0.470 -0.632 228 217 219 0
-29.5625 41.1759 -44.6132 -0.280 -0.306 0.910 218 206 207 0
-27.5114 43.4134 -46.5083 0.142 -0.954 -0.265 203 182 187 0
-25.0432 53.4847 -51.6069 -0.938 -0.100 -0.333 179 135 143 0
-24.9048 36.2239 -45.0847 -0.509 -0.039 0.860 153 81 94 0
-24.7556 35.7609 -44.9836 -0.517 -0.040 0.855 149 77 89 0
-24.4391 36.7346 -45.5160 -0.872 -0.417 -0.256 147 73 88 0
-23.2389 36.5145 -46.0408 0.165 -0.340 0.926 141 64 80 0
-23.2471 34.8785 -45.4118 0.111 -0.331 0.937 139 64 79 0
-22.4535 33.3026 -45.2126 -0.448 -0.061 0.892 129 52 68 0
-17.1840 25.1058 -44.7552 -0.439 -0.813 0.383 97 39 52 0
-16.5820 27.0830 -45.8157 -0.236 -0.972 0.012 96 38 51 0
-15.6051 28.8964 -47.0039 0.218 -0.849 -0.481 98 39 50 0
-15.3154 29.3095 -47.3086 0.199 -0.980 0.020 100 40 50 0
-11.8391 31.0303 -49.7294 -0.285 -0.674 -0.682 92 42 52 0
-11.3847 31.1750 -50.0152 -0.232 -0.690 -0.686 91 42 54 0
-4.1232 39.9856 -57.0640 0.174 -0.818 0.548 116 107 113 0
-4.0206 39.5423 -56.9467 -0.017 -0.845 0.535 122 115 119 0
-3.3111 41.1430 -57.9179 0.198 -0.783 0.590 126 119 124 0
-2.6884 40.0789 -57.8274 -0.142 -0.875 -0.463 146 142 143 0
-2.5096 39.8947 -57.8478 -0.168 -0.928 -0.333 151 147 148 0
-5.1458 29.2563 -52.4474 -0.070 -0.966 -0.249 161 158 159 0
-1.9168 38.0504 -57.4441 0.579 -0.683 0.445 164 162 163 0
-1.3498 22.0050 -51.6036 -0.204 -0.954 -0.219 183 184 176 0
7.6247 26.4972 -57.8721 -0.960 -0.278 -0.019 176 177 166 0
6.9115 23.9425 -56.5346 -0.422 -0.901 0.103 176 176 167 0
3.6153 7.7374 -48.6733 -0.458 -0.247 0.854 180 172 161 0
14.3719 18.2997 -58.1641 -0.853 -0.471 -0.223 173 162 155 0
10.2343 8.5352 -52.3358 -0.422 -0.848 -0.321 172 162 151 0
8.2084 2.5175 -49.0097 -0.414 -0.887 0.202 169 159 149 0
8.5481 2.7723 -49.2794 0.555 -0.827 0.089 167 159 147 0
29.4819 32.2416 -71.1542 0.347 -0.367 0.863 166 153 144 0
31.7301 29.6563 -71.3073 0.766 -0.449 0.461 155 142 133 0
34.3908 28.5620 -72.2391 -0.945 -0.326 0.031 150 132 122 0
34.4446 28.2653 -72.1531 -0.947 -0.319 0.033 150 131 121 0
-28.0566 45.7275 -47.3924 -0.272 -0.949 -0.158 211 196 197 0
-27.2068 43.0771 -46.8059 -0.002 -0.948 -0.317 197 178 182 0
-25.4135 34.2278 -44.3170 -0.560 -0.723 0.404 154 85 100 0
-25.2204 34.1773 -44.3957 -0.535 -0.760 0.368 151 81 95 0
-25.0563 33.8729 -44.3621 -0.527 -0.719 0.453 149 78 92 0
-24.8565 33.8832 -44.4676 -0.730 -0.606 0.317 147 76 90 0
-24.2689 35.4577 -45.3710 -0.799 -0.120 0.589 143 70 85 0
-23.7045 36.7444 -46.1522 -0.838 -0.364 -0.407 143 67 83 0
-14.1916 31.0705 -48.8050 -0.628 -0.769 0.120 107 47 59 0
-13.8396 30.7998 -48.8798 -0.567 -0.814 0.124 103 44 56 0
-11.8310 31.3811 -50.1236 -0.261 -0.640 -0.722 92 43 54 0
-4.0074 39.8661 -57.3581 0.036 -0.858 0.512 127 121 126 0
-5.2865 34.7712 -54.7509 -0.609 -0.727 0.316 132 126 130 0
-2.7556 42.4882 -59.0015 0.266 -0.918 -0.295 137 133 135 0
-4.9017 34.5638 -54.8667 0.120 -0.869 0.480 144 141 142 0
-4.6050 34.8049 -55.1100 0.099 -0.886 0.454 147 144 145 0
-4.8275 31.9072 -53.8837 -0.196 -0.635 0.747 156 154 155 0
-4.3985 31.1811 -53.8227 -0.226 -0.957 0.184 164 163 165 0
-5.7184 18.4275 -48.2522 0.415 -0.505 0.757 179 180 174 0
-1.6836 25.8258 -53.1444 0.819 -0.563 0.112 179 180 174 0
-3.6968 16.4795 -48.5308 -0.375 -0.098 0.922 180 181 175 0
-1.7132 19.0958 -50.5438 -0.549 -0.716 0.432 182 182 174 0
-1.2943 19.1377 -50.7726 0.726 -0.674 -0.137 181 181 173 0
2.2121 25.3544 -54.9424 -0.404 -0.228 0.886 179 180 171 0
6.1443 31.6933 -59.3755 -0.696 -0.521 -0.494 177 177 167 0
7.1917 33.0833 -60.4416 0.506 -0.392 0.768 177 177 167 0
10.8573 30.6893 -61.3841 -0.539 -0.655 -0.529 175 172 163 0
13.4188 34.0996 -63.9956 -0.471 -0.831 -0.297 177 171 163 0
3.3730 7.3654 -48.6208 -0.444 -0.214 0.870 178 170 159 0
7.4403 10.7367 -51.9824 0.865 -0.393 0.311 176 167 160 0
10.6644 14.8224 -55.1901 0.862 -0.437 0.258 176 166 156 0
10.9704 14.6161 -55.2663 0.456 -0.735 0.502 174 165 154 0
4.4794 1.8407 -47.0604 0.601 -0.500 0.624 171 162 154 0
7.5421 2.7255 -48.9563 -0.761 -0.648 -0.029 168 158 149 0
8.1991 2.5827 -49.2352 -0.406 -0.909 0.090 166 156 147 0
29.5424 32.4419 -71.5499 0.188 -0.401 0.897 164 151 142 0
29.3722 31.7593 -71.2013 0.728 -0.661 0.184 164 150 141 0
29.4525 31.4740 -71.1324 0.738 -0.670 0.077 163 149 140 0
31.7151 34.5965 -73.4816 0.778 -0.522 0.350 162 148 139 0
29.1683 27.0718 -69.2967 0.792 -0.397 0.464 155 143 135 0
34.3643 28.6116 -72.5280 -0.945 -0.326 0.031 147 131 121 0
34.4181 28.3144 -72.4412 -0.947 -0.319 0.033 148 131 120 0
-28.1027 43.5908 -46.8205 -0.566 -0.701 -0.434 212 195 199 0
-27.9084 43.3703 -46.8341 0.102 -0.994 -0.037 207 191 194 0
-27.6960 43.3762 -46.9445 0.121 -0.988 -0.091 204 188 191 0
-25.5178 34.0353 -44.4426 -0.194 -0.911 -0.364 149 84 98 0
-25.0987 34.2269 -44.7299 -0.261 -0.873 -0.413 148 80 94 0
-22.0832 28.8009 -44.1671 -0.814 -0.454 0.362 132 54 67 0
-19.1450 31.1242 -46.5598 -0.267 -0.803 -0.533 111 40 58 0
-13.7568 30.5976 -49.0975 -0.537 -0.838 0.093 103 43 58 0
-13.5083 30.7820 -49.2952 -0.542 -0.831 0.128 101 42 56 0
-13.2958 30.8057 -49.4125 0.325 -0.863 -0.386 95 42 51 0
-12.8782 29.0799 -48.9580 0.458 -0.780 0.426 93 44 52 0
-12.1203 30.5114 -49.8968 -0.461 -0.875 0.148 94 46 58 0
-11.5386 32.0348 -50.7815 0.318 -0.771 -0.551 94 46 60 0
-11.3252 32.0424 -50.8930 0.332 -0.766 -0.551 93 46 60 0
-4.0830 39.8903 -57.6105 0.087 -0.847 0.525 133 129 134 0
-5.4366 34.5308 -54.8505 -0.582 -0.781 0.225 137 134 137 0
-5.1899 33.8657 -54.7190 0.147 -0.887 0.438 147 145 146 0
-4.6705 34.8485 -55.3631 -0.035 -0.959 0.282 151 149 150 0
-5.9693 29.8457 -52.7688 0.293 -0.947 -0.128 155 153 154 0
-4.4772 31.8692 -54.3100 -0.280 -0.523 0.805 165 165 166 0
-4.9421 29.6954 -53.2333 -0.179 -0.980 -0.092 167 167 169 0
9.1188 28.0844 -59.7643 -0.352 -0.842 -0.409 172 173 165 0
11.0494 31.2575 -61.9728 -0.560 -0.631 -0.537 174 173 165 0
12.6123 33.5801 -63.6656 -0.681 -0.733 0.015 174 171 162 0
12.7683 33.3933 -63.6727 -0.678 -0.733 -0.047 172 168 160 0
9.1993 21.6307 -57.3111 -0.666 -0.733 -0.138 176 169 159 0
14.1640 29.3239 -62.8101 -0.420 -0.877 0.235 175 167 157 0
4.1318 1.6265 -47.0019 -0.129 -0.395 0.910 173 163 154 0
4.4022 1.7904 -47.2028 -0.301 -0.372 0.878 170 160 152 0
9.1530 6.5222 -51.4485 -0.062 -0.991 -0.121 169 157 151 0
8.2025 4.5683 -50.2098 -0.791 -0.500 0.353 167 156 150 0
7.4668 2.6808 -49.1061 -0.785 -0.611 0.103 166 155 148 0
8.2320 2.7183 -49.5099 -0.495 -0.856 -0.149 165 154 147 0
28.6259 31.5112 -71.0130 0.669 -0.429 0.607 161 148 140 0
29.4424 32.3891 -71.7677 0.539 -0.548 0.640 162 148 139 0
32.0366 35.2045 -74.1756 0.802 -0.518 0.296 160 146 136 0
31.9431 30.9534 -72.4851 0.464 -0.622 0.631 156 143 134 0
35.6329 31.2699 -74.4846 -0.221 -0.765 0.605 144 132 120 0
34.3378 28.6613 -72.8175 -0.945 -0.326 0.031 145 131 120 0
34.3916 28.3635 -72.7298 -0.947 -0.319 0.033 145 129 117 0
36.7112 30.5022 -74.7365 -0.423 -0.906 -0.003 247 247 245 0
36.9072 30.3985 -74.7961 -0.437 -0.900 0.004 254 255 255 0
-70.0744 52.9517 -29.3485 -0.235 -0.942 -0.240 255 255 255 0
-31.5246 53.3080 -49.1274 0.086 -0.643 -0.761 226 216 216 0
-30.4947 37.1108 -43.3555 0.293 -0.707 0.643 223 210 212 0
-30.3263 36.6411 -43.2587 0.382 -0.890 0.251 224 209 212 0
-30.1342 36.5563 -43.3236 0.407 -0.879 0.248 223 208 211 0
-31.1094 14.4874 -34.2475 -0.389 -0.309 0.868 218 203 206 0
-27.5731 45.9826 -48.2929 -0.346 -0.782 -0.519 207 189 193 0
-20.3705 30.2408 -45.8429 -0.662 -0.667 -0.342 122 47 64 0
-19.3564 31.5236 -46.8582 -0.501 -0.794 -0.345 116 45 63 0
-14.2044 30.7868 -49.1966 -0.590 -0.573 0.569 105 47 61 0
-13.9957 30.7978 -49.3073 -0.527 -0.839 0.136 107 49 63 0
-13.8269 30.6310 -49.3284 -0.539 -0.835 0.112 106 48 63 0
-13.5834 30.7934 -49.5156 -0.544 -0.827 0.142 103 45 60 0
-12.1849 30.5633 -50.1387 -0.447 -0.889 0.098 96 48 60 0
-11.4484 31.8602 -51.0181 0.265 -0.799 -0.539 93 47 60 0
-5.5054 34.5646 -55.0973 -0.588 -0.777 0.222 139 137 140 0
-5.3181 34.4440 -55.1458 -0.511 -0.854 0.094 145 143 144 0
-5.1489 34.2635 -55.1618 -0.511 -0.856 0.080 150 148 149 0
-4.7694 34.0431 -55.2695 -0.511 -0.856 0.073 157 155 156 0
-6.2065 27.2455 -51.8948 -0.124 -0.989 0.086 165 165 165 0
-4.6874 30.7440 -54.0288 0.425 -0.901 -0.089 169 169 171 0
-3.8432 32.0275 -54.9578 0.524 -0.852 -0.012 173 173 173 0
-3.5769 32.1693 -55.1486 0.525 -0.851 -0.020 174 173 172 0
-2.8341 33.7858 -56.1555 0.583 -0.786 0.203 175 173 173 0
-5.6950 23.6530 -50.7588 -0.888 -0.305 0.345 177 175 175 0
-2.0946 19.4922 -50.9756 0.061 -0.952 0.300 179 180 174 0
-1.8995 19.4755 -51.0685 0.061 -0.952 0.300 179 180 174 0
-1.5618 18.7851 -50.9722 0.752 -0.650 -0.112 180 180 172 0
-0.9059 19.4296 -51.5569 0.080 -0.996 -0.048 178 176 170 0
3.5559 18.8191 -53.5928 -0.924 -0.380 0.048 174 174 164 0
10.5533 29.8323 -61.4392 -0.826 -0.513 -0.234 172 173 165 0
12.6094 33.7304 -64.0022 -0.688 -0.726 -0.012 170 170 160 0
12.7149 33.4347 -63.9410 -0.675 -0.738 0.008 170 167 158 0
13.8888 33.8454 -64.6987 -0.860 -0.506 0.070 171 169 160 0
9.1580 21.6773 -57.5581 -0.625 -0.755 -0.200 173 166 156 0
12.1979 27.4044 -61.3333 -0.372 -0.681 0.630 173 166 156 0
13.7952 29.6794 -63.0315 -0.504 -0.654 0.564 174 167 158 0
14.4611 30.5344 -63.7031 -0.560 -0.786 0.263 175 168 159 0
14.2841 29.7008 -63.2889 -0.695 -0.689 0.206 175 167 158 0
3.9846 7.6700 -49.4770 -0.578 -0.205 0.790 175 166 157 0
5.7732 7.8137 -50.4441 0.871 -0.408 0.274 173 164 157 0
4.0414 1.8764 -47.2536 0.082 -0.832 0.548 172 163 152 0
4.2540 1.6124 -47.2593 -0.388 -0.377 0.841 171 161 152 0
27.2445 29.0162 -69.6258 0.406 -0.657 0.635 161 147 138 0
28.3444 29.9408 -70.5457 0.769 -0.536 0.349 160 146 137 0
24.6420 16.9459 -63.6076 -0.561 -0.826 0.058 147 135 123 0
36.2376 33.0129 -75.7614 -0.225 -0.763 0.605 147 134 125 0
35.4470 31.0944 -74.6128 -0.207 -0.723 0.660 145 131 120 0
34.3112 28.7111 -73.1076 -0.945 -0.326 0.031 144 130 119 0
34.3711 28.4214 -73.0255 -0.947 -0.321 0.030 144 128 117 0
36.6538 30.5093 -75.0002 -0.509 -0.861 -0.004 247 247 245 0
36.8789 30.4459 -75.0902 -0.443 -0.884 -0.149 254 255 255 0
-70.2031 53.0434 -29.5825 -0.235 -0.942 -0.240 255 255 255 0
-71.6264 62.3029 -32.4771 0.043 -0.883 -0.468 234 221 222 0
-31.1431 37.6792 -43.5035 0.014 -0.682 0.731 225 212 212 0
-30.5800 37.1295 -43.5759 0.266 -0.676 0.688 221 209 209 0
-30.4091 36.6931 -43.4924 0.068 -0.993 0.094 223 210 210 0
-30.2060 36.7735 -43.6275 0.303 -0.953 -0.012 223 210 210 0
-27.6818 45.7897 -48.4411 -0.302 -0.763 -0.572 211 193 197 0
-23.6791 37.3460 -47.1815 -0.936 -0.252 -0.247 149 75 92 0
-20.1049 32.3499 -47.0514 -0.161 -0.760 -0.629 123 49 66 0
-20.0602 31.3973 -46.7018 -0.356 -0.908 -0.222 122 49 66 0
-19.8209 31.6287 -46.9143 -0.424 -0.886 -0.189 121 49 65 0
-19.4091 31.6817 -47.1452 -0.501 -0.794 -0.345 117 47 63 0
-16.5473 31.7556 -48.6342 -0.064 -0.795 -0.603 102 44 59 0
-15.9471 27.7818 -47.3865 0.365 -0.920 -0.140 103 42 58 0
-15.1497 30.5790 -48.8872 -0.393 -0.879 0.269 104 43 59 0
-14.9163 30.7105 -49.0577 -0.355 -0.825 0.440 105 44 60 0
-14.6407 31.0327 -49.3243 -0.605 -0.787 0.120 104 43 59 0
-14.3535 31.4009 -49.6148 -0.703 -0.692 -0.163 103 45 59 0
-14.2994 30.7101 -49.3723 -0.590 -0.573 0.569 105 48 62 0
-13.9307 30.5156 -49.4843 -0.555 -0.825 0.108 105 48 64 0
-11.4253 32.2721 -51.4495 0.254 -0.800 -0.543 94 48 61 0
-10.3894 33.0021 -52.2634 0.314 -0.753 -0.579 91 54 65 0
-9.5831 34.4624 -53.2459 0.534 -0.784 -0.316 87 55 67 0
-6.4090 35.5750 -55.3004 -0.058 -0.959 0.277 120 111 119 0
-4.9353 34.4930 -55.6292 -0.775 -0.414 0.477 156 154 157 0
-6.3734 27.6224 -52.2088 0.172 -0.975 -0.138 166 165 167 0
-4.7774 30.0086 -53.9562 -0.277 -0.960 -0.039 173 173 173 0
-2.0720 25.3340 -53.5086 0.802 -0.585 0.119 179 178 174 0
-2.0485 19.2571 -51.1443 -0.260 -0.958 0.118 179 179 174 0
-1.7777 19.4381 -51.3533 -0.071 -0.966 0.248 179 179 172 0
-1.6655 19.2052 -51.3194 -0.269 -0.828 0.492 179 179 171 0
-1.4502 19.2402 -51.4430 -0.296 -0.791 0.535 180 180 170 0
-1.3405 19.0034 -51.4064 0.496 -0.815 0.299 178 178 169 0
-1.2836 18.6343 -51.2911 -0.458 -0.843 0.281 178 177 171 0
10.5527 29.9830 -61.7678 -0.826 -0.513 -0.234 170 170 163 0
12.5381 33.7343 -64.2477 -0.541 -0.826 0.157 171 168 160 0
12.7401 33.6441 -64.3155 -0.547 -0.823 0.152 171 167 158 0
10.7213 24.0820 -59.5463 -0.705 -0.489 0.514 173 166 157 0
14.5845 30.4387 -64.0031 -0.671 -0.691 0.268 172 166 158 0
16.3445 32.9636 -65.8884 0.285 -0.957 0.051 171 164 156 0
3.8790 1.6712 -47.2920 -0.163 -0.587 0.793 171 163 150 0
3.8927 1.3720 -47.1820 -0.237 -0.583 0.777 168 160 149 0
11.0575 10.3208 -54.3368 0.586 -0.810 -0.015 168 155 147 0
17.4088 11.8501 -58.1753 -0.508 -0.142 0.849 157 144 136 0
24.2847 16.5062 -63.5042 0.082 -0.854 -0.514 147 135 123 0
36.4131 33.3599 -76.2826 -0.832 -0.501 0.237 148 134 123 0
36.8497 33.5924 -76.5963 -0.740 -0.550 0.389 148 133 122 0
34.3448 28.4714 -73.3158 -0.947 -0.321 0.030 146 129 119 0
36.7036 30.6666 -75.3776 -0.392 -0.919 0.048 247 247 245 0
36.9120 30.5792 -75.4498 -0.391 -0.917 0.075 254 255 255 0
-70.3310 53.1315 -29.8162 -0.230 -0.941 -0.249 255 255 255 0
-31.2587 37.1623 -43.4990 0.082 -0.655 0.751 226 213 213 0
-24.5520 43.2897 -49.3357 -0.234 -0.942 -0.240 156 103 116 0
-24.3440 43.2176 -49.4137 -0.409 -0.912 0.039 154 98 112 0
-24.2458 38.5169 -47.6149 -0.963 -0.261 -0.060 152 87 102 0
-24.1286 37.7535 -47.3746 -0.962 -0.266 -0.060 151 83 99 0
-23.9047 37.8936 -47.5441 -0.941 -0.337 -0.036 150 78 95 0
-20.9686 31.2156 -46.4177 -0.193 -0.921 -0.337 131 56 73 0
-20.1365 32.6512 -47.4075 -0.161 -0.760 -0.629 122 50 66 0
-20.0879 31.7141 -47.0638 -0.357 -0.919 -0.169 122 50 66 0
-19.8618 31.8637 -47.2381 -0.392 -0.901 -0.186 119 50 65 0
-19.6782 31.7559 -47.2895 -0.423 -0.890 -0.170 117 48 63 0
-16.6106 31.8368 -48.8887 -0.428 -0.904 0.004 106 48 63 0
-15.2456 30.4954 -49.0586 -0.423 -0.859 0.289 106 45 61 0
-14.2958 31.0794 -49.7736 0.403 -0.811 -0.424 104 48 61 0
-14.0189 31.3930 -50.0384 0.373 -0.784 -0.496 103 48 61 0
-11.4719 33.2766 -52.0806 0.426 -0.865 -0.266 94 49 63 0
-6.4725 33.3104 -54.6483 0.017 -0.960 0.278 144 141 146 0
-4.7426 35.3972 -56.3530 -0.713 -0.306 0.631 161 159 162 0
-2.1267 19.2241 -51.3284 -0.293 -0.951 0.099 178 177 172 0
-1.8588 19.3978 -51.5336 -0.071 -0.966 0.248 178 178 172 0
-1.5961 19.0324 -51.5241 -0.095 -0.908 0.408 179 179 170 0
-1.4599 18.8643 -51.5276 -0.064 -0.906 0.419 179 178 170 0
-1.2818 18.8045 -51.5951 -0.453 -0.863 0.225 179 177 170 0
6.5546 34.5610 -61.7963 -0.663 -0.358 -0.658 175 176 167 0
6.4849 33.2334 -61.2385 -0.056 -0.917 -0.396 173 174 168 0
0.4570 17.6177 -52.0167 -0.571 -0.728 0.380 173 175 169 0
3.9486 11.6845 -51.4671 -0.546 -0.794 0.268 170 165 158 0
16.3388 33.0937 -66.2184 0.264 -0.957 0.121 170 163 155 0
16.9521 33.8131 -66.8146 0.329 -0.861 0.387 171 163 155 0
3.9546 1.5729 -47.4931 -0.235 -0.657 0.717 167 159 148 0
6.3924 1.4146 -48.6764 0.347 -0.307 0.886 163 150 147 0
6.5588 1.3879 -48.7509 0.347 -0.307 0.886 163 152 148 0
23.9060 16.3700 -63.5070 0.024 -0.817 -0.576 147 134 121 0
24.0835 16.2930 -63.5675 0.004 -0.817 -0.577 148 134 122 0
36.3112 32.9105 -76.3511 -0.328 -0.484 0.811 149 132 123 0
36.1547 32.2921 -76.0279 -0.227 -0.352 0.908 148 131 122 0
36.6098 30.6228 -75.6038 -0.480 -0.877 0.010 246 246 245 0
36.8344 30.5580 -75.6931 -0.383 -0.922 0.059 254 255 255 0
-70.4601 53.2228 -30.0511 -0.169 -0.961 -0.219 255 255 255 0
-32.1862 21.6950 -37.1623 0.313 -0.686 0.657 226 214 214 0
-26.9451 41.5763 -47.7092 -0.360 -0.116 0.926 201 179 187 0
-24.7266 53.2353 -53.4567 -0.694 -0.703 -0.157 184 152 159 0
-24.5949 43.7248 -49.7617 -0.155 -0.981 -0.119 158 110 122 0
-24.3836 43.6741 -49.8498 -0.456 -0.890 -0.018 156 105 118 0
-23.8916 46.1121 -51.0660 0.502 -0.805 0.316 155 99 114 0
-23.6603 46.1947 -51.2170 -0.513 -0.544 0.664 156 95 111 0
-24.1782 39.8401 -48.4381 -0.958 -0.280 0.066 155 92 107 0
-23.9592 38.1542 -47.8832 -0.940 -0.324 -0.107 153 84 99 0
-23.8121 37.6554 -47.7611 -0.823 -0.427 -0.374 154 81 98 0
-21.0295 31.3380 -46.6858 -0.126 -0.897 -0.423 136 62 79 0
-19.9139 32.0333 -47.5317 -0.381 -0.907 -0.178 124 56 71 0
-19.7383 31.8749 -47.5589 -0.526 -0.840 0.135 123 55 70 0
-19.4332 32.4831 -47.9556 -0.332 -0.842 -0.425 117 50 65 0
-19.2248 32.5120 -48.0737 -0.084 -0.793 -0.604 117 50 67 0
-11.4973 34.3917 -52.7712 0.391 -0.914 -0.107 97 54 67 0
-11.5082 33.4545 -52.3949 0.475 -0.824 -0.309 96 54 67 0
-8.1371 37.2252 -55.6115 -0.161 -0.815 -0.557 92 74 85 0
-7.1772 37.4387 -56.1871 -0.230 -0.965 -0.126 106 96 102 0
-6.5799 33.2095 -54.8197 -0.093 -0.943 0.320 148 145 152 0
-6.8839 30.6718 -53.6602 -0.530 -0.791 0.305 156 152 156 0
6.7675 35.2707 -62.4646 -0.512 -0.797 -0.321 175 176 168 0
2.1241 19.7885 -53.9639 -0.811 -0.489 -0.322 172 173 165 0
0.2536 13.1043 -50.3625 -0.597 -0.622 -0.507 172 173 163 0
11.4742 29.7346 -62.6828 -0.866 -0.500 0.008 170 166 157 0
11.8033 29.9287 -62.9279 -0.899 -0.366 -0.239 169 165 156 0
8.7785 20.8492 -57.7884 -0.832 -0.549 -0.079 170 165 156 0
16.4717 33.4992 -66.7292 0.257 -0.899 0.354 169 162 154 0
16.8547 33.7630 -67.0295 0.383 -0.823 0.420 169 162 154 0
16.9828 33.5231 -67.0001 0.250 -0.901 0.355 169 160 152 0
17.1820 33.4238 -67.0628 0.280 -0.909 0.309 170 161 152 0
17.1806 32.9343 -66.8684 0.391 -0.820 0.419 170 161 152 0
17.5524 33.1717 -67.1526 0.244 -0.819 0.520 170 161 152 0
16.0503 29.7921 -65.0470 0.011 -0.134 0.991 170 161 153 0
15.8567 28.9548 -64.6167 0.237 -0.202 0.950 170 161 153 0
15.8360 27.9981 -64.2276 0.306 -0.392 0.868 167 157 151 0
6.3239 8.0661 -51.4754 0.393 -0.142 0.908 170 160 151 0
21.6925 32.4340 -68.9791 0.189 -0.691 -0.697 165 157 147 0
23.4402 16.1045 -63.4134 -0.495 -0.713 -0.496 149 135 124 0
23.7790 16.2647 -63.6501 0.021 -0.773 -0.634 148 134 123 0
23.0563 14.5457 -62.6003 0.578 -0.632 0.516 147 133 122 0
22.7014 13.7045 -62.0859 -0.552 -0.822 0.139 149 132 122 0
34.5004 28.1183 -73.8253 -0.947 -0.322 0.006 50 50 51 0
36.5909 30.6842 -75.9100 -0.506 -0.860 0.066 247 247 245 0
36.8747 30.7018 -76.0622 -0.480 -0.877 0.015 254 255 255 0
-70.0953 50.7490 -29.5190 -0.272 -0.949 -0.162 255 255 255 0
-70.5921 53.3248 -30.2893 -0.182 -0.958 -0.222 255 255 255 0
-38.8060 55.1032 -47.2844 0.447 -0.797 -0.407 229 223 223 0
-26.9642 42.3600 -48.2818 -0.741 -0.164 0.651 200 182 188 0
-25.4332 51.7409 -52.7989 -0.719 -0.485 -0.498 194 167 174 0
-25.1679 52.1038 -53.0792 -0.653 -0.483 -0.584 190 163 169 0
-24.2642 45.5813 -50.9470 0.619 -0.693 0.369 158 111 122 0
-23.9993 45.9767 -51.2401 0.502 -0.805 0.316 157 105 118 0
-23.7777 45.9765 -51.3536 -0.528 -0.761 0.377 158 102 117 0
-24.0695 39.7166 -48.7132 -0.910 -0.405 -0.090 156 93 108 0
-23.8528 38.0271 -48.1520 -0.875 -0.380 -0.300 156 87 102 0
-23.6861 37.6915 -48.1039 -0.870 -0.386 -0.307 156 87 101 0
-22.3064 35.6050 -47.9807 -0.621 -0.402 -0.673 146 70 89 0
-20.8685 31.6017 -47.1246 -0.196 -0.804 -0.561 134 60 77 0
-19.2818 32.6506 -48.3550 -0.087 -0.823 -0.562 120 53 70 0
-17.6384 30.5030 -48.3425 0.369 -0.918 -0.144 110 52 66 0
-17.4157 30.6095 -48.4990 0.355 -0.921 -0.162 108 52 64 0
-10.0757 37.8644 -55.1468 -0.264 -0.736 -0.623 95 60 75 0
-9.9841 37.3296 -54.9809 0.058 -0.922 -0.382 94 60 75 0
-7.7120 37.4364 -56.1877 -0.295 -0.924 -0.244 102 90 99 0
-7.4709 37.4921 -56.3334 -0.118 -0.972 -0.205 109 98 106 0
-7.2453 37.4890 -56.4478 -0.230 -0.965 -0.126 115 107 113 0
-6.9650 36.8610 -56.3415 0.245 -0.963 -0.112 125 119 126 0
-6.8101 31.1845 -54.1622 -0.659 -0.638 0.399 160 158 161 0
-6.5938 30.4538 -53.9823 -0.552 -0.795 0.251 165 163 168 0
5.3919 35.6134 -62.1768 0.370 -0.903 0.219 177 175 168 0
5.8601 36.1937 -62.6476 0.336 -0.869 0.362 174 174 166 0
5.9268 35.7561 -62.5077 0.343 -0.805 0.485 172 173 164 0
0.3190 17.5917 -52.4067 -0.410 -0.793 0.450 173 174 167 0
0.5271 12.9791 -50.6780 -0.858 -0.409 -0.310 172 169 162 0
13.6330 34.4413 -65.9333 -0.649 -0.708 -0.277 171 165 158 0
11.8044 30.0790 -63.2605 -0.767 -0.618 -0.172 169 163 157 0
8.3325 19.6293 -57.3237 -0.670 -0.728 -0.146 168 163 155 0
16.4546 33.1149 -66.8513 0.310 -0.792 0.526 166 159 150 0
16.6825 33.0738 -66.9517 0.196 -0.846 0.495 166 157 150 0
16.4652 32.1606 -66.4770 0.704 -0.532 0.471 166 157 150 0
16.8342 32.3980 -66.7606 0.704 -0.532 0.471 167 158 151 0
15.6249 28.6404 -64.6458 0.105 -0.296 0.949 169 160 153 0
14.6749 25.9148 -63.0745 0.620 -0.339 0.707 166 157 150 0
16.5010 7.8098 -56.8064 -0.870 -0.465 0.163 153 139 130 0
23.5052 16.2808 -63.7659 -0.477 -0.725 -0.497 149 135 124 0
24.3819 17.2283 -64.5921 0.059 -0.754 -0.655 147 133 122 0
22.6683 13.7335 -62.3235 -0.561 -0.815 0.147 147 132 120 0
22.4591 13.1075 -61.9673 -0.666 -0.650 0.364 146 132 120 0
34.3930 28.4269 -74.1777 -0.947 -0.322 0.006 92 82 76 0
36.5468 30.7105 -76.1900 -0.779 -0.621 -0.088 246 246 245 0
36.7147 30.5654 -76.2183 -0.777 -0.622 -0.095 254 255 255 0
-70.7061 53.3571 -30.5096 -0.220 -0.944 -0.248 255 255 255 0
-38.9807 44.4369 -43.2194 -0.186 -0.980 -0.064 228 222 222 0
-24.4519 55.6155 -55.1483 -0.746 -0.663 -0.061 187 160 167 0
-24.1951 55.8005 -55.3541 -0.800 -0.598 0.044 183 152 160 0
-24.3008 46.0902 -51.4139 -0.449 -0.891 -0.067 164 121 133 0
-24.0596 46.2659 -51.6080 -0.227 -0.964 0.141 161 113 125 0
-23.8532 46.1260 -51.6579 -0.462 -0.855 0.235 161 109 122 0
-23.6505 45.9562 -51.6940 -0.324 -0.944 -0.069 159 103 119 0
-23.6976 43.6501 -50.7469 -0.409 -0.875 -0.259 156 96 112 0
-23.7616 37.7754 -48.3631 -0.945 -0.324 -0.053 153 87 101 0
-23.5704 37.6415 -48.4076 -0.927 -0.351 -0.130 153 87 101 0
-23.4380 37.0432 -48.2361 -0.948 -0.318 -0.018 151 84 97 0
-23.2630 36.7934 -48.2260 -0.970 -0.238 -0.057 147 80 93 0
-21.7220 31.7778 -47.0095 0.132 -0.684 0.717 138 66 80 0
-17.9129 31.6261 -48.9034 -0.205 -0.784 -0.585 113 51 66 0
-17.6940 31.7053 -49.0474 -0.443 -0.718 -0.536 112 51 66 0
-17.4982 31.6601 -49.1298 -0.470 -0.723 -0.506 110 51 66 0
-16.9458 31.3417 -49.2859 0.114 -0.898 -0.425 113 60 69 0
-15.2066 30.8171 -49.9684 -0.583 -0.700 -0.413 108 54 70 0
-11.6659 34.3590 -53.2027 0.209 -0.960 -0.185 100 60 73 0
-11.4789 34.2378 -53.2501 0.298 -0.886 -0.357 99 61 75 0
-10.0075 37.5690 -55.3383 0.022 -0.916 -0.400 96 65 80 0
-9.7711 37.6201 -55.4801 -0.284 -0.865 -0.413 95 67 81 0
-7.0294 33.7260 -55.3286 0.179 -0.983 -0.031 154 152 163 0
-6.8023 33.7485 -55.4541 0.115 -0.992 -0.053 158 156 166 0
-6.5739 33.7745 -55.5817 -0.521 -0.837 -0.165 160 158 167 0
-6.2049 33.5214 -55.6698 -0.863 -0.493 0.111 165 163 168 0
-6.6540 31.2400 -54.5263 -0.250 -0.895 0.370 168 166 171 0
-3.5538 36.3521 -58.1630 0.673 -0.658 -0.338 175 175 175 0
5.2780 35.5195 -62.3617 0.344 -0.800 0.492 176 175 167 0
5.5451 35.5912 -62.5275 0.356 -0.795 0.491 174 174 166 0
5.7906 35.6066 -62.6596 0.343 -0.805 0.485 173 174 166 0
-2.1376 14.1513 -50.0052 -0.174 -0.367 0.914 173 174 165 0
0.2999 14.3934 -51.3528 -0.686 -0.546 -0.481 170 172 164 0
13.6444 34.6211 -66.2953 -0.765 -0.610 -0.206 171 164 158 0
8.1957 19.4790 -57.4397 -0.609 -0.767 -0.201 168 164 155 0
7.3281 16.4407 -55.7786 -0.855 -0.333 0.398 165 160 150 0
16.0043 32.8563 -66.8001 0.261 -0.869 0.420 165 158 148 0
16.4058 32.6697 -66.9314 0.234 -0.856 0.461 165 156 149 0
15.5668 29.5918 -65.2692 -0.009 -0.158 0.987 167 158 151 0
15.7694 29.5159 -65.3428 0.029 -0.152 0.988 167 158 153 0
6.1406 7.2109 -51.4756 0.820 -0.500 0.279 165 156 148 0
22.3618 35.2855 -71.0345 -0.262 -0.965 0.006 164 154 145 0
22.5878 35.2235 -71.1256 -0.262 -0.965 0.006 165 155 145 0
4.6508 0.8384 -48.1609 0.183 -0.490 0.852 165 155 145 0
4.7301 0.6629 -48.1314 -0.320 -0.441 0.839 164 154 144 0
21.8092 23.9614 -66.2192 0.158 -0.974 -0.164 156 146 138 0
16.2332 7.4822 -56.7631 -0.983 -0.173 -0.061 150 136 127 0
22.9512 16.5627 -63.8443 -0.065 -0.781 -0.622 149 135 125 0
24.0640 17.8722 -64.9394 -0.493 -0.853 -0.172 150 136 125 0
22.5320 13.9392 -62.5793 0.313 -0.816 0.486 147 133 122 0
22.7699 13.9580 -62.7089 -0.126 -0.925 0.357 147 133 120 0
22.4756 13.2075 -62.2575 -0.632 -0.652 0.419 144 130 117 0
36.4978 30.7300 -76.4652 -0.758 -0.641 -0.117 246 246 245 0
-70.8349 53.4453 -30.7450 -0.209 -0.947 -0.245 255 255 255 0
-30.3969 40.7225 -46.4044 -0.243 -0.803 -0.543 221 212 211 0
-27.1981 46.7335 -50.4675 -0.417 -0.662 -0.622 211 195 203 0
-27.0198 41.3919 -48.4092 -0.399 -0.094 0.912 207 187 196 0
-26.1606 41.5521 -48.9152 -0.650 -0.319 0.690 194 173 181 0
-25.7726 43.3271 -49.8291 -0.748 -0.385 0.540 191 167 176 0
-24.3788 46.2257 -51.7119 -0.311 -0.950 0.005 170 134 145 0
-24.1431 46.3500 -51.8830 -0.319 -0.945 -0.075 166 125 137 0
-23.9195 46.3608 -52.0023 -0.289 -0.957 0.033 164 119 132 0
-23.1457 49.1885 -53.5380 -0.336 -0.867 0.369 158 106 122 0
-22.9156 49.2026 -53.6620 -0.522 -0.853 -0.004 158 102 118 0
-21.9134 31.0301 -46.8628 0.159 -0.696 0.700 143 70 87 0
-21.6188 31.6713 -47.2723 0.540 -0.791 0.287 142 69 86 0
-21.2006 31.7894 -47.5347 -0.174 -0.893 -0.416 138 66 83 0
-16.0113 30.2835 -49.5953 -0.761 -0.522 -0.385 113 58 74 0
-12.4081 36.1817 -53.8208 -0.044 -0.543 -0.838 104 60 73 0
-11.8076 34.1021 -53.2924 -0.126 -0.929 -0.348 103 67 79 0
-11.5704 34.1914 -53.4502 0.259 -0.878 -0.402 103 69 83 0
-8.1516 36.4016 -56.0966 0.114 -0.629 0.769 118 111 123 0
-7.8968 36.5165 -56.2738 -0.366 -0.651 0.665 127 121 131 0
-7.1167 33.6962 -55.5396 0.325 -0.946 -0.005 160 158 169 0
-6.8802 33.7518 -55.6834 0.115 -0.992 -0.053 163 161 172 0
-6.5384 34.1727 -56.0285 -0.470 -0.872 -0.134 166 164 174 0
-6.3718 33.9806 -56.0368 -0.569 -0.761 -0.312 167 165 173 0
-6.1477 33.9877 -56.1548 -0.533 -0.801 -0.273 169 167 172 0
-6.1426 33.2467 -55.8592 0.081 -0.996 -0.027 172 170 175 0
-4.0881 35.6158 -57.8685 0.883 -0.467 -0.038 175 175 177 0
-3.5641 36.5789 -58.5254 0.795 -0.599 -0.100 177 177 178 0
-0.5812 24.5686 -55.2243 -0.595 -0.789 0.154 174 175 169 0
-0.3908 24.5090 -55.2981 -0.655 -0.742 0.143 173 174 169 0
-0.3866 23.9598 -55.0792 -0.760 -0.648 -0.056 174 175 169 0
5.2141 35.5530 -62.6234 0.358 -0.803 0.477 176 175 167 0
5.8083 35.8460 -63.0467 0.558 -0.524 0.644 172 173 165 0
-2.0832 14.4398 -50.3758 -0.074 -0.376 0.923 173 174 166 0
3.7881 24.7077 -57.5255 -0.102 -0.995 0.011 171 170 165 0
0.4577 14.4449 -51.6835 -0.686 -0.551 -0.476 169 169 164 0
0.4733 13.5762 -51.3419 -0.859 -0.396 -0.325 169 168 160 0
12.5931 33.0682 -65.4152 -0.102 -0.964 -0.246 171 162 157 0
8.0351 19.2800 -57.5234 0.094 -0.948 0.303 165 161 152 0
8.0017 18.7765 -57.3036 -0.515 -0.856 0.032 164 158 148 0
8.3463 19.0402 -57.5868 -0.550 -0.835 -0.035 164 157 147 0
7.1942 15.8762 -55.7213 -0.602 -0.741 0.299 164 156 147 0
16.4686 33.4267 -67.5510 -0.292 -0.841 0.456 165 157 148 0
25.1077 38.9403 -74.2096 0.189 -0.653 -0.733 164 154 145 0
24.2260 36.4081 -72.7373 -0.429 -0.763 -0.484 163 155 143 0
19.5104 21.0503 -64.1328 -0.897 -0.431 -0.094 155 147 137 0
19.9289 21.3569 -64.4713 -0.883 -0.469 0.013 156 146 137 0
12.2614 5.1553 -54.0102 -0.550 -0.825 -0.129 155 143 133 0
24.0027 17.8647 -65.1591 -0.456 -0.878 -0.146 150 136 123 0
24.0195 17.5442 -65.0387 -0.223 -0.896 -0.385 150 137 123 0
22.8532 14.1564 -63.0759 -0.374 -0.926 0.054 148 134 122 0
36.5213 30.8516 -76.8192 -0.777 -0.622 -0.094 246 246 245 0
36.6354 30.6300 -76.7886 -0.779 -0.621 -0.085 254 255 255 0
-70.9645 53.5351 -30.9813 -0.209 -0.947 -0.245 255 255 255 0
-38.7562 43.7790 -43.6069 -0.468 -0.846 0.255 227 221 221 0
-26.2221 41.8419 -49.2730 -0.562 -0.536 0.631 197 177 187 0
-26.0210 41.7279 -49.3304 -0.537 -0.534 0.653 194 173 183 0
-24.4686 46.2540 -51.9613 -0.311 -0.950 0.005 176 148 158 0
-24.2381 46.3311 -52.1111 -0.317 -0.944 -0.086 172 140 151 0
-24.0238 46.2581 -52.1919 -0.305 -0.952 0.021 169 133 144 0
-23.8194 46.0984 -52.2325 -0.114 -0.993 0.005 165 126 139 0
-23.6167 45.9260 -52.2670 0.026 -0.792 0.610 161 119 133 0
-21.7591 31.2718 -47.2911 0.376 -0.687 0.622 144 71 89 0
-19.1692 33.5380 -49.5412 -0.581 -0.806 0.112 122 58 75 0
-19.1880 32.2317 -49.0028 -0.388 -0.712 -0.585 120 56 73 0
-18.1214 33.6190 -50.1133 -0.297 -0.743 -0.600 116 56 74 0
-12.1135 37.8398 -54.9135 0.130 -0.576 -0.807 104 64 77 0
-11.3224 36.4859 -54.7726 0.316 -0.702 -0.638 104 73 84 0
-8.0750 36.1547 -56.3097 -0.275 -0.711 0.647 137 133 144 0
-6.5782 35.0926 -56.6500 0.434 -0.881 0.186 166 164 175 0
-1.0623 39.5829 -61.3062 -0.235 -0.972 -0.027 179 179 181 0
-0.8122 39.6192 -61.4496 -0.244 -0.970 0.010 180 180 182 0
-0.5907 39.5664 -61.5422 -0.173 -0.759 0.627 180 180 182 0
-0.5539 24.8274 -55.5950 -0.461 -0.871 0.166 174 175 170 0
-0.3546 24.7895 -55.6822 -0.418 -0.812 0.406 173 174 169 0
3.8565 25.0344 -57.9484 0.059 -0.997 0.046 171 170 166 0
0.3705 15.3071 -52.2170 -0.813 -0.394 -0.429 168 166 163 0
0.4825 15.1051 -52.1929 -0.834 -0.377 -0.403 169 165 164 0
12.4502 32.9191 -65.5624 -0.122 -0.960 -0.252 170 161 156 0
13.5124 34.6545 -66.8115 0.324 -0.828 -0.458 169 160 154 0
2.4385 9.1567 -50.7917 -0.938 -0.328 -0.107 165 161 152 0
6.5635 16.4054 -55.8486 -0.843 -0.411 0.347 164 160 151 0
7.3357 15.8635 -56.0266 -0.630 -0.757 0.174 166 157 148 0
15.2976 30.7632 -66.1551 0.314 -0.753 0.579 165 156 147 0
11.6475 4.2632 -53.5499 -0.011 -0.941 -0.338 153 143 131 0
12.1288 4.4074 -53.8559 -0.534 -0.805 -0.258 151 141 129 0
24.4920 19.0266 -66.1358 -0.620 -0.782 -0.071 149 135 124 0
23.8210 17.6785 -65.2448 -0.600 -0.777 -0.192 146 132 119 0
34.1846 29.1503 -75.2217 -0.949 -0.312 -0.031 143 126 116 0
36.4903 30.8968 -77.1152 -0.754 -0.651 -0.089 246 246 245 0
36.6595 30.7521 -77.1437 -0.783 -0.615 -0.090 254 255 255 0
-71.0691 53.5303 -31.1926 -0.174 -0.951 -0.254 255 255 255 0
-30.1683 40.6681 -47.0346 -0.526 -0.735 -0.427 222 212 213 0
-26.7624 54.2433 -54.3162 -0.963 -0.194 -0.187 213 200 208 0
-26.2031 52.6413 -53.9523 -0.658 -0.733 0.172 210 193 202 0
-26.3759 48.1700 -52.0430 0.104 -0.818 -0.566 209 192 199 0
-26.0764 48.9960 -52.5336 0.128 -0.839 -0.530 207 188 197 0
-26.2557 42.4287 -49.7677 -0.843 -0.532 0.080 201 185 193 0
-26.0907 41.9327 -49.6508 -0.837 -0.546 0.045 197 181 191 0
-25.0511 47.9816 -52.6490 -0.427 -0.609 -0.668 193 171 183 0
-24.3167 46.4634 -52.4094 -0.034 -0.992 0.122 182 153 163 0
-24.1026 46.3856 -52.4881 -0.188 -0.975 0.118 178 147 157 0
-23.8989 46.2158 -52.5240 -0.193 -0.936 0.293 174 138 150 0
-23.7144 45.8811 -52.4828 -0.538 -0.661 0.522 167 130 143 0
-19.8824 33.4499 -49.3970 -0.703 -0.567 -0.430 129 64 78 0
-17.7316 33.9246 -50.6987 -0.318 -0.740 -0.593 120 62 77 0
-12.3895 36.9901 -54.6997 -0.592 -0.742 -0.314 107 71 85 0
-11.9760 36.8715 -54.8645 -0.624 -0.725 -0.292 105 73 86 0
-8.1010 37.2073 -56.9981 0.150 -0.714 0.684 139 136 146 0
-7.4273 37.1906 -57.3386 -0.486 -0.820 0.301 153 150 161 0
-6.0556 34.8509 -57.0930 0.510 -0.659 -0.552 173 168 178 0
-1.4105 39.4952 -61.3774 -0.278 -0.959 -0.063 177 178 180 0
-1.1227 39.6508 -61.5891 -0.253 -0.966 -0.049 179 179 181 0
-0.8993 39.6039 -61.6852 -0.431 -0.892 -0.135 180 180 182 0
-0.6661 39.5870 -61.7984 -0.182 -0.770 0.612 180 178 181 0
-0.7389 38.6347 -61.3733 -0.295 -0.669 0.683 179 179 179 0
5.2334 34.1795 -62.6374 -0.842 -0.436 -0.318 170 171 165 0
2.0987 17.5958 -54.2709 0.482 -0.559 0.674 169 164 160 0
-0.1522 10.2438 -50.1181 -0.734 -0.571 -0.367 169 166 159 0
-0.9922 7.9460 -48.7497 0.341 -0.350 0.873 169 165 159 0
-0.3098 9.0520 -49.5517 -0.597 -0.717 -0.359 168 163 157 0
11.0282 31.0608 -64.3542 0.565 -0.822 0.066 168 161 155 0
2.1139 8.6004 -50.6169 -0.764 -0.521 -0.381 164 160 151 0
6.5967 16.5979 -56.1827 -0.808 -0.386 0.445 162 158 149 0
15.3524 31.0105 -66.5622 -0.413 -0.789 0.455 161 157 145 0
16.7551 22.9204 -63.9917 -0.672 -0.441 0.594 162 153 144 0
22.3454 29.7413 -69.6493 0.350 -0.780 -0.519 160 149 140 0
24.4106 32.8559 -71.9816 0.730 -0.658 0.186 159 149 139 0
12.1210 4.4723 -54.0935 -0.554 -0.793 -0.255 151 142 127 0
34.1534 29.1952 -75.5123 -0.952 -0.304 -0.021 143 126 116 0
34.2465 28.9478 -75.4595 -0.949 -0.312 0.038 142 126 114 0
36.4654 30.9507 -77.4184 -0.791 -0.612 0.013 246 246 244 0
-71.2249 53.7172 -31.4560 -0.192 -0.948 -0.254 255 255 255 0
-27.3936 50.5363 -52.7745 -0.668 -0.407 -0.623 216 202 209 0
-26.6129 54.4317 -54.7722 -0.966 -0.182 -0.181 210 197 206 0
-26.4861 53.1832 -54.3265 -0.945 -0.232 -0.230 211 196 206 0
-26.3198 52.4341 -54.1056 -0.690 -0.678 0.254 211 195 203 0
-26.1421 51.8389 -53.9537 -0.233 -0.729 -0.644 210 193 202 0
-24.1968 46.3755 -52.7209 -0.188 -0.975 0.118 184 153 163 0
-23.9971 46.1687 -52.7393 -0.193 -0.936 0.293 181 147 159 0
-22.4193 51.9130 -55.9053 0.285 -0.683 0.673 165 120 134 0
-22.6960 42.3194 -51.8349 -0.471 -0.751 -0.463 156 96 114 0
-20.0037 34.4786 -50.0144 -0.752 -0.553 -0.358 131 68 81 0
-17.7712 34.1555 -51.0343 -0.286 -0.914 -0.289 121 67 81 0
-17.5685 34.1206 -51.1246 -0.286 -0.914 -0.289 124 71 85 0
-17.4044 33.8775 -51.1098 -0.785 -0.587 0.195 123 70 84 0
-17.2326 33.6796 -51.1175 -0.806 -0.578 -0.129 118 65 78 0
-17.0677 33.4474 -51.1074 -0.806 -0.578 -0.129 113 62 74 0
-16.6982 33.1988 -51.1964 -0.683 -0.519 -0.514 114 63 75 0
-13.6615 35.5651 -53.7324 0.420 -0.806 -0.418 116 78 92 0
-12.4970 36.8811 -54.8721 0.167 -0.780 -0.603 109 76 90 0
-8.3772 37.3277 -57.1811 -0.398 -0.664 0.633 142 139 150 0
-8.2300 37.0299 -57.1351 -0.274 -0.738 0.617 149 147 156 0
-8.0011 37.0426 -57.2585 0.081 -0.775 0.626 152 151 159 0
-7.4426 37.4372 -57.7083 -0.780 -0.482 0.399 161 159 168 0
-7.8138 34.4274 -56.2844 -0.795 -0.606 0.027 163 160 169 0
-4.9514 36.5798 -58.6429 0.254 -0.936 -0.246 174 173 176 0
-1.4172 39.7325 -61.7575 -0.252 -0.967 0.043 176 177 181 0
-1.1910 39.6944 -61.8587 -0.280 -0.960 -0.025 178 178 181 0
-0.9797 39.6097 -61.9331 -0.234 -0.971 -0.054 179 179 181 0
-1.2587 37.2921 -60.8402 -0.594 -0.600 0.536 178 178 179 0
-1.2094 36.7289 -60.6351 -0.675 -0.508 0.536 179 179 178 0
-5.8749 12.4658 -48.2941 -0.512 -0.849 -0.133 173 173 171 0
-5.7362 12.3375 -48.3132 -0.647 -0.749 -0.144 172 172 170 0
-5.6026 12.1965 -48.3244 -0.645 -0.749 -0.151 172 172 171 0
10.9723 30.5816 -64.4053 0.522 -0.850 -0.073 165 160 154 0
8.0880 19.7749 -58.4925 0.626 -0.778 -0.045 162 156 148 0
8.0483 19.2536 -58.2587 0.670 -0.732 0.123 163 155 146 0
5.4774 13.1975 -54.4525 -0.579 -0.815 0.028 163 155 145 0
6.1528 14.1486 -55.1904 -0.699 -0.660 0.276 163 156 146 0
16.6493 22.8447 -64.1676 -0.672 -0.441 0.594 161 151 141 0
16.7230 22.5634 -64.0905 -0.663 -0.567 0.489 161 151 142 0
14.0330 14.0312 -59.2092 -0.822 -0.532 0.204 159 146 137 0
13.9194 13.4767 -58.9236 -0.882 -0.350 0.315 159 146 137 0
16.7065 17.0611 -61.8294 -0.604 -0.500 -0.620 156 146 134 0
16.9994 17.1776 -62.0283 -0.678 -0.424 -0.600 156 147 135 0
7.9358 -2.8649 -49.1454 0.829 -0.560 0.001 153 142 130 0
33.8197 28.8064 -75.4698 -0.087 -0.982 -0.166 142 126 116 0
36.4300 30.9900 -77.7109 -0.791 -0.612 0.013 246 246 244 0
36.6164 30.8686 -77.7573 -0.755 -0.642 0.131 254 255 255 0
-71.3685 53.8569 -31.7074 -0.205 -0.943 -0.261 255 255 255 0
-26.4152 52.4685 -54.3688 -0.696 -0.672 0.253 211 196 206 0
-26.2009 52.2797 -54.4018 -0.598 -0.745 -0.295 210 194 203 0
-25.3742 48.9048 -53.4396 -0.001 -0.790 -0.613 204 188 198 0
-26.1259 31.3423 -45.8205 -0.597 -0.234 0.768 192 166 177 0
-25.8620 31.9760 -46.2178 -0.480 -0.566 0.670 190 161 173 0
-22.2907 51.8397 -56.2415 0.311 -0.852 -0.421 169 127 141 0
-22.7445 42.6455 -52.2217 -0.161 -0.842 -0.515 160 106 124 0
-20.1521 35.3703 -50.5663 -0.393 -0.919 -0.023 136 73 88 0
-19.9536 35.3073 -50.6429 -0.356 -0.860 -0.366 133 70 86 0
