ply
format ascii 1.0
element vertex 811
property float x
property float y
property float z
property float nx
property float ny
property float nz
property uchar diffuse_red
property uchar diffuse_green
property uchar diffuse_blue
property uchar class
end_header
15.9346 29.8260 -65.2248 -0.923 -0.315 0.222 174 166 156 0
15.8032 29.1680 -64.8970 -0.250 -0.665 0.703 174 166 155 0
15.0928 26.2717 -63.3807 0.241 -0.949 0.201 173 164 155 0
4.1802 2.4323 -48.0893 -0.416 -0.474 -0.776 167 154 149 0
26.2729 21.7660 -67.8375 -0.056 -0.766 0.640 151 138 129 0
28.7884 24.4572 -70.2758 -0.456 -0.795 0.400 150 137 128 0
34.0474 29.2818 -75.0630 -0.968 -0.250 0.021 146 133 120 0
34.1752 28.7221 -74.9169 -0.965 -0.262 0.022 142 132 117 0
34.2814 28.4994 -74.8896 -0.954 -0.297 0.035 92 85 76 0
34.3834 28.2722 -74.8582 -0.952 -0.301 0.052 51 50 50 0
35.3026 28.0252 -75.2724 -0.618 -0.750 -0.238 255 255 254 0
-34.4031 28.4115 -36.9846 0.177 -0.033 0.984 227 218 221 0
-28.9496 43.0667 -45.7272 0.740 -0.574 0.350 216 198 200 0
-27.5256 51.4868 -49.8004 0.371 -0.299 0.879 214 195 197 0
-25.3117 51.1848 -50.9129 -0.990 -0.121 -0.074 179 140 147 0
-24.8985 52.5176 -51.6619 -0.988 -0.031 -0.149 173 131 139 0
-25.6988 34.1743 -44.0675 0.246 -0.923 0.295 152 80 96 0
-24.6264 37.1204 -45.8117 -0.786 -0.324 -0.526 151 73 91 0
-24.5978 36.0531 -45.4116 -0.783 -0.318 -0.535 148 70 86 0
-22.1848 31.6607 -45.0404 -0.641 -0.673 -0.370 122 47 62 0
-21.9028 31.0838 -44.9722 -0.396 -0.847 -0.355 125 48 64 0
-21.6981 31.1192 -45.0998 -0.383 -0.844 -0.375 126 48 64 0
-21.5017 31.1115 -45.2059 -0.768 -0.574 -0.285 126 48 64 0
-20.6171 30.5975 -45.4971 -0.292 -0.595 0.749 115 42 58 0
-20.5909 29.7937 -45.1984 -0.011 -0.553 0.833 113 41 57 0
-16.4342 31.2268 -48.0667 -0.411 -0.642 -0.647 93 41 54 0
-15.2299 30.3276 -48.3854 -0.268 -0.940 -0.212 97 41 54 0
-14.5527 31.3098 -49.1446 -0.410 -0.784 -0.466 96 43 51 0
-13.3272 30.4746 -49.5000 -0.203 -0.885 -0.419 94 45 56 0
-10.0963 33.4676 -52.4619 -0.011 -0.900 -0.437 88 55 66 0
-6.9839 39.0853 -56.3810 0.517 -0.702 -0.491 90 72 78 0
-6.1703 35.3014 -55.3582 -0.397 -0.918 -0.008 133 126 133 0
-5.8149 31.1870 -53.9520 -0.275 -0.765 0.583 162 162 164 0
-3.0209 35.1550 -57.0512 0.284 -0.957 -0.057 171 173 172 0
2.2095 29.3519 -57.6957 -0.869 -0.476 0.137 175 175 171 0
-0.1489 22.1111 -53.5629 -0.919 -0.297 -0.260 174 175 170 0
6.2325 32.5167 -61.1647 -0.757 -0.381 0.530 173 173 169 0
6.5052 32.0769 -61.1448 -0.852 -0.487 0.193 174 173 169 0
6.5884 25.9965 -58.8211 -0.962 -0.146 0.233 174 171 163 0
3.6275 18.8517 -54.3909 -0.532 -0.803 -0.267 172 170 162 0
6.2879 17.3856 -55.2978 -0.888 -0.458 -0.024 173 166 158 0
6.4156 17.2260 -55.3065 -0.888 -0.456 -0.052 173 166 158 0
16.6942 33.5100 -67.3651 -0.949 -0.269 0.163 174 163 159 0
15.4781 30.0307 -65.3332 -0.952 -0.219 0.212 173 163 158 0
15.4733 28.7248 -64.8216 -0.932 -0.290 0.217 173 164 155 0
13.9001 25.5957 -62.7277 -0.221 -0.881 0.418 174 165 155 0
14.1296 25.5765 -62.8478 -0.253 -0.938 0.237 173 164 155 0
14.3274 25.5027 -62.9289 -0.253 -0.938 0.237 174 165 156 0
15.1910 24.5230 -63.0269 -0.803 -0.366 -0.471 171 161 153 0
15.5417 23.5171 -62.8298 -0.739 -0.373 -0.560 170 159 153 0
15.6306 23.2712 -62.7833 -0.739 -0.373 -0.560 171 160 153 0
3.0204 0.9740 -47.0853 -0.520 -0.481 -0.706 165 155 148 0
-0.2098 -7.7868 -41.8757 -0.731 -0.228 0.643 160 150 140 0
34.0255 29.3415 -75.3708 -0.968 -0.250 0.021 147 133 120 0
34.2544 28.5507 -75.1898 -0.954 -0.297 0.035 92 85 76 0
-34.2803 28.7780 -37.4321 0.100 -0.048 0.994 226 217 218 0
-31.8425 44.0446 -44.7746 0.217 -0.961 -0.172 223 213 216 0
-29.3474 42.2231 -45.4491 0.486 -0.873 0.045 219 203 206 0
-25.5447 55.3294 -52.7041 -0.702 -0.620 -0.350 196 167 174 0
-25.3692 54.8959 -52.6319 -0.750 -0.591 -0.297 192 162 168 0
-25.1997 54.4273 -52.5425 -0.779 -0.569 -0.264 188 154 162 0
-25.0463 43.0225 -48.1563 -0.988 -0.054 -0.142 161 100 113 0
-25.1035 41.2444 -47.4273 -0.996 -0.036 -0.085 158 97 110 0
-25.0320 40.3421 -47.1133 -0.999 -0.022 -0.045 156 92 104 0
-25.7791 34.2129 -44.2943 0.106 -0.962 0.252 151 83 97 0
-25.6982 33.4725 -44.0490 -0.026 -0.958 0.285 150 78 95 0
-24.5601 38.0789 -46.4885 -0.790 -0.322 -0.522 149 73 89 0
-22.2479 31.7663 -45.3003 -0.623 -0.687 -0.374 125 48 64 0
-21.7585 31.2323 -45.3633 -0.419 -0.820 -0.389 127 50 68 0
-21.5463 31.3018 -45.5087 -0.765 -0.576 -0.288 127 50 67 0
-20.6546 32.7212 -46.5614 -0.477 -0.876 0.069 124 45 62 0
-20.5261 32.3700 -46.4953 -0.475 -0.878 0.063 121 44 62 0
-20.8917 29.6899 -45.2410 -0.526 -0.698 0.485 118 44 61 0
-20.7805 29.2888 -45.1456 -0.340 -0.766 0.546 116 44 61 0
-17.4006 31.8020 -48.0121 0.495 -0.847 -0.194 106 43 57 0
-16.1981 29.2805 -47.6926 -0.835 -0.549 -0.039 100 42 57 0
-15.2242 30.6549 -48.7735 -0.384 -0.914 -0.133 100 43 57 0
-13.6588 31.0664 -49.8061 -0.513 -0.744 -0.429 99 49 57 0
-13.0320 32.5473 -50.7356 0.181 -0.860 0.478 96 48 58 0
-13.4024 30.4950 -49.7247 -0.300 -0.929 -0.216 95 48 59 0
-13.1212 30.7488 -49.9808 -0.232 -0.942 -0.245 94 48 58 0
-12.9359 30.6652 -50.0511 -0.235 -0.941 -0.242 95 50 60 0
-9.8545 35.2476 -53.5628 0.360 -0.753 -0.550 89 55 68 0
-6.5169 35.1931 -55.3989 0.104 -0.944 0.314 132 127 133 0
-6.3666 34.9691 -55.3947 0.091 -0.946 0.311 139 133 139 0
-5.8582 35.7978 -56.0026 0.278 -0.881 0.383 144 138 143 0
-4.9438 37.1245 -57.0316 -0.269 -0.801 0.535 151 146 150 0
-5.0698 36.0945 -56.5577 -0.471 -0.646 0.600 153 150 153 0
-4.7471 35.0553 -56.3298 -0.719 -0.694 0.034 162 162 165 0
-5.2744 32.9314 -55.2037 -0.191 -0.757 0.625 165 165 168 0
-5.5880 31.4288 -54.4399 -0.228 -0.761 0.607 168 168 168 0
-5.4072 31.3164 -54.4965 -0.069 -0.995 0.073 170 170 170 0
-3.9516 27.5922 -53.8464 0.745 -0.666 0.048 180 179 175 0
6.4078 32.0361 -61.3543 -0.802 -0.591 0.087 173 174 167 0
-3.2506 10.3989 -47.4954 -0.472 -0.865 0.170 173 173 168 0
-3.4290 9.6341 -47.0962 -0.609 -0.784 0.119 174 173 168 0
3.4827 18.2826 -54.3338 -0.788 -0.353 -0.505 174 169 163 0
15.3714 28.6743 -65.0247 -0.931 -0.293 0.219 173 162 155 0
13.9019 25.3067 -62.8865 -0.055 -0.976 0.212 173 162 155 0
14.2591 25.5057 -63.1634 -0.253 -0.943 0.215 172 163 154 0
15.3174 24.8477 -63.4944 -0.803 -0.366 -0.471 172 159 153 0
5.5000 5.9318 -50.6140 -0.766 -0.576 -0.286 164 154 148 0
34.1331 28.8416 -75.5321 -0.954 -0.293 0.058 144 132 117 0
34.2274 28.6022 -75.4907 -0.954 -0.297 0.035 92 85 76 0
34.3169 28.3579 -75.4447 -0.952 -0.301 0.049 51 50 50 0
35.1439 27.9906 -75.7609 -0.815 -0.575 0.064 255 255 254 0
-30.4877 38.2142 -43.5045 0.061 -0.990 -0.127 223 209 209 0
-30.3481 37.6748 -43.3696 -0.467 -0.641 0.610 222 208 208 0
-27.8035 45.4204 -47.8428 0.583 -0.800 -0.141 211 192 196 0
-25.2143 56.8449 -53.7918 -0.880 -0.420 -0.224 196 166 175 0
-24.8441 43.5666 -48.7613 -1.000 0.001 0.016 159 100 113 0
-24.9621 41.3951 -47.8391 -1.000 -0.025 -0.018 157 96 109 0
-24.8729 39.2738 -47.0522 -0.704 -0.434 -0.562 150 80 97 0
-23.4408 36.7102 -46.8394 -0.980 -0.181 0.081 141 65 81 0
-18.4894 30.1317 -47.0049 -0.168 -0.747 -0.643 117 53 65 0
-14.7607 31.1464 -49.4835 -0.573 -0.672 -0.469 101 46 59 0
-14.0158 30.8266 -49.7726 -0.894 -0.446 -0.042 98 47 55 0
-13.7103 31.1745 -50.0802 -0.493 -0.804 -0.332 96 46 55 0
-13.5090 31.1454 -50.1808 -0.069 -0.973 0.222 97 49 60 0
-13.4856 30.4879 -49.9346 -0.377 -0.897 -0.231 96 50 61 0
-13.1126 31.0638 -50.3696 0.458 -0.848 -0.268 96 52 63 0
-8.9285 38.5714 -55.6628 -0.490 -0.674 -0.553 92 59 74 0
-8.2744 38.4671 -55.9863 -0.162 -0.978 -0.134 92 66 76 0
-8.0349 38.5000 -56.1328 -0.183 -0.936 0.300 91 70 80 0
-5.0535 34.4232 -56.1869 -0.482 -0.798 -0.362 167 167 170 0
-5.3417 32.9716 -55.4537 -0.260 -0.790 0.556 169 169 170 0
-5.7041 31.3290 -54.6039 -0.069 -0.995 0.073 170 170 170 0
-5.4911 31.3063 -54.7136 -0.069 -0.995 0.073 173 173 174 0
-3.3648 10.6871 -47.7668 -0.903 -0.358 -0.238 172 173 168 0
5.1597 15.1823 -54.2914 -0.933 -0.282 0.225 169 163 155 0
2.4752 8.8872 -50.3122 -0.737 -0.589 0.331 172 163 158 0
19.3430 33.4128 -69.3874 -0.699 -0.663 0.269 171 160 154 0
5.7372 6.7216 -51.2765 0.034 -0.697 0.716 167 155 149 0
5.9942 6.8161 -51.4570 -0.181 -0.815 0.551 165 154 148 0
6.2029 6.8319 -51.5795 0.140 -0.951 -0.274 164 154 146 0
6.6194 6.8601 -51.8228 0.084 -0.961 -0.262 164 156 144 0
24.7632 18.6408 -66.5827 0.644 -0.706 0.294 147 133 124 0
26.1187 20.1144 -67.9195 0.348 -0.452 0.821 147 133 124 0
34.1107 28.8999 -75.8393 -0.951 -0.308 0.003 146 131 118 0
34.2046 28.6594 -75.7968 -0.948 -0.317 -0.018 93 85 78 0
-34.4197 24.7209 -36.2187 -0.437 -0.679 0.590 225 217 218 0
-27.9137 45.3065 -48.0174 0.576 -0.808 -0.124 212 194 198 0
-27.5640 44.6876 -47.9671 0.570 -0.806 -0.161 206 187 191 0
-27.8461 40.8236 -46.2767 0.315 -0.922 -0.226 204 182 188 0
-24.7854 41.7715 -48.3616 -0.967 -0.139 -0.215 156 95 109 0
-24.5670 40.4687 -47.9667 -0.592 -0.457 -0.664 152 84 101 0
-19.4480 30.6875 -46.9443 -0.532 -0.767 -0.360 113 47 59 0
-15.5318 32.4894 -49.8455 0.127 -0.764 -0.632 104 49 59 0
-14.4695 30.2289 -49.5418 -0.834 -0.428 0.349 101 50 59 0
-14.2076 30.4279 -49.7670 -0.824 -0.482 0.299 100 50 59 0
-13.9669 30.5464 -49.9483 0.121 -0.972 0.203 99 50 60 0
-13.7457 30.5929 -50.0903 0.204 -0.967 0.150 100 53 63 0
-9.0735 39.1376 -56.0885 -0.783 -0.499 -0.372 94 62 77 0
-8.6204 38.3695 -56.0367 -0.316 -0.857 -0.407 94 71 81 0
-8.3224 38.5932 -56.2919 -0.106 -0.993 -0.058 92 71 81 0
-5.5312 35.2476 -56.5230 0.447 -0.532 0.719 163 161 166 0
-5.5285 31.4260 -55.0084 -0.077 -0.997 0.032 174 175 174 0
-6.4781 28.1791 -53.1901 -0.827 -0.551 0.110 176 176 176 0
-1.5318 16.3783 -51.2702 0.297 -0.948 -0.114 172 173 168 0
11.6705 32.1369 -64.8926 0.352 -0.839 0.415 169 165 158 0
4.7536 14.9417 -54.2094 -0.936 -0.118 0.331 167 162 156 0
2.5285 9.0873 -50.6446 -0.866 -0.497 0.063 170 161 156 0
7.1010 13.8712 -55.0952 0.871 -0.371 0.321 169 159 152 0
16.0713 26.3353 -65.0479 -0.786 -0.618 0.003 169 156 148 0
15.9941 25.7991 -64.7921 -0.743 -0.669 -0.021 170 157 149 0
16.1745 24.8888 -64.5317 -0.681 -0.418 -0.602 167 155 148 0
8.7902 10.0729 -54.5315 -0.107 -0.777 0.621 162 154 141 0
11.9961 3.0214 -53.5239 0.511 -0.848 -0.141 147 134 125 0
24.4019 18.5693 -66.6180 0.739 -0.615 0.275 147 133 124 0
34.0900 28.9606 -76.1491 -0.951 -0.308 0.003 144 128 115 0
34.1755 28.7086 -76.0969 -0.946 -0.322 -0.028 91 83 77 0
34.2677 28.4667 -76.0524 -0.949 -0.314 -0.017 50 50 51 0
35.6685 28.8300 -76.9785 -0.925 -0.357 0.128 255 255 255 0
-32.9765 32.2174 -40.2449 -0.383 -0.842 -0.379 224 214 215 0
-32.9244 30.7518 -39.6892 -0.028 -0.985 -0.170 223 213 214 0
-32.6190 32.0748 -40.3879 -0.223 -0.907 -0.357 225 215 216 0
-29.8093 37.0357 -43.9386 -0.867 -0.493 0.069 220 204 209 0
-24.9236 51.9678 -52.6288 -0.990 -0.140 0.002 183 152 158 0
-21.8852 32.8754 -46.7094 -0.702 -0.618 -0.354 130 57 74 0
-19.4924 30.8583 -47.2425 -0.532 -0.767 -0.360 113 50 61 0
-15.2804 32.9734 -50.4417 -0.057 -0.823 -0.565 105 52 61 0
-13.3433 33.8606 -51.8789 0.123 -0.811 -0.572 101 51 62 0
-14.0438 30.5629 -50.1713 -0.825 -0.565 -0.024 100 52 63 0
-9.6998 39.6406 -56.2226 0.355 -0.600 -0.717 94 61 74 0
-9.3333 39.3295 -56.3034 -0.362 -0.769 -0.527 92 65 78 0
-9.0800 39.4084 -56.4765 -0.588 -0.639 -0.496 92 67 80 0
-8.8741 39.3288 -56.5599 -0.452 -0.707 -0.544 93 69 82 0
-8.7002 39.1439 -56.5834 -0.311 -0.928 -0.207 91 70 82 0
-8.5390 38.9193 -56.5839 -0.034 -0.959 0.282 92 72 84 0
-8.2881 38.9869 -56.7511 -0.072 -0.967 0.243 93 75 86 0
-8.0001 39.1722 -56.9862 -0.040 -0.937 0.347 96 80 90 0
-7.5572 36.9435 -56.3445 -0.202 -0.823 0.531 120 112 121 0
-7.4132 36.6834 -56.3212 -0.126 -0.881 0.456 124 118 126 0
-7.2569 36.4636 -56.3209 -0.021 -0.939 0.344 130 125 134 0
-7.1262 36.1677 -56.2759 -0.049 -0.676 0.735 134 130 140 0
-8.2228 32.1537 -54.0611 -0.266 -0.606 0.750 140 137 147 0
-5.1147 36.0318 -57.3464 -0.709 -0.334 0.621 170 169 174 0
-5.6093 31.4250 -55.2316 -0.077 -0.997 0.032 173 175 174 0
-5.1652 32.0426 -55.7264 0.224 -0.974 0.017 174 176 175 0
-3.8818 31.2772 -56.1386 0.418 -0.746 0.518 179 178 176 0
-3.5931 31.4484 -56.3684 0.498 -0.756 0.424 180 179 177 0
-1.7137 16.1304 -51.3070 0.416 -0.898 -0.142 171 172 167 0
-3.8922 10.2361 -47.7368 -0.887 -0.462 -0.012 172 172 167 0
-4.0034 4.3664 -45.3325 -0.884 -0.453 -0.115 168 165 160 0
11.5549 31.5901 -64.8953 0.378 -0.849 0.369 169 162 159 0
18.1955 31.7234 -68.6617 -0.656 -0.751 0.073 168 158 150 0
18.4326 31.6879 -68.7801 -0.898 -0.439 0.041 167 157 147 0
20.6420 32.3318 -70.2724 0.259 -0.855 -0.448 165 154 145 0
21.7890 33.7764 -71.4903 0.259 -0.860 -0.439 165 153 145 0
22.8389 28.7690 -70.0792 0.261 -0.440 0.859 162 149 140 0
17.0700 17.1080 -62.2004 -0.201 -0.974 0.101 157 144 137 0
17.3014 17.1057 -62.3288 0.001 -0.946 -0.324 154 142 136 0
17.5765 17.1670 -62.5071 0.001 -0.946 -0.324 154 143 138 0
19.5383 18.6496 -64.1957 0.229 -0.886 0.404 154 141 133 0
34.0693 29.0214 -76.4596 -0.951 -0.308 0.003 145 128 116 0
34.1317 28.7389 -76.3818 -0.915 -0.397 -0.069 92 83 77 0
34.2304 28.5048 -76.3436 -0.913 -0.403 -0.063 50 50 50 0
36.6437 30.5291 -78.5008 -0.745 -0.667 0.005 254 255 255 0
-73.2952 68.3379 -32.4083 0.078 -0.845 -0.528 255 255 255 0
-22.2665 33.4266 -46.9753 -0.612 -0.720 -0.328 135 64 78 0
-22.0896 33.2978 -47.0227 -0.612 -0.720 -0.328 135 64 78 0
-21.9165 33.1500 -47.0602 -0.692 -0.616 -0.376 135 63 78 0
-15.3160 33.1600 -50.7609 -0.066 -0.822 -0.565 107 54 63 0
-13.2805 34.3958 -52.3968 0.282 -0.845 -0.454 105 54 66 0
-13.2347 33.7813 -52.1759 0.100 -0.673 -0.733 103 53 67 0
-12.0313 34.2192 -53.0256 -0.091 -0.784 -0.614 98 60 73 0
-9.2279 39.2091 -56.5983 -0.147 -0.974 -0.173 92 69 82 0
-8.9951 39.2194 -56.7328 -0.184 -0.979 -0.083 93 72 84 0
-8.7626 39.2279 -56.8665 -0.311 -0.928 -0.207 92 73 86 0
-8.5487 39.1740 -56.9646 -0.104 -0.993 -0.052 93 76 89 0
-8.2963 39.2449 -57.1344 -0.082 -0.995 -0.059 94 79 91 0
-7.6192 36.3099 -56.3357 -0.526 -0.286 0.801 131 126 134 0
-8.4764 32.2975 -54.2452 -0.506 -0.694 0.511 141 138 148 0
-5.0741 35.0745 -57.2652 -0.832 -0.362 0.421 174 172 175 0
-4.0236 36.7447 -58.5239 -0.584 -0.669 -0.460 174 175 175 0
-4.5074 34.7370 -57.4472 -0.776 -0.619 0.120 174 175 175 0
-4.0738 32.1826 -56.6648 0.103 -0.911 0.398 179 179 177 0
-3.8673 32.1321 -56.7602 -0.032 -0.973 0.228 179 178 176 0
-3.6537 32.0999 -56.8669 -0.032 -0.973 0.228 178 177 175 0
-3.8814 9.9893 -47.8653 -0.874 -0.482 -0.054 168 167 163 0
-3.8139 9.7340 -47.8006 -0.864 -0.501 -0.048 168 167 163 0
9.3686 19.5399 -59.1191 0.623 -0.780 -0.061 165 156 152 0
5.8985 12.0148 -54.1554 0.879 -0.371 0.299 166 155 149 0
18.1295 31.7382 -68.9214 -0.633 -0.769 0.093 168 157 149 0
9.6610 11.3044 -55.9775 -0.087 -0.993 0.084 160 151 140 0
30.3364 24.9217 -73.0220 0.632 -0.748 -0.204 144 128 115 0
34.0381 29.0688 -76.7596 -0.952 -0.306 0.003 145 128 116 0
34.1058 28.7925 -76.6866 -0.912 -0.403 -0.069 92 83 77 0
34.2058 28.5597 -76.6492 -0.912 -0.403 -0.069 48 48 49 0
36.5792 30.5335 -78.7706 -0.742 -0.671 0.006 254 255 255 0
-30.6955 39.7071 -45.0420 -0.507 -0.697 -0.507 223 211 215 0
-27.6576 42.8588 -48.0183 0.114 -0.040 0.993 211 191 201 0
-23.8142 42.9255 -50.2011 -0.767 -0.344 -0.541 152 90 103 0
-21.9737 34.3455 -47.7700 -0.527 -0.661 -0.534 135 67 80 0
-21.5458 34.4467 -48.0508 -0.749 -0.597 -0.287 135 64 80 0
-20.5667 32.2551 -47.7153 -0.431 -0.857 0.282 127 57 74 0
-19.3490 33.1820 -48.7726 -0.089 -0.454 0.887 119 56 69 0
-19.1598 33.1080 -48.8488 -0.069 -0.460 0.885 115 54 67 0
-16.6391 33.2448 -50.3180 -0.557 -0.656 -0.508 109 55 68 0
-16.4570 33.1344 -50.3756 -0.544 -0.660 -0.518 111 59 71 0
-16.4925 32.1523 -49.9592 -0.231 -0.742 -0.629 110 58 69 0
-14.4931 34.1957 -51.9056 -0.098 -0.816 -0.570 109 58 71 0
-14.1195 33.9911 -52.0326 -0.335 -0.911 -0.241 106 58 72 0
-13.7240 33.8690 -52.2051 0.477 -0.816 -0.327 107 58 73 0
-9.4000 39.6989 -56.9839 -0.353 -0.811 -0.467 93 71 85 0
-9.2093 39.5662 -57.0374 -0.514 -0.741 -0.433 93 72 86 0
-8.9764 39.5744 -57.1714 -0.408 -0.789 -0.460 94 75 90 0
-7.7413 40.5768 -58.2688 -0.385 -0.760 0.523 107 95 107 0
-7.4946 40.6169 -58.4234 -0.338 -0.785 0.519 110 100 112 0
-7.3365 40.3727 -58.4134 -0.330 -0.804 0.495 116 108 120 0
-8.2618 34.5783 -55.5553 0.111 -0.544 0.832 141 138 146 0
-8.1519 34.2279 -55.4756 0.078 -0.420 0.904 146 143 152 0
-8.7694 31.6504 -54.0887 -0.677 -0.734 0.043 150 147 157 0
-5.0085 35.5014 -57.7529 -0.743 -0.455 0.491 175 173 176 0
-4.8750 35.2279 -57.7173 -0.440 -0.652 0.617 175 173 176 0
-4.4593 35.1059 -57.9013 -0.431 -0.610 0.665 174 175 176 0
-3.9447 10.3866 -48.2114 -0.625 -0.654 -0.426 168 167 165 0
3.3002 11.8831 -52.8793 -0.861 -0.363 -0.357 163 156 150 0
4.6042 13.1255 -54.1123 0.767 -0.642 0.007 166 156 151 0
9.6277 11.3449 -56.2114 -0.115 -0.991 0.066 158 149 139 0
10.4563 11.9790 -56.9321 -0.193 -0.947 -0.258 160 147 138 0
22.4015 28.3155 -70.2272 -0.130 -0.950 0.284 161 147 138 0
17.4403 17.8422 -63.2165 -0.064 -0.802 -0.594 157 143 137 0
18.5356 18.0652 -63.9209 0.206 -0.881 -0.427 154 142 135 0
33.9671 29.0641 -77.0168 -0.914 -0.405 0.008 144 127 115 0
34.0548 28.8137 -76.9650 -0.920 -0.389 -0.044 92 83 77 0
34.1753 28.6071 -76.9492 -0.915 -0.399 -0.061 48 48 48 0
34.3806 28.5114 -77.0257 -0.653 -0.746 -0.135 246 246 245 0
34.6424 28.4888 -77.1634 -0.628 -0.758 -0.175 254 255 255 0
36.5256 30.5520 -79.0526 -0.758 -0.652 -0.009 254 255 255 0
-73.6325 68.7723 -32.9873 0.106 -0.846 -0.522 255 255 255 0
-38.6121 53.4398 -46.4370 0.437 -0.728 -0.528 228 222 221 0
-26.2418 46.2012 -50.4479 0.239 -0.179 0.954 196 178 184 0
-24.9403 47.6295 -51.7590 -0.781 -0.608 -0.140 183 152 162 0
-24.7478 47.4263 -51.7846 -0.648 -0.677 -0.348 180 146 157 0
-22.1751 34.8130 -48.1090 -0.413 -0.610 -0.676 138 68 83 0
-21.9845 34.7401 -48.1865 -0.589 -0.649 -0.482 138 68 82 0
-20.7773 32.6212 -48.0044 -0.309 -0.872 -0.379 131 62 80 0
-20.5269 32.8495 -48.2378 -0.317 -0.892 -0.322 128 60 77 0
-20.4160 32.4101 -48.1217 0.105 -0.991 -0.084 127 60 75 0
-20.1180 32.8567 -48.4704 0.013 -0.778 0.628 127 61 74 0
-19.9274 32.7941 -48.5521 0.013 -0.778 0.628 127 62 76 0
-19.7600 32.6239 -48.5770 -0.032 -0.960 0.277 127 63 77 0
-19.4610 33.0577 -48.9211 -0.061 -0.477 0.877 121 59 73 0
-19.0565 31.2100 -48.3982 -0.074 -0.879 -0.471 114 56 68 0
-16.6489 33.5496 -50.7007 -0.557 -0.656 -0.508 109 55 69 0
-16.4663 33.4384 -50.7582 -0.520 -0.684 -0.512 108 54 68 0
-10.9189 40.3161 -56.6671 0.082 -0.609 -0.789 101 68 79 0
-9.1402 41.6683 -58.2154 -0.668 -0.629 -0.398 96 72 88 0
-9.2922 40.3627 -57.5999 -0.442 -0.736 -0.512 94 74 90 0
-8.8307 41.1337 -58.1722 -0.504 -0.716 -0.483 94 76 91 0
-7.8111 40.6391 -58.5442 -0.445 -0.743 0.500 117 108 119 0
-7.5985 40.5690 -58.6352 -0.288 -0.746 0.600 122 114 127 0
-8.7878 35.2986 -55.8273 -0.035 -0.819 0.572 135 131 142 0
-8.5671 32.5229 -54.8243 -0.222 -0.848 0.481 157 154 163 0
-5.0075 35.0891 -57.8660 -0.448 -0.642 0.622 174 172 175 0
-2.0869 12.3922 -50.2918 -0.453 -0.881 -0.138 169 164 163 0
-1.9972 12.1727 -50.2531 -0.374 -0.919 -0.129 169 164 163 0
-1.7766 12.2233 -50.3975 -0.536 -0.728 -0.428 169 165 162 0
-1.5997 12.1837 -50.4809 -0.557 -0.715 -0.421 169 166 161 0
18.3744 28.9673 -68.5167 -0.485 -0.537 0.690 161 153 142 0
18.8459 28.9057 -68.7566 -0.441 -0.540 0.716 160 151 142 0
10.4399 12.0465 -57.1891 -0.198 -0.947 -0.251 160 147 138 0
33.9295 29.1034 -77.3109 -0.915 -0.402 0.017 142 125 115 0
34.0152 28.8498 -77.2562 -0.916 -0.400 0.018 91 82 76 0
34.1304 28.6359 -77.2340 -0.920 -0.391 -0.038 48 48 49 0
34.3734 28.5888 -77.3514 -0.662 -0.738 -0.131 246 246 244 0
34.6414 28.5737 -77.4959 -0.634 -0.752 -0.177 254 255 255 0
35.1498 28.8678 -77.9009 -0.727 -0.649 -0.223 254 255 255 0
-26.2048 44.0224 -49.8656 0.328 -0.208 0.921 196 174 183 0
-25.0580 47.4936 -51.9284 -0.742 -0.636 -0.212 188 160 170 0
-23.6905 49.1425 -53.3711 0.190 -0.688 0.700 163 123 136 0
-23.3214 50.0559 -53.9519 -0.114 -0.353 0.929 160 118 132 0
-23.0700 50.1992 -54.1518 0.089 -0.194 0.977 157 110 125 0
-22.8245 50.3003 -54.3312 0.044 -0.135 0.990 156 106 122 0
-22.5895 33.0741 -47.4294 -0.943 -0.332 0.039 140 72 87 0
-21.8865 33.5814 -48.0321 -0.730 -0.670 0.131 140 69 87 0
-21.7393 33.2966 -47.9986 -0.715 -0.693 0.091 138 67 85 0
-19.5528 33.0252 -49.1181 -0.069 -0.462 0.884 121 60 75 0
-19.1901 32.8082 -49.2336 0.010 -0.296 0.955 117 59 73 0
-18.9385 33.0144 -49.4594 0.160 -0.290 0.943 117 59 73 0
-19.1003 31.3846 -48.7029 -0.284 -0.917 -0.281 115 59 71 0
-18.8481 31.5995 -48.9324 0.069 -0.830 -0.554 114 58 69 0
-12.3107 39.7246 -55.9288 -0.151 -0.931 -0.332 109 66 82 0
-12.3562 38.7251 -55.4951 -0.382 -0.803 -0.458 108 66 83 0
-12.2724 38.2107 -55.3322 -0.482 -0.732 -0.482 107 68 84 0
-11.9013 38.7422 -55.7580 -0.670 -0.591 -0.451 106 71 85 0
-11.8254 38.2048 -55.5813 -0.628 -0.631 -0.456 105 74 88 0
-10.0772 42.7995 -58.4412 -0.050 -0.994 -0.094 103 77 89 0
-9.1551 41.9258 -58.6033 -0.600 -0.715 -0.358 100 79 96 0
-9.2374 35.5648 -55.9595 0.008 -0.714 0.700 136 130 142 0
-9.1213 35.2185 -55.8834 -0.036 -0.903 0.428 140 135 146 0
-8.8947 35.2278 -56.0148 -0.085 -0.783 0.617 146 143 154 0
-5.1306 35.6339 -58.2986 -0.741 -0.435 0.512 173 171 174 0
-5.0666 35.1597 -58.1410 -0.749 -0.439 0.496 174 172 175 0
-4.8403 35.1508 -58.2647 -0.760 -0.279 0.586 174 172 176 0
-5.9447 30.7672 -55.8532 -0.842 -0.242 0.483 175 175 177 0
-5.7050 12.2242 -48.4164 0.060 -0.975 -0.214 168 167 162 0
1.3757 16.7019 -54.2290 0.550 -0.708 -0.442 167 164 157 0
4.2875 18.2572 -56.5026 -0.752 -0.363 -0.551 164 159 150 0
9.1852 20.7681 -60.2837 0.618 -0.697 -0.363 163 154 147 0
5.1331 11.0070 -54.0179 0.157 -0.406 0.900 164 154 144 0
14.9865 23.5019 -64.6644 0.546 -0.826 -0.142 160 151 142 0
8.5588 10.1672 -55.6025 0.073 -0.906 0.417 157 149 138 0
10.2740 12.5587 -57.5442 -0.575 -0.742 -0.345 158 149 140 0
10.1740 12.0596 -57.2841 -0.214 -0.942 -0.259 158 148 139 0
10.4197 12.1084 -57.4423 -0.193 -0.946 -0.260 159 146 138 0
11.7646 13.5365 -58.7822 0.006 -0.999 -0.039 158 145 136 0
18.4966 22.9074 -66.3968 0.303 -0.598 0.742 154 141 132 0
19.1294 23.1248 -66.8416 0.048 -0.934 0.353 156 142 133 0
33.8819 29.1297 -77.5947 -0.902 -0.428 0.061 142 126 117 0
33.9903 28.9054 -77.5642 -0.902 -0.428 0.061 90 82 76 0
34.0851 28.6644 -77.5191 -0.913 -0.403 0.055 48 48 48 0
34.3711 28.6728 -77.6835 -0.666 -0.731 -0.150 246 246 243 0
34.5651 28.5616 -77.7472 -0.689 -0.705 -0.168 254 255 255 0
34.3691 27.5896 -77.2400 -0.486 -0.870 -0.085 255 255 255 0
-26.2904 42.5573 -49.4977 0.256 -0.197 0.947 195 174 183 0
-25.0486 48.2409 -52.5316 -0.800 -0.520 -0.300 192 164 176 0
-24.9728 47.2265 -52.1578 -0.775 -0.499 -0.388 189 159 171 0
-23.6799 49.8595 -53.9677 0.061 -0.568 0.820 171 134 147 0
-23.4597 49.8088 -54.0710 -0.132 -0.339 0.931 170 129 143 0
-23.2248 49.8503 -54.2204 0.081 -0.184 0.979 165 122 136 0
-22.9762 49.9754 -54.4119 0.039 -0.136 0.990 160 114 129 0
-22.0431 36.4416 -49.3799 -0.609 -0.505 -0.612 145 77 92 0
-20.7661 33.5015 -48.8921 -0.832 -0.457 -0.314 133 68 85 0
-20.6618 33.0172 -48.7520 -0.842 -0.401 -0.361 130 66 82 0
-19.2131 32.1628 -49.2176 0.055 -0.437 0.898 118 61 76 0
-18.1033 35.2499 -51.1108 -0.929 -0.285 0.236 114 59 73 0
-18.0690 34.4769 -50.8127 -0.448 -0.538 0.714 114 59 73 0
-15.6692 35.6297 -52.6386 0.045 -0.621 -0.782 112 61 74 0
-12.5610 39.1269 -55.8265 -0.053 -0.966 -0.254 109 69 86 0
-12.4430 38.7311 -55.7304 -0.287 -0.858 -0.426 108 70 88 0
-8.5278 41.1820 -58.9435 -0.190 -0.907 -0.377 116 111 119 0
-10.3044 34.5353 -55.2126 0.471 -0.865 0.172 125 121 130 0
-10.2239 34.0743 -55.0687 0.274 -0.902 0.332 133 127 138 0
-9.6479 35.2337 -55.8694 0.009 -0.650 0.760 140 136 147 0
-9.4869 35.0324 -55.8775 0.073 -0.719 0.692 145 140 151 0
-9.2839 34.9684 -55.9656 0.073 -0.719 0.692 150 146 156 0
-9.0910 34.8715 -56.0345 0.055 -0.652 0.757 155 152 162 0
-9.0408 32.9291 -55.2652 -0.378 -0.529 0.760 162 159 166 0
-7.5370 32.1386 -55.7880 0.706 -0.573 -0.417 171 170 173 0
-4.8569 35.3421 -58.6140 -0.734 -0.242 0.634 174 172 175 0
-6.9627 27.5328 -54.2202 0.517 -0.716 0.469 176 176 178 0
-5.8161 30.1202 -55.9290 -0.761 -0.228 0.607 175 175 177 0
-5.2110 31.1820 -56.7060 -0.290 -0.638 0.713 176 176 178 0
-5.2212 30.5434 -56.4380 -0.276 -0.555 0.785 177 177 179 0
-4.9858 30.5809 -56.5861 -0.915 -0.311 0.258 175 175 176 0
-4.7405 30.6438 -56.7502 -0.829 -0.425 0.362 176 174 175 0
-7.3025 1.0990 -43.1731 0.771 -0.604 -0.204 168 163 160 0
1.7251 15.8721 -54.3277 -0.115 -0.598 -0.793 165 160 153 0
4.4516 8.8932 -52.9982 -0.212 -0.054 0.976 162 152 142 0
16.1457 26.3447 -66.7556 0.042 -0.746 -0.664 161 151 144 0
20.1445 29.5812 -70.3383 -0.446 -0.842 -0.305 157 147 137 0
11.2442 13.1586 -58.5781 -0.222 -0.958 -0.179 158 145 137 0
18.7698 23.0535 -66.8829 0.097 -0.919 0.383 156 142 133 0
18.9993 23.0280 -67.0017 0.097 -0.919 0.383 156 142 133 0
22.1073 24.6996 -69.4398 0.500 -0.725 -0.473 155 142 133 0
34.3811 31.7532 -79.2537 0.446 -0.498 0.744 145 129 118 0
33.8258 29.1450 -77.8697 -0.862 -0.506 0.036 142 127 117 0
33.9059 28.8832 -77.8073 -0.915 -0.383 0.128 91 82 77 0
34.3812 28.7732 -78.0300 -0.672 -0.727 -0.143 246 246 243 0
34.5617 28.6439 -78.0786 -0.689 -0.705 -0.168 254 255 254 0
34.2928 27.5765 -77.4887 -0.516 -0.851 -0.099 255 255 255 0
-28.7752 53.4791 -52.8848 0.258 -0.894 -0.367 221 208 217 0
-26.9014 48.4276 -51.8562 -0.823 -0.563 0.074 210 195 203 0
-26.4604 48.4101 -52.0979 -0.437 -0.838 -0.328 209 194 201 0
-25.8763 49.4408 -52.8533 -0.504 -0.523 -0.687 204 188 196 0
-25.0455 47.4001 -52.4794 0.626 -0.635 0.453 195 168 181 0
-24.8581 47.1619 -52.4868 -0.684 -0.595 -0.422 191 163 175 0
-23.8047 49.6965 -54.1282 -0.022 -0.410 0.912 180 147 160 0
-23.5991 49.5517 -54.1844 -0.132 -0.339 0.931 179 144 157 0
-22.9272 49.4722 -54.5309 -0.170 -0.304 0.937 164 120 135 0
-22.0282 36.9935 -49.8845 -0.605 -0.508 -0.613 148 79 96 0
-21.1504 37.2023 -50.4662 -0.989 -0.091 -0.120 145 77 92 0
-21.1023 35.3226 -49.7171 0.210 -0.916 -0.341 139 74 88 0
-19.7159 32.1145 -49.1747 0.050 -0.450 0.892 118 63 78 0
-19.0289 33.3703 -50.0810 -0.848 -0.484 0.216 120 65 80 0
-18.2278 35.0821 -51.2403 -0.925 -0.295 0.241 116 62 78 0
-18.1811 34.3622 -50.9693 -0.448 -0.538 0.714 116 62 78 0
-15.4846 36.7218 -53.4659 -0.008 -0.620 -0.784 114 66 80 0
-15.0420 37.6213 -54.0872 -0.434 -0.587 -0.683 116 69 83 0
-14.9091 37.2775 -54.0202 -0.446 -0.587 -0.675 117 72 87 0
-14.7454 36.2046 -53.6695 0.153 -0.961 -0.231 114 71 87 0
-13.9947 37.4145 -54.5930 -0.759 -0.617 -0.210 117 77 93 0
-13.8740 37.0331 -54.5036 -0.769 -0.612 -0.186 118 79 95 0
-13.7169 36.7944 -54.4937 -0.667 -0.667 -0.332 117 79 96 0
-13.5222 36.6991 -54.5642 -0.578 -0.771 -0.267 113 78 96 0
-13.2443 36.9140 -54.8099 -0.495 -0.831 -0.255 110 76 94 0
-12.5220 38.7664 -55.9827 -0.039 -0.777 -0.629 106 75 94 0
-11.3809 38.8107 -56.6450 -0.278 -0.778 -0.564 98 81 95 0
-10.4820 33.5018 -54.9598 0.141 -0.978 0.156 146 144 151 0
-9.8552 34.8340 -55.8638 0.043 -0.602 0.797 150 149 157 0
-8.8076 31.8667 -55.2296 0.118 -0.809 0.575 168 167 174 0
-9.0360 30.4997 -54.5361 0.223 -0.754 -0.618 168 167 173 0
-6.3025 30.8336 -56.2169 -0.604 -0.148 0.783 174 173 177 0
-6.3090 30.1939 -55.9491 -0.455 -0.518 0.725 174 174 177 0
-6.9672 27.7377 -54.5631 0.497 -0.683 0.536 175 175 177 0
-5.3843 30.9258 -56.7733 -0.227 -0.513 0.828 175 175 177 0
-3.8338 33.3224 -58.6383 -0.781 -0.476 0.404 177 176 178 0
-3.6894 33.0955 -58.6261 -0.781 -0.476 0.404 178 176 177 0
0.2659 19.9104 -55.4132 -0.551 -0.760 0.344 164 162 162 0
0.5092 19.9761 -55.5776 -0.560 -0.729 0.394 164 163 161 0
0.7719 20.0813 -55.7693 -0.478 -0.712 0.515 164 163 161 0
-0.5628 13.4688 -52.2849 0.764 -0.621 -0.176 163 159 155 0
4.8061 19.0924 -57.6381 -0.250 -0.519 -0.818 164 157 148 0
4.2682 9.3689 -53.3185 0.765 -0.227 0.603 160 151 142 0
29.3361 28.0103 -75.1675 0.762 -0.647 -0.006 152 135 128 0
31.4729 30.5764 -77.4334 0.759 -0.650 -0.017 150 133 126 0
34.3156 32.5270 -79.8436 -0.003 -0.133 0.991 149 132 122 0
34.4688 32.3481 -79.8562 -0.003 -0.135 0.991 148 132 119 0
34.5606 31.7057 -79.6427 0.380 -0.391 0.838 143 129 117 0
33.7893 29.1862 -78.1668 -0.862 -0.506 0.036 142 127 117 0
34.3082 28.7658 -78.2861 -0.745 -0.665 -0.057 246 246 243 0
34.5403 28.7030 -78.3911 -0.737 -0.673 -0.069 254 255 254 0
-28.8099 54.1268 -53.4369 0.217 -0.900 -0.379 222 209 218 0
-26.9891 48.5189 -52.1370 -0.823 -0.563 0.074 212 197 204 0
-25.8358 48.8233 -52.9155 -0.630 -0.540 -0.558 206 190 199 0
-23.7798 49.0239 -54.1611 0.043 -0.308 0.951 186 155 168 0
-22.3971 51.9629 -56.1636 0.504 -0.806 0.310 168 130 144 0
-21.1772 38.6213 -51.3118 -0.995 -0.074 -0.063 146 79 96 0
-21.2126 35.2057 -49.8731 0.212 -0.916 -0.340 141 77 93 0
-19.2908 33.5070 -50.2540 -0.854 -0.469 0.227 121 69 84 0
-19.1018 33.4260 -50.3272 -0.849 -0.478 0.224 120 67 83 0
-16.2807 35.5935 -52.8224 -0.135 -0.634 -0.762 117 71 86 0
-14.1037 37.3327 -54.7756 -0.479 -0.856 -0.196 112 78 95 0
-13.9074 37.2395 -54.8478 -0.479 -0.856 -0.196 111 79 96 0
-11.5201 38.6296 -56.7748 -0.250 -0.744 -0.620 100 89 103 0
-8.5935 36.2850 -57.4555 -0.491 -0.525 0.695 165 162 171 0
-7.5780 38.7831 -59.0672 -0.208 -0.978 0.023 167 164 173 0
-7.4381 38.4925 -59.0256 -0.007 -0.997 0.080 168 166 175 0
-8.8096 33.4814 -56.1689 -0.247 -0.602 0.760 168 167 176 0
-4.1537 44.9477 -63.5636 0.578 -0.816 -0.029 170 169 176 0
-3.9831 44.7153 -63.5636 0.589 -0.808 0.006 170 169 176 0
-4.6866 36.9762 -59.9514 -0.775 -0.620 -0.126 172 172 175 0
-3.8351 38.7414 -61.1660 -0.782 -0.559 -0.276 172 172 177 0
4.6217 18.8686 -57.6927 -0.437 -0.479 -0.761 164 155 148 0
13.5481 29.3801 -67.1052 -0.230 -0.069 0.971 162 153 146 0
13.5757 28.9852 -66.9569 -0.628 -0.325 0.707 162 153 145 0
8.2615 18.6847 -59.6741 0.133 -0.859 0.495 161 154 145 0
16.6252 27.7994 -68.1883 -0.648 -0.735 -0.201 161 150 144 0
16.9004 27.8406 -68.3610 -0.617 -0.780 -0.103 159 148 142 0
22.3353 35.1052 -74.4510 0.659 -0.752 -0.010 157 147 140 0
22.6499 34.7336 -74.4745 -0.488 -0.628 0.606 160 147 138 0
19.7283 27.9105 -69.9888 -0.863 -0.504 0.024 158 145 136 0
23.9726 21.7423 -69.8263 0.152 -0.832 -0.534 153 140 131 0
33.5063 32.6882 -79.7626 0.642 -0.762 -0.082 147 133 124 0
34.1138 31.9653 -79.8057 0.103 -0.152 0.983 148 133 120 0
33.6968 31.0235 -79.1788 0.519 -0.772 0.368 146 132 119 0
33.7528 29.2274 -78.4645 -0.862 -0.506 0.036 142 127 117 0
34.2284 28.7494 -78.5348 -0.731 -0.679 -0.065 246 246 242 0
34.5173 28.7603 -78.7027 -0.737 -0.673 -0.069 254 255 254 0
35.4099 29.1855 -79.3839 -0.226 -0.945 0.237 255 255 255 0
-27.0049 49.1815 -52.6980 -0.794 -0.531 0.297 213 197 207 0
-26.2343 49.9445 -53.4530 0.046 -0.866 -0.498 210 195 202 0
-25.7387 48.6255 -53.1827 -0.544 -0.608 -0.578 207 191 200 0
-25.6362 44.6441 -51.5777 -0.811 -0.473 -0.343 205 183 196 0
-22.5651 51.5492 -56.2009 0.403 -0.878 0.261 178 146 159 0
-22.5575 44.7101 -53.3485 -0.802 -0.235 -0.549 158 112 129 0
-22.5283 42.3246 -52.3686 -0.801 -0.252 -0.543 159 104 122 0
-21.6126 40.1978 -51.9988 -0.916 -0.350 -0.194 156 90 108 0
-21.4505 39.9142 -51.9721 -0.911 -0.351 -0.218 154 89 107 0
-21.3120 35.1435 -50.0578 0.188 -0.907 -0.376 141 77 96 0
-21.1385 34.9746 -50.0855 0.406 -0.843 -0.353 139 76 95 0
-19.7543 34.6414 -50.7301 -0.668 -0.579 -0.467 125 70 89 0
-16.2474 36.0880 -53.3200 -0.372 -0.689 -0.623 114 75 92 0
-15.7685 37.1647 -54.0410 0.303 -0.846 0.439 113 75 92 0
-15.0401 36.5864 -54.2119 0.159 -0.735 -0.660 108 77 95 0
-14.7846 35.8805 -54.0617 -0.570 -0.821 -0.031 106 78 95 0
-14.1216 37.6026 -55.1564 -0.472 -0.852 -0.224 105 79 96 0
-13.9690 37.3394 -55.1329 -0.479 -0.856 -0.196 104 78 97 0
-10.7889 33.0407 -55.1380 -0.582 -0.728 0.361 164 163 171 0
-4.2509 44.9332 -63.8075 0.571 -0.819 -0.045 172 171 179 0
-4.0654 44.7450 -63.8339 0.586 -0.810 0.008 171 170 178 0
-4.3137 38.2969 -61.0000 -0.856 -0.361 0.369 170 171 175 0
6.5049 38.4818 -67.2031 -0.748 -0.599 -0.284 166 165 161 0
6.1977 25.1254 -61.4502 -0.313 -0.940 0.135 162 157 153 0
13.3978 29.2435 -67.2472 -0.155 -0.368 0.917 160 151 144 0
13.5263 29.0293 -67.2305 -0.153 -0.374 0.915 161 152 144 0
7.6159 18.0485 -59.2972 0.496 -0.708 0.502 161 154 145 0
7.9238 18.2027 -59.5359 0.494 -0.699 0.518 159 151 143 0
16.8158 28.2403 -68.7636 -0.766 -0.619 0.176 160 149 143 0
17.0179 28.1572 -68.8433 -0.593 -0.799 -0.098 159 148 142 0
18.6470 30.4482 -70.7227 -0.583 -0.769 -0.260 159 148 142 0
21.8327 34.8502 -74.3653 0.800 -0.600 0.011 156 145 139 0
22.4322 34.5037 -74.5600 -0.408 -0.612 0.678 158 145 137 0
29.1553 35.4969 -78.7817 0.457 -0.756 -0.468 155 143 132 0
33.6395 32.9680 -80.2645 0.331 -0.875 -0.353 146 132 123 0
33.7161 29.2688 -78.7627 -0.862 -0.506 0.036 143 126 116 0
33.7875 28.9940 -78.6884 -0.855 -0.518 0.010 93 84 79 0
34.2038 28.8053 -78.8453 -0.731 -0.679 -0.065 246 246 243 0
34.3756 28.6638 -78.8834 -0.744 -0.665 -0.061 254 255 254 0
35.2080 29.0122 -79.5003 -0.300 -0.935 0.192 255 255 255 0
-73.9431 74.1007 -36.8406 0.230 -0.757 -0.612 230 225 219 0
-28.5728 54.0170 -54.1350 0.130 -0.946 -0.297 220 207 215 0
-28.3959 53.5434 -54.0363 -0.004 -0.956 -0.294 219 206 214 0
-26.7703 48.3159 -52.7625 -0.712 -0.665 0.225 212 197 205 0
-26.1461 49.6690 -53.6848 -0.556 -0.734 -0.389 210 195 202 0
-25.5597 37.2549 -48.8029 0.229 -0.145 0.963 198 170 185 0
-23.3150 48.9082 -54.9708 0.400 -0.873 -0.278 186 159 172 0
-21.8828 52.0559 -57.1053 0.420 -0.841 -0.342 170 133 151 0
-21.3789 39.6375 -52.1747 -0.847 -0.382 -0.371 154 90 110 0
-21.2522 39.1747 -52.0521 -0.891 -0.285 -0.353 149 86 106 0
-21.2937 36.7530 -51.0114 -0.988 -0.155 -0.022 143 80 100 0
-18.6698 38.1369 -53.0808 -0.779 -0.327 -0.535 124 75 93 0
-17.7106 35.7047 -52.6031 -0.770 -0.589 -0.244 119 74 94 0
-17.0113 35.9548 -53.1047 -0.080 -0.758 -0.647 118 78 97 0
-15.9339 36.8471 -54.0906 0.247 -0.843 0.478 110 78 95 0
-15.8112 36.4608 -53.9978 0.295 -0.842 0.452 109 77 94 0
-15.7201 35.9523 -53.8359 0.428 -0.614 0.663 107 77 94 0
-15.5777 35.6564 -53.7924 0.437 -0.668 0.602 106 78 95 0
-15.2209 35.3586 -53.8697 -0.195 -0.858 0.476 102 79 97 0
-10.9540 33.4964 -55.5073 -0.849 -0.492 0.193 165 164 173 0
4.7805 21.1403 -59.2406 -0.557 -0.492 -0.669 160 155 151 0
4.4787 14.8346 -56.4207 -0.594 -0.699 -0.398 161 153 149 0
12.7448 29.0919 -67.0973 -0.242 -0.074 0.967 160 151 147 0
12.4199 26.3122 -65.7455 0.704 -0.710 -0.023 158 151 143 0
4.1761 8.8223 -53.7236 -0.260 -0.160 0.952 160 150 144 0
4.4002 8.5196 -53.7236 0.130 -0.174 0.976 160 150 145 0
26.8641 24.8717 -73.3320 -0.249 -0.810 -0.531 149 132 125 0
33.7381 29.3876 -79.1273 -0.884 -0.468 0.004 141 125 115 0
33.7556 29.0412 -78.9917 -0.855 -0.518 0.010 92 84 78 0
34.1793 28.8613 -79.1565 -0.731 -0.679 -0.065 246 246 243 0
34.3512 28.7196 -79.1945 -0.744 -0.665 -0.061 255 255 254 0
35.1169 28.9815 -79.7387 -0.289 -0.937 0.197 255 255 255 0
-74.0681 74.0997 -37.0815 0.239 -0.760 -0.605 230 226 221 0
-34.9914 46.5048 -47.6214 0.075 -0.862 -0.501 226 218 218 0
-26.8930 48.1340 -52.9096 -0.730 -0.649 0.215 214 198 208 0
-25.7072 48.6732 -53.8109 -0.396 -0.607 -0.689 210 193 203 0
-24.1106 41.7261 -51.7833 -0.107 -0.350 0.930 187 163 176 0
-21.2150 39.8504 -52.6358 -0.575 -0.557 -0.599 152 94 116 0
-21.0725 39.4691 -52.5556 -0.819 -0.391 -0.421 147 89 112 0
-20.9570 38.9541 -52.4037 -0.857 -0.343 -0.384 145 86 109 0
-20.8483 38.4132 -52.2369 -0.759 -0.386 -0.524 144 84 108 0
-19.8556 34.9819 -51.3515 -0.836 -0.527 -0.149 126 77 99 0
-19.3207 36.5123 -52.3017 -0.031 -0.977 0.211 125 77 98 0
-19.1145 36.4831 -52.4065 -0.031 -0.977 0.211 125 78 99 0
-19.0150 35.9612 -52.2426 -0.358 -0.895 0.266 124 79 99 0
-18.8101 35.9293 -52.3455 0.162 -0.938 0.306 123 78 99 0
-18.6121 35.8652 -52.4309 0.176 -0.939 0.297 122 76 99 0
-18.4263 35.7460 -52.4861 0.171 -0.877 0.449 121 78 98 0
-17.0287 35.3437 -53.1100 0.050 -0.970 0.238 109 77 96 0
-16.7703 35.5313 -53.3360 0.016 -0.972 0.234 108 79 96 0
-16.5939 35.3735 -53.3695 -0.000 -0.971 0.239 108 80 95 0
-16.3521 35.4868 -53.5548 0.020 -0.998 -0.064 108 82 98 0
-16.1432 35.4627 -53.6633 0.030 -0.998 -0.055 108 83 99 0
-15.9845 35.2342 -53.6568 -0.038 -0.994 -0.103 108 83 100 0
-15.5635 35.1976 -53.8806 -0.428 -0.772 0.470 107 88 104 0
-15.4543 34.7776 -53.7651 -0.557 -0.729 0.398 105 89 106 0
-14.8131 34.7605 -54.1221 0.018 -0.970 0.242 112 98 113 0
-11.8680 36.7284 -56.6263 -0.248 -0.950 -0.190 161 158 167 0
26.9565 25.0918 -73.7637 -0.249 -0.811 -0.529 147 132 125 0
33.7135 29.4452 -79.4407 -0.884 -0.467 -0.005 139 124 114 0
33.7395 29.1094 -79.3136 -0.909 -0.417 0.016 91 82 77 0
33.8213 28.8486 -79.2499 -0.954 -0.301 -0.001 48 49 48 0
34.1751 28.9441 -79.4912 -0.743 -0.665 -0.073 246 246 243 0
34.3229 28.7705 -79.5018 -0.719 -0.689 -0.093 255 255 254 0
36.1240 30.7397 -81.3567 -0.616 -0.786 -0.053 254 255 255 0
-74.2405 74.3121 -37.3864 0.227 -0.758 -0.611 229 224 218 0
-34.8740 50.1028 -49.4990 0.314 -0.898 -0.309 224 218 218 0
-25.3180 47.3757 -53.7771 0.527 -0.789 -0.315 210 192 203 0
-24.8410 47.5891 -54.1391 0.053 -0.934 -0.353 208 190 200 0
-25.8987 38.9405 -49.8638 0.394 -0.324 0.860 206 188 200 0
-24.1373 40.8098 -51.6599 -0.116 -0.299 0.947 191 169 182 0
-21.4992 48.6390 -56.4863 -0.220 -0.523 0.824 174 142 157 0
-16.8111 35.7249 -53.6679 0.184 -0.975 -0.124 111 90 105 0
-16.6125 35.6575 -53.7523 -0.318 -0.877 -0.359 112 91 106 0
-10.5443 37.7266 -58.0834 0.162 -0.915 -0.369 166 163 172 0
-9.9485 38.2053 -58.6257 0.157 -0.859 -0.487 170 169 177 0
-11.1296 33.4708 -55.9427 -0.575 -0.812 -0.100 170 169 177 0
-6.3389 40.0972 -61.4828 0.422 -0.771 -0.476 173 171 177 0
-3.5778 41.8948 -63.8172 0.468 -0.662 -0.585 171 171 180 0
-5.2553 9.1719 -48.9634 -0.348 -0.552 -0.758 163 162 158 0
-5.3159 8.2392 -48.5328 -0.517 -0.413 -0.749 162 161 157 0
7.9424 34.0049 -67.0197 0.161 -0.679 -0.717 163 158 155 0
12.7393 26.7052 -66.6481 0.678 -0.731 -0.080 158 151 143 0
7.2418 11.7770 -57.1797 0.817 -0.481 0.319 159 147 141 0
21.1254 27.3271 -71.6831 -0.172 -0.630 -0.757 154 142 130 0
15.1860 9.7737 -60.8482 -0.681 -0.507 0.529 146 134 122 0
26.8877 25.0887 -74.0106 0.169 -0.823 -0.542 147 133 125 0
33.6702 29.4783 -79.7336 -0.886 -0.463 0.011 141 126 117 0
33.8261 28.9437 -79.5953 -0.951 -0.310 -0.018 48 49 48 0
34.1174 28.9572 -79.7668 -0.731 -0.679 -0.069 246 246 243 0
34.3038 28.8334 -79.8202 -0.719 -0.689 -0.093 255 255 254 0
-74.4302 74.6002 -37.7148 0.225 -0.764 -0.604 230 225 219 0
-34.3142 53.7991 -51.6883 0.616 -0.770 0.165 223 218 218 0
-28.9946 52.9995 -54.3778 0.520 -0.851 0.074 219 208 213 0
-27.4898 50.3269 -54.0938 -0.628 -0.771 -0.107 216 201 211 0
-25.5332 48.1320 -54.2711 -0.692 -0.503 -0.518 211 194 204 0
-22.6347 43.9002 -54.1152 0.563 -0.820 0.101 187 163 177 0
-21.8422 47.2215 -55.9853 -0.075 -0.512 0.856 186 160 173 0
-21.0416 50.5142 -57.8479 0.714 -0.579 -0.394 185 153 168 0
-20.8228 50.4274 -57.9355 0.544 -0.550 -0.634 177 143 156 0
-18.9524 43.3565 -55.9812 0.821 -0.557 0.122 133 94 114 0
-18.7399 43.2965 -56.0766 0.148 -0.300 0.942 127 90 109 0
-18.3087 44.2910 -56.7470 0.390 -0.237 0.890 124 89 106 0
-12.3204 36.5296 -56.8441 -0.615 -0.702 0.359 168 165 176 0
-12.1457 30.3323 -54.2967 -0.542 -0.765 0.348 171 170 178 0
-11.9099 29.7036 -54.1625 -0.505 -0.767 0.397 170 169 177 0
-10.9601 30.0299 -54.8431 -0.717 -0.573 0.397 171 169 180 0
-10.9355 29.4233 -54.5980 -0.615 -0.739 0.276 172 170 181 0
-5.5102 39.2837 -61.9009 0.351 -0.754 -0.555 173 172 179 0
-4.4484 40.3134 -62.9457 0.423 -0.728 -0.539 172 173 179 0
-3.5074 42.3639 -64.3577 0.455 -0.662 -0.596 172 172 180 0
-11.6268 17.4878 -49.1062 -0.705 -0.699 0.119 173 172 178 0
6.4286 31.5102 -65.3834 -0.143 -0.725 -0.674 163 158 155 0
8.2131 21.2293 -62.0090 0.548 -0.833 0.076 158 151 143 0
8.9768 21.7862 -62.6821 0.473 -0.856 -0.207 157 150 140 0
9.3150 21.9814 -62.9581 0.445 -0.863 -0.240 157 150 140 0
3.8384 7.8591 -53.8057 -0.050 -0.241 0.969 159 148 143 0
15.3044 24.1385 -67.2922 0.223 -0.832 0.509 159 146 137 0
20.9117 27.5051 -71.9251 -0.171 -0.625 -0.762 154 141 132 0
33.6493 29.5412 -80.0526 -0.897 -0.441 0.034 142 127 118 0
34.0886 29.0082 -80.0753 -0.729 -0.676 -0.110 246 246 243 0
34.2734 28.8820 -80.1267 -0.719 -0.687 -0.101 254 255 254 0
34.4307 28.7204 -80.1473 -0.719 -0.687 -0.101 254 255 255 0
34.6322 28.6165 -80.2178 -0.733 -0.668 -0.129 255 255 255 0
-34.4037 54.0523 -52.0471 0.595 -0.799 -0.085 223 219 220 0
-33.9775 53.7686 -52.1685 0.359 -0.930 0.074 224 218 220 0
-22.0193 46.7596 -55.9827 0.045 -0.999 -0.006 191 167 181 0
-19.7196 42.2270 -55.3485 0.763 -0.641 -0.082 134 98 115 0
-19.1060 43.0627 -56.0575 0.619 -0.747 0.243 128 96 111 0
-12.1609 38.2331 -57.9469 -0.558 -0.826 0.081 170 167 177 0
-12.3111 36.8771 -57.2787 -0.650 -0.757 0.065 171 168 179 0
-11.2334 39.1171 -58.8558 0.248 -0.945 -0.214 172 169 179 0
-11.0074 39.1079 -58.9809 0.007 -0.994 -0.110 172 169 180 0
-11.0867 38.0288 -58.4722 -0.047 -0.917 -0.396 173 170 181 0
-13.8375 25.5783 -51.5550 0.494 -0.593 0.636 171 169 179 0
-12.1234 29.9684 -54.4187 -0.460 -0.771 0.440 172 171 179 0
-4.5176 40.3713 -63.2272 0.443 -0.719 -0.536 172 173 179 0
2.1252 41.0667 -67.3168 0.803 -0.471 0.365 174 172 173 0
6.7515 32.3560 -66.2159 -0.101 -0.736 -0.669 161 156 153 0
0.8343 11.1809 -53.7447 0.042 -0.758 -0.651 160 150 149 0
7.3969 20.2748 -61.3955 0.378 -0.834 -0.401 156 151 145 0
7.8395 20.6724 -61.8189 0.310 -0.844 -0.437 158 151 143 0
8.7751 21.5461 -62.7280 0.391 -0.844 -0.367 158 151 141 0
4.8530 12.5625 -56.6314 -0.670 -0.236 0.704 159 150 141 0
9.6898 19.1303 -62.2125 -0.879 -0.360 0.312 157 146 141 0
24.5370 32.0032 -76.2144 -0.226 -0.594 -0.772 153 141 129 0
34.0735 29.0774 -80.4002 -0.729 -0.676 -0.110 246 246 243 0
34.2372 28.9232 -80.4274 -0.731 -0.680 -0.065 254 255 254 0
35.2048 29.4448 -81.2036 -0.786 -0.618 0.001 255 255 255 0
-74.3544 73.1366 -37.7556 0.183 -0.848 -0.497 231 226 220 0
-34.8497 52.0584 -51.2333 0.657 -0.744 0.122 222 218 219 0
-26.9794 54.3533 -56.7229 0.056 -0.518 0.853 214 201 211 0
-26.9807 48.8297 -54.3368 -0.932 -0.362 0.013 215 200 210 0
-24.8697 47.8883 -55.1369 -0.264 -0.857 -0.443 211 194 204 0
-24.3875 43.7352 -53.6190 -0.670 -0.276 0.689 208 186 200 0
-22.0585 40.7795 -53.6738 0.579 -0.301 0.758 183 158 169 0
-20.5842 41.6699 -54.9010 0.621 -0.662 0.420 157 127 142 0
-19.7611 42.4891 -55.7253 0.728 -0.682 -0.073 145 116 132 0
-19.4079 43.1431 -56.2095 0.745 -0.665 -0.050 143 114 130 0
-19.1917 43.1040 -56.3163 0.633 -0.733 0.250 138 110 125 0
-18.9200 43.3361 -56.5718 0.410 -0.193 0.891 138 112 127 0
-12.2212 29.9133 -54.6041 -0.290 -0.564 0.773 173 172 180 0
-12.0546 29.7621 -54.6341 -0.267 -0.856 0.443 173 172 180 0
-11.8958 29.5859 -54.6487 -0.069 -0.912 0.405 173 172 179 0
-10.3486 33.9817 -57.4314 -0.815 -0.499 0.293 173 172 178 0
-14.6027 10.7973 -44.9876 0.196 -0.384 0.902 173 173 179 0
-4.6208 13.9602 -52.0590 -0.312 -0.551 -0.774 162 163 159 0
0.6516 11.3323 -53.9378 0.093 -0.765 -0.637 160 150 149 0
1.0434 11.6978 -54.3197 0.093 -0.765 -0.637 162 152 152 0
7.8575 20.8307 -62.1585 0.190 -0.883 -0.429 158 151 143 0
9.6802 22.4720 -63.9091 0.399 -0.838 -0.373 156 149 139 0
9.7069 18.8831 -62.3745 -0.820 -0.542 0.185 159 148 144 0
2.8543 6.3727 -53.0550 0.487 -0.559 0.671 159 148 143 0
2.9709 6.2382 -53.0636 0.477 -0.501 0.722 157 146 140 0
3.5149 5.8361 -53.2009 -0.135 -0.209 0.968 158 145 138 0
12.8968 11.1553 -60.8606 0.006 -0.906 -0.424 149 134 126 0
11.1856 4.3810 -56.9570 -0.004 -0.874 -0.487 145 133 121 0
34.0263 29.1048 -80.6894 -0.744 -0.665 -0.067 246 246 243 0
34.2203 28.9896 -80.7505 -0.736 -0.674 -0.065 254 255 254 0
34.5428 28.6753 -80.7991 -0.797 -0.601 0.066 255 255 255 0
-74.5108 73.2768 -38.0390 0.314 -0.822 -0.475 234 224 220 0
-41.1570 53.2506 -48.4376 -0.577 -0.544 0.609 230 225 227 0
-24.8582 42.7040 -53.1889 -0.702 -0.199 0.683 207 191 201 0
-24.6969 42.3484 -53.1268 -0.702 -0.199 0.683 207 190 201 0
-24.5105 42.1609 -53.1521 -0.670 -0.247 0.700 208 190 201 0
-24.1348 40.4811 -52.6378 0.582 -0.808 0.088 204 187 197 0
-20.0280 42.7407 -55.9700 -0.335 -0.511 -0.791 178 156 168 0
-19.7706 42.9164 -56.1937 -0.357 -0.503 -0.787 176 154 167 0
-14.8019 41.8874 -58.5914 -0.192 -0.604 -0.774 178 170 184 0
-14.7542 38.4263 -57.1158 -0.841 -0.356 -0.408 177 170 184 0
-12.1545 29.6996 -54.8148 -0.267 -0.856 0.443 173 170 182 0
-10.5125 33.7197 -57.5004 -0.536 -0.828 -0.162 172 171 179 0
-6.6900 9.4333 -49.1431 0.570 -0.623 0.536 162 163 158 0
8.7808 21.8074 -63.3730 0.404 -0.838 -0.366 157 150 140 0
9.2273 22.1986 -63.7984 0.391 -0.832 -0.394 157 150 139 0
9.6853 22.6064 -64.2377 0.410 -0.835 -0.367 155 149 138 0
6.3163 7.5876 -55.7875 0.698 -0.601 0.390 156 145 135 0
11.6924 4.5871 -57.5624 -0.088 -0.874 -0.479 145 131 123 0
33.9853 29.1403 -80.9862 -0.738 -0.671 -0.070 246 246 244 0
34.1558 28.9943 -81.0204 -0.739 -0.670 -0.066 254 255 255 0
-74.6586 73.3773 -38.3108 0.314 -0.822 -0.475 235 223 221 0
-41.0589 52.2879 -48.3687 -0.943 -0.331 -0.019 229 223 223 0
-40.6493 51.2419 -48.1469 0.050 -0.990 -0.132 228 223 222 0
-29.4960 52.1711 -54.9477 -0.285 -0.820 -0.496 218 207 215 0
-27.5061 55.6318 -57.5995 -0.663 -0.747 0.052 217 204 213 0
-25.3151 46.1714 -54.7255 -0.819 -0.571 0.060 211 195 205 0
-25.1501 45.7841 -54.6510 -0.813 -0.576 0.089 211 195 205 0
-18.4771 39.9485 -55.9294 -0.233 -0.528 -0.816 182 168 181 0
-17.2222 34.0238 -54.0622 -0.275 -0.928 -0.250 180 172 185 0
-10.5863 33.7551 -57.7498 -0.592 -0.804 -0.057 173 171 182 0
-15.2602 10.8007 -45.0481 -0.279 -0.953 0.117 174 173 181 0
1.8059 39.0430 -67.1639 0.605 -0.745 0.279 171 172 167 0
4.3017 42.7084 -70.1953 0.924 -0.370 0.102 169 167 168 0
-7.1480 8.5376 -48.7114 0.715 -0.500 0.488 164 162 160 0
-0.8380 16.3522 -55.7413 0.823 -0.568 0.020 161 156 153 0
-0.6472 10.5951 -53.3372 0.428 -0.872 -0.239 158 155 148 0
8.3054 21.4853 -63.2250 0.403 -0.830 -0.387 158 149 142 0
8.7809 21.9337 -63.6934 0.389 -0.830 -0.400 158 150 141 0
9.2778 22.4160 -64.1889 0.391 -0.829 -0.399 155 148 138 0
3.3349 10.5558 -55.6033 0.468 -0.688 0.554 155 148 138 0
5.3587 6.7805 -55.1154 0.697 -0.635 0.333 153 143 133 0
5.7423 7.0778 -55.4651 0.697 -0.639 0.324 153 143 132 0
5.8466 6.9205 -55.4563 0.547 -0.713 0.438 154 144 132 0
33.9618 29.1992 -81.3038 -0.738 -0.671 -0.070 246 246 244 0
34.1161 29.0312 -81.3189 -0.738 -0.671 -0.070 254 255 255 0
34.5320 28.8368 -81.4725 -0.782 -0.622 0.031 255 255 254 0
-75.4845 71.1360 -37.1659 -0.004 -0.877 -0.480 133 133 133 0
-41.5819 53.0282 -48.6867 -0.710 -0.702 -0.053 231 227 228 0
-41.3694 53.1483 -48.8615 -0.926 -0.371 -0.066 231 226 226 0
-29.6525 53.8956 -55.9183 -0.390 -0.757 -0.524 220 209 217 0
-29.5993 52.1744 -55.1933 -0.348 -0.795 -0.497 219 208 216 0
-24.9962 45.9901 -55.1220 -0.809 -0.586 -0.029 211 195 205 0
-25.4675 39.9192 -52.1864 -0.042 -0.857 0.514 211 194 204 0
-21.5654 40.2556 -54.5749 0.782 -0.492 0.384 199 178 193 0
-20.4251 43.9855 -56.8671 0.482 -0.719 -0.500 195 177 188 0
-18.0020 36.5691 -55.0031 -0.044 -0.980 -0.192 186 173 187 0
-10.0431 43.8207 -62.7570 0.075 -0.668 0.741 178 176 187 0
-15.2780 21.0352 -49.7484 0.409 -0.784 -0.467 176 172 186 0
-15.1234 20.9048 -49.7800 0.263 -0.711 -0.652 175 171 186 0
-4.5151 11.6002 -51.7876 0.827 -0.484 0.287 165 160 157 0
1.9278 17.8661 -58.2383 -0.961 -0.237 0.142 160 154 148 0
2.0573 16.8531 -57.8680 -0.883 -0.430 0.189 157 152 146 0
-0.5475 9.7610 -53.2588 0.438 -0.763 -0.476 156 149 146 0
0.1582 10.7416 -54.0946 0.433 -0.757 -0.489 157 149 146 0
1.0480 12.0651 -55.1865 0.325 -0.847 -0.420 157 148 146 0
1.3942 12.3393 -55.5057 0.384 -0.836 -0.393 157 148 147 0
0.2850 7.6503 -52.8104 0.296 -0.757 0.583 156 146 142 0
2.5134 6.0812 -53.4013 0.791 -0.420 0.444 155 144 138 0
5.2355 6.6720 -55.2239 0.733 -0.669 0.122 153 143 134 0
5.6957 7.0946 -55.6737 0.733 -0.669 0.122 152 142 131 0
6.1195 7.4542 -56.0749 0.600 -0.799 -0.038 152 142 129 0
29.5846 25.3154 -77.3911 0.641 -0.742 -0.198 141 124 115 0
33.9317 29.2493 -81.6144 -0.739 -0.671 -0.063 246 246 244 0
34.0846 29.0793 -81.6276 -0.735 -0.674 -0.075 254 255 255 0
34.3546 28.6944 -81.6137 -0.816 -0.578 -0.004 255 255 254 0
-75.2694 71.4077 -37.7172 -0.024 -0.872 -0.489 229 220 215 0
-41.8975 53.9190 -49.1934 -0.882 -0.435 -0.183 231 226 227 0
-41.4739 53.4099 -49.2124 -0.883 -0.454 -0.119 230 224 224 0
-40.8418 52.7483 -49.2839 -0.121 -0.988 0.093 228 222 222 0
